-358.23 398.089 1303.47 234 233 228
-461.717 134.418 1218.13 255 249 228
-475.606 152.87 1279.75 252 223 195
-478.145 146.455 1277.97 62 39 22
139.319 -71.2198 972.235 249 252 250
167.724 -45.5547 1019.33 157 162 156
-409.106 347.531 1371.52 255 246 229
-469.342 228.047 1363.67 255 239 225
158.396 -26.223 924.09 239 239 224
-370.109 208.646 1397.95 185 152 136
-640.072 415.479 1489.68 55 53 44
250.319 175.571 1039.82 80 92 82
245.27 34.1725 923.761 255 255 235
182.646 11.1098 983.145 203 207 200
-561.547 127.48 1459.61 84 58 42
115.619 170.118 1061.89 251 245 228
-500.86 424.086 1324.65 66 64 66
-582.47 158.793 1286.09 107 77 50
-604.927 246.466 1386.5 76 75 70
-538.058 216.516 1262.44 226 222 202
-404.295 108.976 1044.78 220 201 176
127.646 3.51374 1012.73 214 206 201
100.891 32.56 963.628 255 251 237
86.2213 75.7002 1094.31 250 246 236
295.877 106.198 1041.69 240 244 237
-699.685 153.955 1323.34 106 90 80
-614.05 355.403 1400.46 90 81 69
16.4902 -39.2379 993.356 187 179 159
323.008 252.76 1110.53 238 236 236
283.699 82.122 1027.13 249 255 247
167.829 -161.927 1213.73 39 42 38
-414.806 94.6475 1041.88 255 244 220
-597.177 399.202 1410.07 232 233 219
-418.891 84.5383 1362.94 65 40 27
212.753 35.0878 953.241 239 244 240
50.1197 -99.0655 1048.29 216 183 173
69.5351 198.549 1168.17 255 243 244
-600.848 519.355 1624.45 200 204 204
-472.176 538.135 1427.57 73 82 75
-657.63 395.031 1474.83 78 83 72
99.1958 -49.2696 934.383 196 185 186
-461.788 391.671 1271.88 80 82 78
-368.87 254.242 1414.55 83 49 31
-328.968 351.207 1604.21 219 213 196
-461.824 505.308 1355.86 126 126 120
-504.717 99.3518 1277.3 131 99 61
80.9473 -100.967 1124.38 232 185 180
-299.342 327.83 1444.73 60 55 41
0.197219 52.4599 1115.74 253 250 252
168.551 21.9879 997.958 236 224 217
132.345 -71.4526 988.436 95 92 88
235.09 126.643 1051.09 99 105 81
155.442 -39.9331 909.582 74 77 72
-366.281 79.2775 1381.74 178 166 154
-512.342 607.601 1589.92 125 132 126
323.738 266.916 1095.62 206 209 199
-411.928 308.2 1322.36 157 135 123
-360.545 235.866 1344.91 219 183 165
309.41 254.077 1051.04 207 207 198
-541.488 217.426 1332.41 122 115 103
309.712 -195.201 1127.29 50 44 41
54.0226 -102.098 1099.5 255 248 243
-594.036 364.896 1410.9 224 224 210
75.9772 189.316 1100.17 253 233 215
-464.144 248.708 1368.6 255 252 229
52.5988 -139.129 1196.54 79 74 71
9.98047 85.8932 1081.7 228 222 225
-490.545 209.071 1169.15 142 140 140
85.9629 78.5745 988.575 241 239 224
331.911 283.02 1112.41 227 232 224
-14.1978 48.5116 1074.67 251 245 238
-6.0802 117.713 1080.74 255 254 242
-393.182 225.514 1493.11 87 52 34
-370.974 272.7 1174.81 255 247 233
-584.267 353.385 1344.72 253 251 243
-373.878 229.332 1399.32 65 32 14
101.912 5.38758 875.523 222 215 195
-355.71 265.635 1410.53 42 24 19
297.273 164.819 1006.07 242 243 220
-353.606 247.95 1284.27 172 150 139
-52.0297 -20.9148 982.636 64 68 63
288.68 148.739 987.145 216 214 197
-530.757 182.408 1207.13 165 125 98
288.878 238.18 1047.85 249 255 252
-17.6899 47.8215 1008.8 224 208 202
-14.1211 114.997 1079.02 246 242 239
-351.97 369.158 1247.62 246 234 203
11.5568 -34.134 992.857 180 179 152
242.311 389.344 1203.1 71 84 82
145.644 207.737 1068.64 145 126 121
240.473 126.753 1051.78 121 135 112
-553.855 183.328 1259.2 254 239 207
-398.167 426.271 1434.78 179 167 141
-400.817 92.0017 1370.74 151 134 131
-390.774 185.531 1106.29 174 141 120
-429.775 50.7578 1354.19 155 132 124
-516.922 15.8421 1184.16 240 229 206
-604.293 158.325 1295.97 214 195 183
0.232393 111.553 1169.17 255 247 247
20.0973 67.9443 1016.3 255 251 252
93.4849 296.335 1249.35 244 247 221
-570.324 173.924 1243.46 238 227 201
23.8834 -91.7527 1183.1 79 71 70
273.278 148.561 1021.79 244 249 236
171.14 -84.9749 974.98 163 173 167
217.535 -34.0138 886.043 224 232 206
215.662 407.278 1211.11 107 132 135
-588.009 34.0428 1156.02 249 247 225
-19.4768 101.41 1077.15 255 251 245
128.799 155.46 1080.16 237 227 230
11.5424 -38.8894 992.576 193 190 164
89.3256 283.829 1207.33 244 245 221
-562.386 48.2993 1168.58 120 71 54
153.253 -31.1401 909.864 241 238 229
355.145 388.452 1255.76 81 108 106
330.305 534.991 1355.32 163 192 212
-525.085 170.534 1207.82 175 135 111
268.52 403.303 1244.35 126 163 166
-514.62 21.6681 1185.67 174 153 122
312.448 504.049 1287.82 217 242 247
222.591 -44.8617 916.279 184 188 161
-484.282 16.5023 1259.72 153 140 125
64.7307 67.1769 935.917 249 248 225
-854.987 101.347 1492.22 253 247 240
-554.522 377.852 1291.7 245 243 241
288.168 117.787 1016.95 204 216 194
26.4705 166.337 1089.91 230 219 218
48.4037 -129.176 1223.32 97 91 88
320.322 431.119 1253.27 104 120 124
7.43308 144.79 1084.98 86 69 57
393.34 485.327 1262.42 41 63 87
110.947 209.107 1129.58 255 249 232
-482.178 69.5293 1317.07 155 149 140
165.165 -150.029 1113.3 62 67 62
-427.486 10.1158 1117.44 159 143 127
-438.659 315.167 1263.59 173 156 135
-401.278 351.926 1349.07 163 124 104
-481.009 168.602 1064.62 160 138 122
83.2396 125.525 1054 255 240 231
13.9036 -65.7769 991.461 188 190 180
295.889 503.018 1285.35 91 140 154
-464.167 -10.6936 1264.5 135 125 107
30.46 -123.689 1141.88 220 216 198
267.767 150.654 1056.18 248 255 246
-489.91 115.442 1205.35 249 237 229
88.0338 216.982 1151.34 214 199 191
212.666 -53.32 884.371 186 193 183
66.7691 -128.616 1171.46 207 139 122
-356.414 224.652 1485 153 113 96
-387.815 117.862 1524.66 121 125 121
-53.2985 -17.3731 983.699 84 79 74
38.8482 -85.3585 1074.45 228 193 196
85.557 178.5 1016.91 209 194 190
249.374 77.6888 995.368 242 248 234
227.256 30.1908 954.511 221 236 220
-552.916 53.8546 1173.19 148 63 38
168.825 -82.7574 969.718 105 134 126
242.057 33.2759 936.371 236 239 211
150.054 14.8006 958.72 212 195 193
206.645 92.12 1029.26 255 252 228
227.349 7.17495 889.552 194 206 186
-520.194 35.3802 1229.02 215 189 151
-27.7339 -25.9279 986.694 149 130 107
53.193 57.8354 1021.49 231 199 177
300.159 179.798 1007.22 208 214 196
131.743 -79.2904 1007.36 84 102 109
-385.663 4.69062 1439.46 64 58 52
25.451 150.075 1045.57 239 236 239
70.7993 -94.046 1150.91 156 144 139
164.072 301.276 1146.09 220 214 189
54.1862 127.3 1049.31 250 237 209
30.7221 185.937 1069.8 250 252 253
81.9791 26.0168 1007.67 211 192 166
-725.528 53.1169 1209.33 245 241 224
80.1122 348.456 1157.07 117 111 106
-564.53 384.678 1288.95 143 144 140
161.273 -85.2764 973.86 136 156 153
-362.033 83.0599 1460.72 147 141 133
-369.819 92.8491 1382.28 40 32 16
-560.007 198.803 1259.08 196 181 167
238.261 74.8075 1009.25 222 239 225
-337.929 83.5354 1392.35 28 27 20
58.4447 -89.8549 1120.96 199 159 142
130.928 108.732 1103.87 254 246 220
-616.376 266.144 1312.3 245 216 202
115.792 101.468 1017.4 254 253 225
92.8067 -99.8803 1081.63 240 210 194
9.3134 56.0132 997.744 193 182 179
83.8825 23.177 970.871 222 201 175
96.7463 217.189 1152.91 201 179 159
-450.508 227.276 1190.72 181 158 142
159.93 -48.8032 909.539 71 77 74
-556.072 291.762 1480.47 255 249 232
-423.535 44.1876 1355.71 160 133 119
-333.195 58.8243 1326.41 71 59 52
47.6221 140.8 1066.03 247 246 228
-469.07 116.945 1154.38 216 178 158
86.578 -38.1184 1210.25 104 97 94
-558.308 170.541 1254.99 235 215 189
-625.071 120.143 1214.17 246 246 242
-1.05935 -47.7469 1070.33 44 38 21
-519.626 283.852 1550.13 188 161 131
-392.286 31.6724 1511.68 50 45 36
-678.907 92.5388 1181.34 135 118 114
-615.678 125.901 1285.8 168 161 169
95.5378 187.422 1081.15 151 151 138
-389.786 90.4969 1239.32 134 111 104
62.5001 254.785 1101.28 114 115 104
-587.767 26.8673 1158.47 151 137 128
288.477 217.802 1068.41 215 230 208
-580.139 333.245 1342.68 197 204 186
114.491 -110.35 1083.9 137 116 107
250.082 -8.41982 989.193 235 230 225
-679.379 239.583 1349.03 251 244 230
-403.612 328.782 1327.67 167 140 125
298.944 298.611 1094.18 218 239 214
-505.61 77.1301 1238.49 250 223 183
-470.81 4.7778 1214.04 156 134 111
-623.331 34.7373 1201.61 235 230 215
162.979 205.264 1115.43 234 216 205
280.297 352.761 1167 213 210 193
-386.684 76.366 1519.73 53 28 16
-509.788 97.0408 1195.59 254 249 240
61.3598 103.219 1138.46 227 217 196
90.9509 -99.4515 1126.39 128 122 110
223.409 -7.31065 902.911 240 240 227
79.0472 30.5312 970.588 204 185 160
159.422 215.043 1087.03 213 196 184
-543.617 39.3119 1287.81 204 164 130
227.432 39.6867 955.156 204 215 191
-376.124 69.0674 1522.76 126 108 95
288.866 132.449 1003.22 179 183 166
77.0732 128.52 1070.55 245 238 224
73.8459 -33.4851 1106.89 120 114 109
-414.906 335.3 1450.9 148 135 131
-636.907 135.837 1277.02 250 225 235
-406.236 273.49 1269.76 192 159 140
-607.822 125.883 1289.52 187 189 190
-19.2902 82.9071 1096.34 255 251 248
-3.4521 85.7686 1079.18 255 249 253
-505.122 109.038 1198.72 250 234 215
321.838 402.721 1226.01 140 168 170
129.164 -119.352 1182.81 236 223 213
251.707 332.084 1089.35 179 179 166
-489.378 177.97 1223.89 255 248 235
391.82 486.699 1296.49 96 134 151
90.4372 141.032 1015.79 245 226 212
-615.855 234.677 1239.05 177 159 146
-443.304 -7.80628 1549 106 126 122
269.828 140.561 943.228 214 229 199
46.1778 24.9479 980.239 182 166 149
176.74 -154.131 1429.43 145 94 78
-370.792 224.595 1326.62 119 94 85
174.163 190.674 1052.09 204 200 188
119.674 131.683 1091.59 160 150 143
41.6706 31.3906 1001.69 162 159 143
-518.901 151.485 1311.28 252 237 231
-3.27082 62.6771 1035.3 177 171 172
-534.568 305.204 1223.64 112 120 101
213.064 -136.847 1075.48 37 89 73
-2.54901 -44.8195 1064.94 147 142 119
-288.877 207.01 1425.57 93 77 68
153.738 -94.2205 972.395 92 96 92
-657.587 141.989 1267.86 233 197 180
71.6342 115.299 1069.07 225 233 201
66.9004 -53.1966 1033.59 125 109 92
54.1463 119.568 1048.84 234 220 195
269.982 122.638 1015.03 234 248 222
206.655 -12.3028 886.318 214 226 190
94.6251 155.872 979.528 252 217 198
-660.291 134.032 1181.87 255 251 245
-544.215 388.857 1297.92 102 103 83
289.69 166.474 1059.49 239 246 221
-386.586 225.202 1154.83 255 251 223
94.4898 14.7028 951.123 109 97 77
108.93 118.472 1013.11 186 141 113
25.9767 -56.6552 1009.54 176 144 116
234.993 -25.8421 944.367 212 214 193
121.241 199.227 1064.38 194 170 161
-594.014 35.4339 1136.54 205 200 188
-435.102 -6.22482 1584.26 62 65 65
-527.557 99.4718 1188.74 230 204 194
150.718 100.787 949.572 249 245 217
145.232 153.118 1082.63 253 221 201
-391.211 80.4373 1615.62 92 88 71
-350.871 234.064 1267.16 116 90 75
105.453 220.039 1044.03 179 166 130
-467.409 476.074 1337.19 144 143 137
-699.682 119.874 1238.68 250 247 242
275.192 122.659 1015.65 149 168 137
-627.331 112.335 1209.67 187 156 151
161.455 163.284 1068.47 243 218 201
-321.311 187.831 1412.1 40 16 6
-17.942 80.1176 1094.73 252 247 248
-526.282 186.502 1391.21 185 149 125
-718.094 322.885 1523.92 169 158 160
-647.924 107.504 1200.39 255 253 243
303.387 171.749 1061.34 250 253 225
-807.169 110.98 1421.54 238 236 230
299.421 225.355 1048.45 193 199 184
-345.103 256.621 1772.4 125 113 104
-543.534 161.678 1377.53 255 247 235
-511.788 82.5504 1193.21 212 167 143
-497.858 121.168 1202.87 190 153 139
-525.386 108.363 1190.58 187 145 131
235.216 -0.318766 945.12 141 162 135
102.094 154.041 1058.82 222 196 186
-543.806 70.7128 1178.87 224 179 158
-368.728 391.171 1422.14 177 169 149
-708.815 103.455 1235.86 198 194 189
55.1277 267.858 1168.17 189 185 178
-613.926 286.139 1310.56 178 162 162
-647.552 98.4906 1250.7 239 235 219
-366.317 216.709 1480.15 158 137 123
117.944 -171.296 1261.83 131 100 80
-445.492 176.272 1294.25 53 39 32
-642.854 43.8577 1193.46 242 227 217
179.609 -116.677 1010.39 86 95 87
