44.2894 7.83382 1206.4 255 246 229
281.807 -73.6108 1597.14 232 217 194
11.0211 407.379 1147.27 246 221 193
-24.9547 187.231 1059.91 18 0 1
38.21 -3.94406 1204.43 210 197 182
46.0757 454.284 1185.41 148 150 150
340.839 -200.535 1744.74 215 228 234
84.8443 458.299 1273.7 69 63 64
-19.5866 79.8586 1076.39 116 19 5
4.69036 397.809 1172.88 238 223 213
-17.783 68.5239 1010.57 251 204 177
309.339 -48.6 1794.6 193 180 177
348.353 62.8658 1936.78 247 241 230
-14.2204 106.577 1079.12 149 84 48
16.0381 469.869 1131.32 203 207 196
16.8118 442.225 1149.9 194 174 162
294.065 33.5067 1702.66 62 51 44
294.324 74.1108 1714.81 137 126 125
64.3192 173.727 1195.03 126 89 72
34.9792 292.305 1197.52 247 237 218
-12.3513 132.417 1032.62 252 225 218
90.1824 -16.6202 1248.87 245 226 211
269.12 21.4503 1613.63 225 208 197
-6.20325 98.622 1080.16 91 55 44
-11.0445 84.2873 1036.01 79 60 43
-6.05232 187.545 1085.54 241 217 232
39.5235 325.638 1174.43 103 88 80
-11.4262 192.845 1084.78 141 75 67
34.2056 447.465 1182.52 72 67 55
20.575 483.898 1171.79 252 255 246
351.038 264.046 1974.67 130 126 117
-17.963 78.4368 995.125 221 145 127
33.4379 374.431 1196.06 186 139 118
5.19432 104.689 1102.8 151 148 145
34.0266 405.623 1179.54 223 221 210
278.894 311.002 1822.67 55 77 85
63.2079 14.6671 1181.57 175 95 85
20.9636 407.208 1179.58 116 95 80
14.5948 489.854 1203.71 151 135 114
299.076 28.6423 1775.09 159 141 134
163.257 -130.859 1490.72 67 68 71
4.78111 433.454 1175.42 99 87 79
-5.38916 104.871 1117.05 150 111 92
38.4688 428.12 1205.82 217 207 203
-11.4006 211.763 1085.84 95 69 64
264.615 71.5004 1702.67 160 155 150
15.8312 398.639 1126.97 135 107 83
5.26886 381.147 1144.95 233 216 208
59.4171 -29.7886 1229.61 70 53 44
24.9208 267.62 1142.98 255 247 239
-1.15122 17.0497 1120.92 203 177 159
0.389808 343.775 1232.06 81 69 69
-16.8834 114.632 1079.1 189 133 115
19.5626 393.495 1148.39 239 237 227
7.80557 241.51 1138 238 221 197
288.172 4.8094 1800.19 190 156 144
13.6848 324.341 1143.85 149 115 107
7.92497 292.705 1140.99 138 127 105
27.1546 479.413 1218.84 111 104 85
64.3957 185.665 1195.95 161 135 119
8.09853 372.724 1145.13 154 141 142
255.787 -22.8532 1688.02 166 141 133
-6.20076 309.17 1138.99 60 46 46
305.652 287.292 1858.66 115 144 147
-3.75483 240.327 1186.11 255 244 225
346.539 19.6213 1927.68 135 110 99
28.0693 362.307 1148.65 255 252 233
281.17 396.881 1876.91 92 103 110
36.8777 384.879 1178.6 227 226 222
262.448 287.864 1751.65 53 81 93
76.7503 194.87 1253.81 161 139 122
287.846 411.624 1991.09 185 206 219
17.9633 82.614 1083.65 254 241 238
9.4304 369.334 1143.44 250 245 250
290.901 -6.49047 1697.01 114 77 59
50.5113 356.552 1230.85 209 204 182
19.8133 441.436 1123.07 99 86 65
-35.516 200.365 1080.35 179 159 139
64.6013 218.521 1198.43 156 156 144
83.1479 433.456 1222.11 139 135 138
325.652 13.3551 1797.82 239 211 191
322.754 2.90923 1889.6 235 201 180
316.456 -15.123 1698.83 244 230 204
-35.5222 146.604 1077.33 99 54 47
354.968 -33.4089 1789.78 255 251 220
28.0668 18.6995 1151.27 226 194 172
242.767 60.3945 1461.9 151 135 132
-24.8599 157.541 1080.09 119 96 105
15.4578 147.302 1087.34 142 104 98
263.216 12.4047 1530.99 83 60 46
23.308 66.5483 1083.54 255 246 227
70.2718 169.702 1250.42 235 216 187
264.516 255.029 1654.19 107 140 145
-14.1705 146.885 1081.59 164 81 49
290.076 377.853 1874.77 134 156 154
1.81132 82.5695 1080.65 132 147 140
274.204 334.167 1862.97 117 136 132
293.607 56.9813 1711.08 84 68 59
63.3477 144.477 1220.4 186 150 117
-51.4464 178.587 1075.86 90 42 23
26.5037 489.55 1236.67 175 160 144
2.38536 411.477 1012.59 172 142 121
64.1948 156.272 1174.91 173 129 104
478.341 91.8172 2568.43 115 102 85
44.4182 122.697 1041.77 189 138 123
15.2155 66.5468 1082.07 255 246 225
79.3802 210.833 1284.51 220 210 195
47.8348 124.364 1214.46 252 232 221
95.6943 -10.8019 1323.8 218 175 145
48.0422 131.577 1092.37 254 224 199
162.524 -167.537 1641.13 182 156 150
288.562 -136.553 1674.39 58 46 36
