-272.294 134.48 1021.17 55 48 43
-159.741 130.195 1049.03 255 247 223
-149.821 161.748 1053.05 255 244 232
-134.459 141.209 1055.47 58 25 13
-176.154 316.376 1094.83 201 199 183
-134.926 158.296 1101.72 37 18 9
-218.279 372.273 1112.35 56 46 40
-126.978 169.431 1104.26 250 235 221
-201.577 344.438 1119.76 216 209 193
-161.308 146.669 1094.72 247 227 205
-240.09 286.48 1082.9 255 250 242
447.209 -6.3403 1282.18 27 23 22
-243.94 366.182 1109.93 117 110 100
-136.968 133.259 1054.46 217 196 179
-265.417 378.365 1154.98 255 253 239
-74.5065 124.454 1025.32 47 6 5
-116.307 180.822 1107.41 70 69 54
-177.15 -14.7355 974.907 65 33 21
-144.405 99.1526 1050.87 255 233 209
-176.947 41.3237 1060.8 133 87 75
444.433 34.9882 1241.64 254 254 252
-177.046 42.6768 999.003 151 99 74
504.62 22.1644 1290.41 255 244 244
-46.0268 29.4354 1067.51 255 246 220
-253.624 317.868 1103.55 76 64 53
-144.52 120.09 1052 75 25 7
-157.158 119.858 1049.07 77 52 35
-48.6486 18.955 1066.31 255 249 232
-144.803 172.349 1054.78 233 217 202
-175.064 238.666 1096.78 88 73 76
-179.398 37.8034 998.215 34 9 5
-207.038 358.026 1119.34 204 201 199
517.387 16.0102 1290.38 255 248 241
-275.028 257.468 1071.9 79 84 75
-268.439 280.8 1096.44 113 86 88
-181.798 46.5203 1031.39 119 58 61
-271.366 52.2328 938.878 68 62 57
803.196 54.264 1502.84 229 239 224
-301.766 58.7142 968.836 200 208 192
-194.393 315.526 1047.06 222 206 206
-67.6444 193.88 1168.89 73 34 14
-274.285 297.424 1123.48 148 130 124
-229.39 422.291 1186.9 220 213 209
-191.891 325.369 1169.99 193 196 180
-193.572 357.244 1075.96 218 212 215
-303.775 159.645 1080.96 54 14 8
-176.883 -20.4974 1014.74 226 212 190
528.663 -7.55455 1237.54 244 220 212
-160.638 105.074 1005.83 246 224 210
-139.458 122.778 1053.31 208 160 140
-211.973 253.088 1124.04 107 74 60
-144.448 107.022 1051.29 111 59 37
-169.579 98.8779 1045 237 212 199
-316.305 103.131 1007.48 240 226 218
-118.74 -6.82756 1009.13 117 28 8
-186.117 -21.1105 993.738 187 166 154
-137.332 149.688 1032.83 180 157 148
504.093 15.1362 1233.91 255 245 243
-227.835 250.28 1032.56 129 113 109
-46.031 37.3662 1068.03 255 247 227
686.447 -85.2283 1340.65 70 87 62
-151.651 300.705 1105.79 202 191 176
-142.52 308.636 1182.43 245 254 229
633.456 -233.014 1256.37 181 197 184
-174.431 77.9861 1042.7 83 82 76
-213.052 360.432 1089.09 99 94 92
-83.6185 31.2622 1080.98 255 238 251
756.774 66.6656 1419.12 221 236 218
460.768 -57.3572 1276.22 241 236 227
419.474 -110.141 1161.59 226 222 219
460.994 6.34359 1285 88 77 77
563.947 21.9143 1337.62 255 244 237
-125.872 126.828 1076.19 126 78 51
-204.62 311.498 1086.8 187 165 158
-210.359 290.507 1140.35 74 48 43
-35.3659 71.5216 1048.63 248 236 207
458.223 15.8981 1286.07 195 179 178
595.864 -193.877 1262.01 196 187 176
-209.292 285.804 1090.81 65 48 44
-31.5392 97.2154 1120.36 252 243 216
-164.378 72.9452 1065.14 132 107 88
-259.369 493.037 1281.05 32 26 28
499.11 -117.927 1215.61 238 207 189
-48.645 13.7247 1065.96 255 252 219
639.529 -148.15 1210.92 230 251 237
-206.743 281.178 1083.32 212 200 197
-172.046 75.5187 1063.47 198 186 165
-212.087 -10.9726 988.215 232 208 194
-140.054 -11.1949 966.287 136 79 62
704.071 -208.271 1318.81 231 245 227
-260.982 192.99 1004.76 220 191 167
-217.644 267.264 1108.42 249 245 241
498.458 -25.5426 1283.29 255 252 238
-310.895 80.1201 967.345 236 212 197
-197.25 217.582 1065.34 249 240 231
-79.9774 21.5784 1060.18 255 244 224
-34.3081 86.0562 1119.02 252 242 214
-121.143 -16.7877 1008.09 94 29 9
-130.729 -6.31342 968.441 204 186 178
573.574 290.365 1533.69 76 104 101
-174.169 -31.0181 995.932 196 167 160
610.934 112.778 1370.51 251 249 224
647.297 290.918 1609.44 111 148 153
598.686 -125.05 1388.91 206 191 174
575.608 14.6324 1295.22 227 203 186
600.767 -27.0803 1412.61 255 248 246
-279.098 266.235 1120.13 239 237 214
-319.453 58.6164 964.031 68 40 30
-253.549 322.991 1057.82 241 237 238
-56.5683 66.3214 1067.78 249 221 200
-267.16 68.4485 940.595 86 92 87
-77.4242 39.8668 1061.87 252 240 202
532.479 -53.8303 1281.2 255 249 236
507.266 -41.2534 1281.58 236 202 183
-220.172 -9.90336 1005.18 135 117 106
-247.776 262.29 1055.18 251 235 231
-14.7913 161.989 1128.09 255 250 224
630.577 373.846 1631.93 111 146 150
-67.8712 192.85 1091.34 253 247 225
-138.253 290.479 1108.44 132 134 113
-255.783 334.766 1074.71 224 223 223
-110.458 24.8921 1031.04 229 179 163
-169.809 32.8668 1000.15 252 233 221
-252.88 268.002 1099.84 140 125 122
-167.13 267.465 1120.72 158 156 156
642.049 -110.843 1269.41 183 181 159
706.28 -153.808 1328.59 227 247 230
-242.405 304.272 1004.68 150 143 145
674.91 -190.443 1263.64 212 221 215
-320.244 203.062 1129.62 255 253 236
-297.183 146.747 991.801 220 216 218
-138.341 -5.85771 1067.39 95 67 61
645.373 332.745 1470.72 97 131 143
570.166 -157.003 1267.09 213 199 183
-196.798 291.394 1143.94 83 74 67
612.367 272.078 1592.2 149 191 211
-235.101 303.612 1077.66 253 219 194
5.19658 258.856 1188.86 234 218 197
-67.0077 42.5733 1064.16 140 96 88
-64.4159 55.7747 1065.52 186 137 111
476.861 -3.32699 1284.9 150 147 152
-107.398 21.5179 991.672 248 201 190
-136.753 91.5115 1052.16 130 74 43
-110.4 4.46154 1030.17 96 35 5
451.781 -82.1844 1217.67 222 223 230
-243.236 106.587 1071.62 238 167 145
519.442 9.2171 1234.07 197 178 165
-260.567 46.4595 997.557 140 130 123
508.257 -25.3805 1283.92 241 235 227
549.202 8.3585 1293.58 76 56 49
-205.148 196.564 1107.03 110 83 66
-256.001 58.7754 999.171 240 202 194
-200.8 -9.25581 885.225 203 179 167
-218.852 82.3604 1032.18 243 225 216
-251.457 76.1284 1000.96 229 237 227
-243.158 88.4407 985.402 255 236 207
-53.9659 92.9275 1069.95 245 228 199
589.187 152.338 1289.88 176 171 156
-172.89 139.685 1004.7 194 152 125
-299.926 70.7045 988.426 133 118 118
-224.325 79.5659 882.933 254 233 213
-76.8584 45.8761 1020.6 227 211 180
443.411 -104.862 1163.83 253 248 247
-164.735 234.435 1089.8 147 128 125
471.198 98.6303 1307.23 176 165 142
-247.58 68.7804 983.378 255 227 214
-113.243 226.803 1160.61 245 242 226
-277.942 241.663 1090.58 107 77 58
-245.8 338.378 1077.91 179 172 168
-284.913 200.062 1021.2 222 220 207
-61.8017 88.5623 1113.49 250 234 213
-269.514 99.0045 1020.05 172 132 112
-74.8849 68.8883 1064.19 254 233 229
575.022 273.104 1532.55 13 38 55
-34.509 324.834 1209.57 143 62 38
-88.565 297.039 1155.38 255 253 249
-100.225 211.937 1112.9 249 248 228
-184.725 196.377 985.178 190 169 158
-216.888 268.999 1087.96 255 254 252
-22.0102 126.36 1097.95 252 248 227
541.942 240.721 1383.89 156 199 215
-72.4918 60.8637 977.936 255 221 193
448.865 -41.6988 1291.05 169 160 144
-135.605 211.354 1154.25 143 118 110
-311.965 123.262 1009.75 221 217 215
-152.813 245.563 1056.64 253 250 248
-61.7936 83.032 1113.11 242 232 209
-53.6452 155.2 1119.63 243 223 213
-102.344 -29.9974 989.274 177 136 117
-69.685 79.5419 1065.91 252 239 221
371.3 -73.667 1085.69 135 111 101
-38.1042 340.972 1085.99 251 252 245
673.9 337.516 1549.4 80 120 139
-219.531 92.0727 934.697 174 116 90
-25.9915 105.655 1122.07 225 205 182
561.851 72.954 1363.11 250 246 220
690.745 331.676 1548.5 202 230 238
559.574 271.465 1502.97 183 225 222
-251.84 42.4827 959.705 239 239 220
-239.483 51.1032 1046.1 250 203 186
652.801 426.526 1641.47 110 138 140
-3.49618 207.424 1133.23 254 242 222
-301.009 60.6951 961.911 61 56 47
634.377 32.5488 1424.53 132 115 106
-51.7286 104.139 1091 186 140 90
597.05 373.332 1628.84 50 69 84
497.435 -144.629 1211.79 144 137 125
-207.887 49.8277 992.164 251 212 198
449.577 -96.2117 1083.44 217 201 179
-333.872 50.9111 999.779 87 36 29
512.196 -106.007 1217.94 203 196 183
-149.403 88.6916 1049.13 255 228 215
502.901 201.723 1385.01 62 51 43
524.862 115.19 1447.06 130 121 110
569.789 257.301 1528.94 67 109 124
-166.797 57.3728 1043.33 171 137 124
568.816 345.167 1540.82 96 120 144
-64.258 -4.51872 1020.18 254 228 194
412.901 -76.3871 1198.22 71 46 43
-52.5134 144.88 1064.84 252 223 197
-190.659 -20.0076 955.008 45 28 19
-158.326 370.924 1104.51 172 184 155
-203.973 325.691 1224.69 217 207 181
-184.883 169.555 941.597 178 125 105
499.228 -12.8015 1285.14 212 205 208
-226.128 363.318 1110.1 208 202 199
-91.7477 304.5 1249.04 254 251 254
444.561 -189.243 1093.8 152 152 145
419.489 -64.5564 1199.96 139 116 109
570.865 29.0802 1295.4 166 142 137
553.974 22.6825 1293.54 148 114 109
-90.4154 328.209 1286.94 247 245 242
-307.584 62.4244 1059.7 109 85 86
-205.501 523.953 1203.9 50 50 46
-89.5106 273.737 1118.77 177 177 177
-117.116 383 1195.02 191 203 170
-241.929 538.225 1290.56 84 82 76
-335.934 36.2243 998.439 220 193 172
-321.01 148.305 1075.61 252 254 254
460.237 -66.8024 1274.85 226 205 198
822.219 416.795 1835.28 235 255 255
-216.06 604.756 1369.74 79 79 74
535.995 43.6294 1299.98 250 227 207
-225.128 232.352 1031.73 191 114 96
796.34 199.976 1694.41 246 247 242
-206.294 251.211 1080.53 142 104 93
-69.6944 84.8459 1066.23 248 226 223
-202.478 478.929 1116.64 151 150 147
-244.021 416.873 1132.21 76 54 46
-114.255 359.236 1117.42 133 140 108
-31.5147 230.656 1165.97 252 225 201
-220.405 337.712 1084.97 203 199 191
605.441 -135.615 1194.74 77 69 56
-265.78 58.9657 978.292 248 227 220
-204.691 247.716 1002.12 237 246 245
-280.835 125.448 1085.58 93 66 67
-224.663 285.303 1078.82 225 189 171
-294.72 68.638 1055.32 191 198 199
-284.677 125.523 932.376 248 251 253
-206.459 87.0175 1012.21 201 136 125
-229.055 400.546 1088.33 81 45 38
-279.027 157.243 997.553 110 69 34
516.676 -146.353 1154.18 186 172 154
-263.611 146.236 926.387 106 79 42
