394.003 75.4446 1088.61 10 17 2
-543.438 455.08 1124.03 69 72 64
-392.094 220.055 1035.75 81 56 35
-275.987 436.781 1125.06 191 193 190
388.83 126.145 1068.36 40 54 47
-420.738 207.905 958.502 52 26 7
259.938 -6.39525 1047.75 239 222 216
186.79 41.6622 1063.76 253 253 243
200.217 155.487 1052.52 251 243 243
-358.142 290.827 1025.49 81 62 58
352.049 -75.6876 1030.67 236 247 239
-510.133 443.095 1101.62 192 186 181
-562.34 463.833 1184.59 178 181 175
-462.895 236.472 1030.87 63 58 49
331.557 430.964 1340.1 59 85 92
248.518 34.4892 1063.35 252 254 251
-475.032 360.419 973.958 123 118 116
-324.089 226.901 1043.86 85 78 60
167.698 -118.368 1135.98 235 218 202
-370.404 308.363 1068.02 243 229 216
-352.474 253.477 1149.92 233 242 216
-499.241 498.045 1144.66 47 49 44
-487.035 216.793 1051.33 245 236 214
330.701 -92.4898 973.343 64 59 57
249.264 130.555 1017.77 255 245 238
240.868 -10.2744 978.914 253 241 222
-432.237 171.352 952.126 228 206 180
211.027 -65.5743 976.211 233 231 225
227.297 -127.686 1096.81 102 82 71
-478.312 381.852 1008.47 253 252 240
186.617 31.0122 1062.95 224 213 201
172.425 -113.041 1138.96 208 194 182
349.653 13.6427 1000.55 223 218 203
148.298 19.2696 1017.07 253 250 242
-361.379 332.914 1073.07 245 238 227
149.633 17.2991 996.601 220 208 204
-467.22 56.9461 919.631 200 184 169
-420.485 165.417 882.934 255 245 227
153.075 148.249 1066.16 237 222 218
-474.598 112.204 939.962 103 75 59
295.722 -39.2102 1010.18 216 197 189
275.248 94.5557 1078.47 94 56 55
343.894 -80.8131 1012.15 201 196 189
469.63 235.058 1173.83 253 255 248
-454.329 177.219 1028.59 91 59 30
168.126 57.2504 1062.39 232 235 232
-356.64 131.434 975.506 255 231 200
-434.965 207.543 1021.36 113 86 58
-379.056 272.301 1062.23 98 82 71
-299.787 336.202 1091.82 242 230 212
227.885 165.039 1121.74 222 185 169
318.977 -122.637 1023.66 164 180 173
240.795 163.956 1053.28 242 234 219
-349.381 130.952 1196.68 181 171 161
-315.597 275.925 917.037 211 197 181
-328.094 259.045 1276.5 212 189 168
287.423 392.614 1245.32 97 133 147
391.279 -16.5804 1039.09 231 235 227
-353.753 301.504 1027.66 97 72 59
-333.191 300.37 977.627 121 101 88
304.903 472.862 1282.36 68 100 103
-374.845 294.402 1065.43 198 184 157
-344.386 450.311 1087.91 246 254 254
179.196 149.607 1113.84 230 228 230
280.121 372.964 1216.79 201 229 237
166.054 81.9558 985.968 245 206 192
-346.122 344.793 1048.76 79 61 51
-339.452 361.7 1052.52 209 198 189
-538.553 400.892 1119.26 219 206 189
-504.102 408.158 1112.95 222 218 200
193.369 -134.105 1167.4 229 205 201
-304.597 324.529 1089.51 248 234 220
-447.928 234.87 992.253 201 183 168
-324.436 353.303 1014.15 61 38 35
-556.473 374.034 1058.05 143 124 115
316.537 -113.905 1046.82 66 83 78
155.283 20.4443 980.908 224 216 214
325.582 -21.2601 995.724 200 196 186
156.051 138.584 1083.5 218 209 211
184.478 -134.023 1166.15 228 172 159
339.666 -121.525 1108.2 200 223 220
-324.474 189.325 1009.77 242 235 236
183.896 -120.409 1186.71 100 79 65
255.389 43.2376 1049.88 250 243 224
230.123 87.1674 1031.94 255 251 226
-422.697 203.007 957.509 243 228 203
-561.397 116.84 871.354 206 193 179
296.994 389.91 1246.56 208 248 254
154.759 -69.6751 1011.6 159 167 149
-450.427 204.432 1016.07 225 200 172
-320.129 366.672 1016.65 99 89 47
162.807 62.4961 1062.02 89 66 72
123.841 -138.883 1176.43 84 77 76
-430.891 77.9658 971.758 133 47 34
-281.343 394.487 1263.58 18 13 11
181.637 232.416 1090.61 216 211 200
160.494 93.5212 1125.63 142 93 97
165.362 174.59 1113.42 226 222 216
-362.527 38.5433 951.082 255 239 206
231.233 147.128 1011.34 60 19 10
418.943 526.867 1394.55 85 111 142
-394.53 453.369 1122.53 230 231 212
-476.917 151.723 975.368 142 144 139
-464.87 80.9072 1003.19 224 211 204
-299.936 344.642 1092.43 232 219 205
-451.661 217.187 989.511 126 98 87
274.055 438.244 1192.72 39 70 80
292.33 -32.3126 992.037 82 75 66
212.712 -3.08918 1023.53 193 181 168
202.46 -119.28 1094.79 131 107 85
276.473 383.155 1270.25 51 85 101
373.433 45.0741 1084.17 255 254 231
315.345 -124.379 1063.04 158 179 175
-549.258 193.416 938.665 109 83 65
388.51 -17.6902 1013.71 213 220 206
141.483 78.2839 1060.06 255 252 240
261.874 173.378 1174.61 54 37 27
-280.912 348.231 1052.07 250 227 213
131.731 78.7315 977.523 152 134 125
-319.683 233.38 1032.75 253 249 232
149.021 77.5049 1020.91 246 224 227
391.592 -8.8445 1039.84 215 227 212
103.271 -127.278 1174.5 191 181 154
444.511 200.031 1148.37 236 250 241
-369.762 50.1789 989.258 215 203 167
215.805 22.4544 1025.76 233 189 171
299.547 -40.4384 1050.15 218 193 182
-343.905 350.456 1050.01 186 188 171
106.46 -92.1733 1084.71 60 56 52
209.508 100.896 1070.95 242 204 175
-585.515 356.574 1078.97 146 136 130
-350.259 142.553 1020.46 249 217 189
199.519 -127.238 1093.72 219 175 162
-571.422 131.509 904.222 130 125 121
175.234 26.1672 1038.74 251 238 240
-328.778 342.567 1011.87 103 88 81
235.174 158.551 1078.1 185 180 179
267.384 129.385 1124.23 187 162 161
411.66 29.1988 1085.79 243 255 254
184.186 -104.846 1051.69 205 181 173
-507.362 316.04 1022.63 128 123 121
-466.101 330.478 1038.62 156 154 154
-427.289 269.363 1001.98 165 161 160
389.756 11.9921 1041.59 241 246 238
-547.061 250.148 958.156 228 203 178
433.533 158.44 1098.93 232 248 241
-460.63 120.407 924.851 130 115 114
366.197 461.584 1255.14 109 135 144
-499.474 147.257 927.214 255 252 244
-576.52 194.254 983.595 129 105 98
-421.73 164.924 1046.63 211 172 153
428.289 94.9658 1093.14 228 248 227
140.788 36.9087 1017.21 248 243 241
-391.923 149.05 963.649 112 77 58
-292.808 273.687 1137.22 89 61 45
417.298 100.457 1092.73 227 248 240
-432.653 228.546 996.861 112 87 74
-351.903 105.075 975.751 245 231 220
-592.037 707.226 1458.82 167 170 162
385.269 455.936 1256.39 209 234 244
-410.603 213.579 942.128 255 246 233
-403.681 244.632 978.922 136 133 128
-459.071 255.066 1033.93 200 180 165
292.805 119.75 1111.14 136 107 105
320.253 435.157 1252.28 84 115 125
-496.422 432.336 1052.24 130 130 123
197.448 -161.443 1236.45 206 185 176
411.433 23.7409 1085.25 240 248 238
-351.292 196.431 1088.12 139 116 84
260.146 -90.1837 1021.49 137 153 135
-557.093 332.487 1061.84 166 162 162
-335.675 123.509 962.509 252 237 229
-364.594 33.7654 950.293 125 102 67
-436.403 248.99 1041.22 241 232 226
-419.557 172.759 1047.74 165 128 115
248.042 -73.0081 1042.33 204 204 194
-524.632 359.006 1068.2 116 100 93
-341.824 269.399 1126.82 255 249 217
-284.229 270.789 979.547 171 138 120
-491.541 298.497 993.92 130 90 78
-295.763 291.059 1137.84 187 161 155
158.203 123.974 1065.43 139 123 115
399.755 345.867 1281.44 185 188 183
-290.046 260.909 1101.63 172 145 127
-448.617 257.459 993.901 134 130 124
-358.515 268.681 995.835 153 147 124
324.964 -100.753 1026.22 190 205 207
281.584 171.133 1063.4 123 94 88
184.833 89.5229 1066.9 242 202 187
-609.392 164.252 955.855 225 221 212
-418.804 359.095 1012.27 238 237 216
317.977 -99.7576 988.46 148 163 167
-360.454 162.87 997.96 255 236 228
-388.523 117.585 987.087 240 230 233
225.126 -132.538 1141.58 146 118 108
-470.329 60.995 861.333 216 214 206
288.665 -113.849 1061.75 33 68 65
-602.717 141.018 956.543 160 166 152
-526.318 357.992 1020.16 255 246 214
-547.17 121.315 976.359 247 207 197
216.606 65.9985 1028.91 208 191 164
-622.146 201.423 999.228 228 232 231
360.128 316.206 1172.13 244 246 241
450.774 464.435 1357.77 125 147 144
208.042 145.201 1052.6 243 220 227
-366.656 29.1433 949.508 216 194 160
351.013 354.474 1198.08 115 143 148
-585.151 348.536 1078.23 159 139 142
215.049 -68.2655 914.79 61 52 52
305.073 62.605 1000.37 240 229 200
261.702 110.269 1017.29 226 213 214
196.626 110.317 1048.13 244 229 213
-494.745 67.756 962.564 125 104 81
-304.26 257.106 1143.96 77 48 38
-620.393 206.411 1000.43 132 136 134
147.534 -97.8162 1089.9 79 88 84
-325.404 374.114 1058.07 251 232 204
-533.167 548.169 1257.65 204 206 205
-348.343 125.337 1256.81 187 176 166
177.258 129.801 1068.51 178 169 180
303.67 251.986 1114.88 243 245 222
250.453 273.782 1232.58 207 211 177
288.67 -23.5657 1070.2 112 101 103
296.401 474.207 1373.47 71 91 105
407.279 382.022 1248.38 88 118 123
435.527 136.361 1097.29 229 252 235
-486.509 341.666 1032.59 125 118 112
-503.868 337.131 1026.03 252 253 249
225.967 104.203 1073.27 244 209 193
-501.937 288.385 1021.76 249 245 241
143.541 49.4202 976.071 250 238 238
-275.623 411.136 1104.6 205 203 178
213.632 -116.925 1096.3 85 102 92
135.579 -133.477 1230.96 149 150 145
308.445 -116.032 1045.86 62 77 82
231.625 -89.9015 1018.69 19 32 25
244.857 -100.6 1040.17 159 194 176
277.022 174.919 1128.81 144 117 105
-397.455 90.6477 920.883 184 141 110
299.27 368.577 1188.07 116 155 154
-599.576 325.308 1070.3 169 169 156
-602.589 206.925 974.296 246 250 248
-544.844 113.962 877.902 239 240 231
-484.646 371.493 1048.92 201 208 194
-594.893 250.771 1028.08 211 206 181
-357.363 125.339 956.467 164 143 125
-275.708 416.659 1105.02 150 143 115
-490.911 555.563 1169.75 240 242 235
-350.272 44.5244 1189.05 54 55 51
403.488 22.5504 1043.56 238 248 229
-359.423 138.298 973.022 170 137 107
-587.785 178.519 935.361 229 230 221
-334.389 198.493 1043.89 206 181 150
167.793 133.477 1046.42 170 166 172
97.1993 -81.1417 1063.47 94 88 84
420.729 110.1 1068.75 225 248 225
271.354 202.629 1200.67 209 188 166
157.358 63.1679 1175.91 255 250 250
-332.966 163.877 928.583 181 126 105
-561.026 333.318 1051.47 237 232 231
-432.385 93.8227 1014.86 169 87 57
-360.345 182.236 1016.6 232 225 204
-305.407 307.225 1218 83 58 53
134.52 -56.3801 973.353 138 116 100
-566.188 440.152 1113.62 170 161 141
260.967 -75.0297 981.777 106 114 108
-564.169 355.046 1103.6 233 228 229
428.509 46.5239 1047.49 245 252 233
-374.197 133.387 970.702 225 202 196
454.423 67.4589 1106.5 237 239 223
350.89 141.548 1207.98 184 156 136
-432.547 181.52 925.76 149 128 107
352.733 454.288 1203.11 233 253 254
-334.328 141.592 1263.03 71 72 60
345.164 542.53 1352.78 112 138 136
-384.88 408.453 1011.79 216 226 200
153.719 39.429 1019.13 250 247 248
254.504 -170.062 1225.53 56 72 68
-376.272 106.034 950.073 225 206 188
325.699 -137.487 1062.59 148 155 161
-392.394 110.662 1001.16 255 250 213
461.811 148.766 1193.95 236 255 240
-281.353 309.648 1006.95 241 235 209
-531.812 139.455 921.521 254 227 216
-239.547 433.673 1237.96 39 34 29
392.528 413.905 1206.19 232 244 240
-537.672 457.908 1087.85 206 204 198
-350.002 102.446 973.599 228 200 178
-300.731 215.787 956.57 226 223 207
151.486 67.3193 1020.62 214 162 168
-293.084 245.253 1086.07 173 146 136
419.795 322.295 1227.93 219 228 223
457.514 403.171 1372.24 204 240 243
274.995 83.637 1077.62 155 113 82
-583.383 213.576 982.839 180 152 139
243.309 87.01 1140.02 209 198 157
128.458 -144.002 1365.98 115 100 84
-360.108 135.866 1297.03 65 58 55
-595.545 312.371 1085.37 146 114 94
-511.698 157.512 963.129 241 228 222
350.023 88.5401 1130.07 152 155 122
272.479 -113.876 1060.26 198 214 203
333.936 54.6761 1102.71 227 226 205
185.886 24.9266 1078.95 58 34 17
-549.726 368.988 1093.32 249 219 209
204.268 -159.503 1136.43 79 85 83
-517.955 335.384 1031.7 155 145 142
-615.73 189.634 982.285 143 144 140
-584.539 313.561 1090.06 255 246 230
180.752 122.513 1086.53 178 155 152
344.681 446.301 1448.43 169 207 214
-513.8 315.319 1020.24 179 174 173
-554.167 431.788 1153.72 254 251 242
330.18 79.1575 1083.13 208 199 189
-542.553 420.464 1131.15 171 157 149
-612.978 219.488 1004.65 228 224 224
255.309 393.385 1325.21 179 179 172
420 -81.0173 1058.45 248 251 231
207.41 145.948 980.214 75 55 48
407.884 62.3803 1008.93 247 253 230
-607.107 122.546 922.123 93 70 52
-510.653 359.626 961.047 253 252 246
-510.535 468.333 1099.43 49 55 48
-388.681 405.677 971.056 192 190 160
221.194 -78.2436 1175.72 126 128 116
343.314 290.964 1216.84 210 194 169
-587.266 139.203 962.44 177 171 160
430.83 168.394 1118.76 206 224 211
358.434 80.2619 1130.15 235 228 200
-347.063 32.6921 933.17 172 148 120
251.971 -181.322 1297.29 220 219 217
398.001 -55.6783 998.016 160 163 139
346.017 55.796 1041.71 236 241 220
-267.169 273.206 931.373 203 165 141
133.383 32.4727 973.184 169 153 147
263.676 44.5744 974.091 211 194 173
350.727 455.467 1287.01 145 182 183
164.493 160.506 1085.64 230 224 227
-333.079 324.968 1080.79 177 132 108
-365.275 432.877 1185.55 222 156 133
-423.561 67.9476 948.293 163 98 72
412.222 42.8316 1087.12 224 232 221
438.561 293.264 1241.52 160 162 138
-510.294 126.617 946.369 245 227 206
412.224 158.788 1073.64 212 228 216
313.573 150.435 1064.67 175 162 144
-579.498 122.266 978.187 247 248 239
302.258 -111.439 1063.2 121 126 128
158.866 109.119 986.531 126 93 89
198.385 60.4812 988.722 161 141 118
-605.024 222.736 1008.07 146 116 106
-554.29 179.825 1003.81 231 165 153
-519.231 267.697 929.93 144 122 102
177.563 -67.7522 995.094 112 125 111
424.03 145.749 1086.05 193 210 198
-432.451 377.793 1068.47 234 231 208
337.754 336.502 1151.97 158 185 184
-616.386 132.805 1043.92 190 179 182
-553.935 182.6 955.641 126 121 110
235.615 -104.187 1080.96 162 174 155
328.661 86.4599 1074.59 254 252 248
-348.33 88.7673 885.247 246 217 177
