41.006 62.8106 1175.25 15 2 1
-15.6813 79.7791 1171.3 155 105 94
-25.954 43.004 1141.39 68 23 0
-87.9676 315.763 1171.76 19 18 14
-30.1395 106.456 1196.73 251 246 232
-168.836 99.357 1089.69 53 20 14
-41.9434 71.0009 1192.17 250 233 222
-80.2158 264.244 1193.66 253 236 215
-70.1068 319.04 1200.79 231 222 218
-134.496 227.749 1126.49 114 94 94
-70.32 272.215 1122.7 255 252 241
-48.069 43.7859 1112.99 249 236 221
-82.1396 272.129 1170.43 84 66 65
-66.8931 -24.8576 1059.8 63 41 34
-124.869 307.899 1162.6 249 242 230
585.224 135.291 1437.08 2 26 47
-127.477 277.772 1110.09 191 194 188
-96.1539 190.2 1161.83 251 219 211
-21.502 59.6232 1168.54 255 247 208
-86.2202 349.441 1229.31 228 222 217
-86.0401 278.61 1224.54 78 58 39
-28.7518 36.4746 1160.41 236 201 180
499.852 -104.17 1271.82 52 49 53
-17.2215 70.8108 1163.99 248 216 196
-3.7285 99.0866 1125.7 248 237 219
-6.50233 -71.9192 1067.99 127 26 2
-14.3192 88.0117 1165.16 58 38 28
-6.09397 60.0679 1146.29 124 81 47
61.6813 120.731 1237.81 30 17 11
-191.886 5.27292 1055.57 195 197 175
613.165 -116.024 1333.65 253 238 223
-164.032 19.0509 1041.64 40 31 25
644.299 -317.654 1243.05 182 201 192
-102.193 300.358 1167.52 110 105 87
-37.2186 79.4304 1140.99 253 211 181
-172.807 15.0059 1143.04 114 114 108
-25.9062 113.364 1145.02 254 250 229
406.576 6.05054 1465.07 26 25 12
-77.0697 291.399 1227.56 219 201 185
-61.6934 -75.5937 978.287 83 62 50
-27.2836 56.716 1167.12 115 85 64
530.546 -96.4617 1333.45 41 23 18
-92.1545 324.383 1226.24 101 112 101
-104.506 -73.6282 1093.17 217 195 187
-17.4902 26.3123 1142.19 98 51 26
584.868 -244.489 1441.87 246 239 239
-184.225 48.7391 997.439 255 252 242
-85.9375 -74.9103 1048.17 149 136 127
-154.526 153.213 1170.75 244 207 167
-166.801 1.56838 1033.35 53 37 33
-57.0087 -21.853 1083.74 65 24 24
-113.584 311.45 1165.5 150 117 107
628.709 -93.8188 1467.33 213 209 207
544.161 -186.14 1319.6 218 218 223
-20.2564 90.891 1145.05 188 149 130
558.935 -71.7912 1392.61 234 221 221
-139.422 294.127 1212.57 255 249 244
-127.554 270.397 1213.88 111 80 77
-143.916 203.022 1151.32 247 230 213
-53.7208 236.826 1124.24 215 234 212
-28.8428 -81.336 1133.69 105 61 42
-113.278 232.91 1160.67 254 246 228
531.001 -89.9896 1334.5 146 119 117
26.556 86.4848 1207.28 140 118 88
-153.003 83.2244 1092.49 104 79 70
615.631 -356.025 1293.55 32 44 39
459.63 -314.865 1295.54 216 174 170
-141.839 -8.67853 1038.52 154 81 102
578.626 -170.627 1431.15 88 43 32
671.126 137.072 1582.71 225 255 255
-161.283 142.624 1094.16 249 255 229
-40.034 59.8291 1139.39 157 125 103
-65.9405 -21.267 1205.31 255 244 226
-82.6536 320.51 1252.62 177 174 169
616.288 -94.5878 1401.08 248 234 229
-113.169 206.984 1158.98 127 125 118
-154.791 208.31 1173.47 109 120 106
-146.817 77.3027 1037.34 208 194 185
-163.964 150.704 1094 251 249 232
-133.418 1.95363 1006.42 255 255 231
-101.042 20.6563 1124.33 255 253 239
494.846 -351.948 1416.29 20 6 6
619.953 -226.358 1376.4 224 222 207
-127.736 307.036 1216.38 131 110 109
52.055 -5.26378 1128.2 255 245 211
-154.871 225.824 1174.3 106 103 101
35.078 -18.8319 1124.16 255 241 246
666.309 -93.835 1469.98 255 244 235
-134.391 338.603 1341.17 246 219 210
-124.602 296.732 1275.63 132 89 89
23.1759 327.527 1163.55 158 162 178
114.728 310.066 1330.31 48 44 29
705.347 139.245 1678.61 203 247 251
-73.4353 220.18 1169.02 116 89 78
-146.132 -4.44313 1019.92 145 87 99
532.688 -160.659 1323.23 217 201 188
5.60338 115.959 1204.74 146 125 103
-184.443 99.0935 1085.87 255 249 255
83.1501 21.1335 1160.77 253 244 221
515.713 -115.648 1329.57 209 193 195
-113.36 253.127 1161.96 253 220 220
573.485 -151.237 1326.45 233 218 204
508.771 -185.978 1309.11 158 143 134
-78.9613 330.651 1199.73 224 224 221
-104.617 184.177 1159.45 111 55 39
-8.71599 -83.0114 1089.81 148 56 17
-134.468 219.385 1126.14 152 130 142
654.124 -207.584 1260.57 228 231 203
465.889 -136.209 1201.2 47 51 38
1.54328 -38.2475 1071.73 232 188 172
610.186 199.015 1517.06 167 199 222
649.027 -378.695 1350.31 148 173 162
-116.421 206.419 1108.58 104 60 50
821.742 225.884 1880.14 140 160 162
-80.4003 -84.7316 1097.41 201 178 163
541.929 -194.381 1389.59 64 56 48
-134.382 194.296 1125.08 164 74 62
-56.5163 13.9211 1064.28 172 154 149
33.3308 -24.6816 1094.18 255 238 235
572.34 -261.392 1171.76 189 177 168
-86.0106 237.33 1191.11 127 95 92
-20.0598 125.318 1165.15 85 80 71
65.307 -41.0319 1153.76 248 242 218
-75.6408 177.475 1115.96 141 77 65
616.562 -131.708 1394.35 254 246 247
571.64 -208.035 1355.85 217 214 218
563.41 128.962 1567.38 18 36 37
596.82 -213.998 1303.52 234 239 219
35.1054 338.725 1225.3 234 238 246
57.2692 8.54666 1179.36 255 247 228
573.232 -12.0819 1413.71 189 182 158
-73.316 162.249 1165.07 247 227 221
535.826 -204.619 1204.86 223 200 172
633.095 -139.706 1389.28 232 212 204
-167.26 126.802 1046.78 255 240 221
-181.893 104.511 1086.82 105 77 72
-73.4727 166.754 1062.24 246 204 193
682.948 -99.3461 1470.48 97 71 54
622.647 89.6003 1538 62 67 61
30.5658 -37.8558 1118.31 255 242 242
-33.058 25.2342 1163.45 255 241 228
594.977 -138.469 1392.44 255 244 236
5.01503 -65.4222 1141.2 113 60 26
699.157 191.769 1583.73 110 140 149
38.9035 -8.68744 1096.62 255 236 203
-196.343 29.7006 1034.61 248 213 196
647.249 -288.971 1304.71 75 77 75
51.6378 123.429 1160.71 226 204 165
-67.7032 223.392 1170.52 131 88 78
-83.672 57.2698 1082.01 247 235 207
524.823 -198.897 1308.8 255 252 250
-12.814 262.178 1267.21 232 219 191
-99.9434 412.15 1317.07 105 104 96
660.851 -99.4274 1396.52 240 218 195
497.513 -189.457 1259.13 131 115 109
596.105 -125.057 1394.9 247 251 252
-73.1083 89.3041 1085.65 231 193 184
-189.678 15.244 1103.49 125 144 144
61.2809 11.6865 1233.35 255 239 233
-30.1942 55.114 1092.79 135 82 55
-37.1953 197.779 1146.59 158 147 142
97.98 312.648 1327.22 160 161 145
73.3132 -63.9197 1232 255 242 230
65.2384 -52.2614 1153.02 234 223 214
123.506 100.963 1380.54 237 224 205
70.8786 84.2423 1238.27 251 241 226
-195.18 22.1281 1122.4 148 148 134
36.4378 -51.8176 1147.89 255 246 224
-28.9137 102.078 1032.78 227 219 198
-137.686 175.698 1101.79 87 28 20
-224.666 -20.4299 1078.38 178 138 118
684.179 139.283 1677.73 62 105 117
66.2101 143.402 1320.39 191 185 160
622.184 -26.1987 1413.59 118 111 93
571.874 -160.747 1453.22 147 122 105
-131.294 18.983 1048.99 252 242 235
561.925 -302.565 1244.46 166 172 165
-112.565 43.7474 1075.25 246 186 160
23.7178 337.156 1278.35 30 16 9
515.245 -365.219 1414.77 209 178 159
38.3997 342.634 1317.31 121 109 102
-48.4893 174.589 1143.21 161 149 143
537.974 -179.74 1320.38 109 104 113
-154.697 4.30004 1095.35 184 163 159
61.3516 -57.401 1123.11 254 242 201
83.7919 10.0317 1213.32 233 215 191
-93.2373 215.255 1135.3 127 106 108
13.195 364.291 1343.11 184 167 160
96.3933 57.8858 1218.78 255 242 215
652.063 133.685 1501.88 98 130 130
-184.338 67.2215 1031.22 249 243 231
591.218 199.207 1516.62 58 83 100
30.5105 351.731 1255.3 65 72 88
-95.571 26.129 1125.82 143 138 124
-176.675 44.6552 1040.1 181 167 163
577.846 -159.233 1472.08 190 177 154
-73.1618 93.3317 1160.12 155 122 106
-151.231 2.12461 1064.83 247 224 223
663.918 -175.471 1457.64 148 135 120
-101.888 210.255 1161.85 153 148 136
552.85 -205.001 1306.19 153 150 146
656.484 -175.435 1457.19 219 214 199
-72.8522 150.143 1114.84 186 180 174
83.7273 1.11079 1212.7 245 211 188
-6.32089 139.527 1203.58 185 156 148
-163.01 5.06023 942.913 250 246 227
791.561 -193.601 1450.38 218 235 212
28.7417 209.635 1189.93 250 249 244
-110.366 -7.27827 1029.62 254 229 220
417.226 -295.423 1288.68 93 91 94
-78.37 54.7671 1083.01 180 143 116
-99.1447 236.315 1164.22 236 200 183
-52.3759 271.787 1291.36 226 233 214
-13.2124 -74.3648 986.732 156 84 64
641.256 -7.67713 1573 97 91 72
627.649 -141.828 1329.64 163 128 120
-95.087 -8.25644 1071.62 255 237 205
586.957 87.5715 1502.1 108 113 108
645.418 88.2113 1582.31 88 76 70
-105.954 260.359 1136.92 142 57 43
574.301 91.9158 1480.3 67 94 93
-122.709 -17.5805 1117.51 246 208 196
589.173 -161.046 1314.44 149 149 123
-116.66 349.829 1208.78 253 235 224
-145.053 75.2354 1093.86 194 157 124
726.51 100.197 1587.91 134 171 170
