-102.324 73.5182 955.795 249 241 230
-399.331 113.81 1451.38 228 222 217
-58.9055 -18.3794 1106.31 253 253 245
-356.039 104.302 1466.17 243 243 230
-386.862 299.378 1570.44 37 9 5
-58.733 -11.0223 1155.16 242 248 238
-356.269 111.613 1467.22 27 28 23
45.1468 -40.8111 1149.97 224 219 210
114.558 457.763 969.02 15 27 10
-72.8796 -16.7383 1151.71 251 255 254
-368.883 96.2757 1252.38 88 64 57
-17.5714 97.4139 862.374 249 248 238
102.285 232.843 984.101 180 176 165
-470.073 544.371 1591.01 100 102 99
-361.479 256.494 1404.84 100 74 56
90.7047 -34.7731 1086.61 245 254 253
11.2949 37.4844 960.552 253 255 255
62.9797 375.424 956.606 251 255 249
-430.059 73.1836 1433.07 211 186 174
-390.415 260.754 1481.22 255 243 226
-548.121 111.437 1389.37 252 242 222
34.8234 243.238 895.004 253 253 242
-542.953 125.622 1393.97 255 243 225
-367.365 216.971 1407.69 197 183 180
32.5721 -14.398 1036.63 210 226 222
68.8556 -39.2491 1082.8 216 221 215
-545.052 177.63 1468.78 254 249 236
-499.244 173.68 1347.39 118 89 62
-405.865 329.564 1645.38 199 174 172
109.628 211.031 984.305 181 172 161
127.517 280.62 989.734 166 152 149
-481.276 84.6865 1338.4 178 177 169
-70.3994 98.9876 900.69 233 235 225
-358.66 247.749 1574.54 178 141 124
-517.748 35.8642 1390.62 223 199 180
-59.6119 62.3717 949.434 236 236 235
-508.473 29.114 1393.58 164 144 128
-279.076 374.639 1626.53 75 75 70
-26.7301 51.1494 954.806 2 16 18
119.542 290.67 1027.37 165 164 157
14.5268 119.285 885.795 185 179 164
-377.705 129.225 1529.79 200 190 180
-54.3579 340.427 1082.95 135 127 118
-492.132 112.049 1685.65 247 239 231
74.5511 407.175 1010.76 222 219 209
-14.9085 105.257 834.889 240 239 222
-336.349 95.2211 1467.23 39 21 10
-484.047 215.975 1361.68 147 126 111
-444.069 10.2321 1255.48 194 177 152
-64.2538 113.492 884.913 230 236 232
-464.052 408.454 1400.07 74 73 75
-95.5167 23.838 1056.9 102 84 77
-464.197 7.00548 1331.52 190 165 152
-76.2704 18.7109 980.204 38 42 37
-420.489 409.276 1417.81 252 254 238
-395.857 233.929 1473.64 169 159 145
-430.338 80.3206 1434.08 99 72 61
-502.794 235.147 1428.64 254 244 234
-427.705 94.7708 1437.37 56 29 20
37.733 -19.4489 1037.14 95 98 96
163.508 122.783 1065.94 211 164 145
-376.342 17.2314 1445.02 139 174 172
110.632 456.257 1018.44 148 149 140
-507.774 77.8863 1401.68 200 189 175
-80.0277 289.137 1031.89 254 252 243
99.9402 424.19 950.064 36 36 30
-483.269 294.524 1450.82 151 122 106
25.6946 -26.0046 1076.66 226 225 212
-520.128 188.669 1412.49 248 233 210
-99.1294 80.9404 960.687 39 43 45
-65.3153 62.2842 945.262 62 66 66
40.0559 259.692 950.081 140 139 127
-75.792 11.4942 1153.34 81 90 73
-104.949 26.6516 1099.84 223 193 188
-416.032 264.339 1249.82 255 245 232
39.9073 167.142 836.828 162 151 148
-68.1415 -13.0396 1181.34 136 143 144
200.67 537.107 1145.72 20 51 48
223.123 103.399 1072.53 23 8 7
103.771 521.651 1085.08 80 104 106
-32.8541 14.3365 1068.79 143 123 115
126.703 224.588 962.118 229 203 199
-413.76 390.435 1350.74 67 65 67
-111.557 306.9 1115.61 253 244 231
-449.39 5.60146 1414.66 178 162 148
-118.285 23.9116 1096.7 239 241 243
-59.4805 52.4186 985.319 237 250 248
-354.335 225.106 1339.32 97 71 66
-339.008 86.8578 1553.59 108 97 88
-377.728 256.667 1148.32 243 236 211
61.9275 369.62 970.242 225 227 220
-529.96 155.879 1400.94 218 192 179
-94.2702 32.6319 1016.14 250 195 177
-445.305 315.706 1648.79 197 178 163
-75.7651 3.03424 1152.67 255 250 242
-568.149 139.194 1467.48 158 132 113
-40.6244 -35.4143 1208.96 152 142 124
-82.5784 302.057 1031.86 248 242 233
-480.725 -13.394 1533.19 163 140 117
-349.817 373.042 1391.93 158 156 152
79.7385 427.652 1012.58 248 254 241
27.3805 -19.4683 1035.43 108 114 111
-517.543 27.0089 1375.5 161 133 113
-510.46 123.068 1490.66 155 153 146
-449.872 314.241 1393.31 175 151 132
-438.893 343.967 1402.92 243 233 230
-38.2836 -0.309875 1088.37 236 208 187
17.0888 -9.26816 1034.37 225 191 180
20.2874 155.719 910.919 141 142 137
-325.679 104.806 1477.31 198 194 190
45.4311 282.477 929.987 247 252 236
-527.461 96.563 1320.75 180 143 106
-534.772 140.097 1399.91 197 173 158
-48.662 21.639 1066.24 121 114 87
51.7469 115.307 922.116 39 47 41
-62.3617 24.3031 999.585 161 155 140
-62.4072 85.0773 895.142 71 94 91
-9.7089 171.255 928.908 244 251 241
-77.9962 19.4727 1105.08 25 31 22
182.3 521.831 1116.35 116 143 143
30.9648 151.027 902.35 26 26 24
54.5764 356.942 968.5 251 255 239
-427.504 -14.2029 1346.36 169 149 132
182.954 523.629 1142.12 39 69 95
-524.389 27.544 1312.54 84 65 53
158.156 127.909 1065.52 98 44 15
32.3027 291.067 939.845 237 255 239
-32.5649 58.4948 920.085 99 122 118
-374.116 -11.9759 1522.02 80 77 62
-360.98 105.859 1548.73 238 237 231
-352.158 56.1647 1542.99 67 66 63
-149.003 87.8153 932.843 201 194 170
-282.758 445.062 1734.78 45 40 31
-62.0178 78.8213 826.308 118 136 138
-170.623 193.788 1041.96 155 148 147
-512.179 365.222 1607.31 255 249 229
-578.631 34.8219 1362.89 240 223 199
-36.1803 0.0389011 1212.69 128 128 119
-459.851 131.944 1199.93 117 81 70
-21.3521 167.311 913.29 243 253 246
-382.015 20.7102 1609.84 63 67 61
-499.161 244.935 1433.67 117 92 71
-39.8115 24.0088 968.165 255 249 236
139.909 219.884 1027.33 193 176 169
-583.015 -22.6896 1119.94 210 213 203
145.131 231.127 1050.98 164 144 133
-87.9306 83.1686 896.59 108 143 141
-115.028 78.398 939.467 169 127 111
-666.936 -44.2163 1271.09 152 156 147
-497.405 253.629 1433.78 235 232 212
-733.361 -86.0004 1350.71 107 111 105
-416.837 400.52 1498.86 203 188 175
-439.216 350.816 1404.12 181 155 146
-493.228 197.494 1426.28 49 56 45
-34.0369 23.6952 1027.3 157 127 120
-91.0154 67.05 927.254 38 86 69
-107.344 204.904 1022.45 242 240 226
119.416 205.019 953.576 196 164 131
-137.237 82.8168 901.492 195 190 166
-616.644 -23.4315 1197.01 124 126 112
-934.776 -126.472 1725.3 170 177 170
-16.2138 155.481 882.731 241 253 228
-488.829 -5.16261 1396.54 60 35 18
-60.9852 94.1084 885.816 99 104 88
111.707 524.028 1104.93 240 253 250
-96.0285 197.907 984.899 254 249 238
-666.421 -35.6057 1289.03 131 135 124
65.3596 401.481 993.431 251 255 243
-365.525 37.0727 1534.38 116 116 101
-0.305053 -21.8962 1008.91 224 198 180
31.1937 443.825 1059.76 222 221 199
-30.396 197.668 913.073 222 218 200
-107.205 150.896 928.528 229 222 207
-641.976 94.688 941.823 44 34 26
-1408.5 156.594 2194.68 107 107 102
-673.318 86.1253 1404.54 253 255 255
-511.869 5.48936 1646.21 184 166 146
43.99 351.523 1003.12 250 255 253
-469.593 277.191 1452.89 141 122 97
-401.757 396.602 1490.22 190 185 175
-45.0021 92.7517 846.093 177 192 177
-667.228 -56.45 1253.23 176 180 172
-408.135 271.646 1471.96 158 125 114
-143.801 88.225 988.14 74 75 65
30.2536 4.88832 978.544 90 134 141
-103.637 87.7728 942.163 179 146 139
-72.8474 83.1787 882.195 192 213 220
-130.57 244.104 1040.68 255 248 229
-9.01071 123.886 864.663 209 212 202
-434.021 340.666 1480.4 171 167 157
-26.4136 21.2331 1028.56 237 223 213
-0.815205 201.196 887.354 248 254 242
-351.756 44.7952 1541.04 114 116 108
-417.24 -10.2422 1300.67 137 121 99
-450.611 84.0306 1351.29 134 116 111
-501.149 32.9692 1254.89 170 152 129
-21.9861 150.681 852.588 227 246 227
-366.808 279.899 1222.21 167 167 158
-72.0465 278.583 1056.05 178 175 170
-27.3115 -30.7551 1159.94 139 127 108
-160.17 181.627 1051.35 222 214 203
-16.2141 175.639 883.671 225 231 213
-434.923 116.066 1437.84 126 119 112
27.7265 401.808 905.717 251 250 244
49.6612 339.336 967.021 249 254 248
23.2603 405.829 964.988 126 122 107
-466.653 318.814 1544.24 211 206 194
-49.4264 97.295 857.06 153 158 141
-16.0105 183.526 895.859 225 225 222
-41.162 -34.5287 1270.33 91 48 33
-369.755 91.3793 1527.93 135 103 90
-126.433 71.2551 972.893 142 136 136
192.354 165.81 1028.47 132 102 90
40.0433 385.952 1017.37 144 144 139
-50.2505 55.4138 950.814 138 165 168
-254.646 390.131 1554.28 199 198 188
-501.445 147.734 1185.43 194 175 156
27.5973 283.704 938.879 247 255 233
-130.869 66.9346 935.733 153 135 123
-9.63478 175.967 884.78 243 248 226
-20.4455 18.7964 990.474 173 138 127
-563.515 534.994 1749.77 156 155 150
-377.811 60.1515 1451.22 186 156 140
-408.671 236.017 1245.86 67 55 34
-586.355 106.47 1294.76 170 165 166
-472.156 286.738 1306.58 186 186 181
-2.75757 220.933 931.867 252 255 244
-566.241 171.171 1387.57 199 185 157
-10.0743 248.457 966.426 172 177 156
-427.668 301.865 1399.89 109 110 100
-174.735 178.601 1092.91 245 238 233
-656.17 87.1781 1393.33 244 250 248
46.0174 452.234 1047.49 156 153 134
-27.8181 220.515 1013.3 115 114 103
-84.2942 380.838 1151.64 172 171 162
-134.194 239.179 1078.76 239 225 206
35.69 438.942 990.541 187 182 179
-207.819 204.555 1188.3 248 244 246
-62.6102 105.596 841.418 225 237 229
-25.0683 209.952 870.216 234 233 216
8.84722 226.15 934.008 245 255 239
-76.3789 54.4612 982.193 133 127 131
-107.445 169.908 1041.19 191 186 174
-76.6666 267.872 1013.71 220 217 210
-14.5697 214.409 857.573 141 145 136
59.3061 320.189 967.868 167 170 160
-10.0045 200.398 916.885 249 255 239
-9.27445 125.731 814.705 253 252 246
-0.0965297 280.49 1019.86 180 185 164
17.304 143.274 857.637 45 45 36
-1.34754 228.57 905.161 177 183 166
28.6674 128.936 901.041 99 102 92
23.769 296.305 974.015 228 236 222
-80.7692 208.694 971.808 223 209 190
-79.7775 321.915 974.648 153 147 128
-546.419 157.147 1323.48 230 213 193
44.3463 406.927 1060.25 201 202 197
3.70308 217.2 920.07 234 238 215
-34.9417 175.33 924.622 120 124 119
-370.587 61.4124 1584.46 71 40 35
-21.3573 -30.3579 1190.09 148 94 83
-782.773 72.5472 1181.69 226 231 226
-355.218 333.363 1259.19 220 199 189
-390.444 252.321 1658.35 176 168 165
70.0268 346.787 923.675 179 173 168
126.673 215.027 961.92 161 153 152
