-227.389 212.856 1037.38 103 77 82
-85.2055 357.377 1175.64 213 212 210
479.312 -6.69096 1086.63 254 244 232
-201.042 83.259 995.289 216 196 170
-254.709 345.4 1103.07 230 228 222
-210.637 102.876 994.033 69 34 18
-364.615 43.7398 949.917 244 251 240
-237.954 34.2033 983.675 74 49 41
-185.172 153.029 1063.97 231 216 194
415.933 0.631555 1174.53 243 238 233
-219.885 88.0476 990.982 249 233 210
-200.147 121.214 1058.87 241 212 193
-233.232 24.3929 984.336 102 59 55
-265.79 334.705 1072.43 39 39 33
-236.947 31.1024 1002.37 251 240 226
-221.565 114.791 1033.21 251 237 220
-197.564 114.348 941.229 250 212 197
472.468 17.6701 1160.93 231 224 217
-356.205 52.9044 952.773 92 98 98
-100.021 14.5203 975.335 251 226 203
493.711 -97.5964 1105.45 228 224 219
528.921 250.512 1289.53 20 42 47
-317.511 250.589 1048.09 61 45 46
603.453 301.055 1544.7 72 100 102
-194.665 127.92 1040.73 111 76 50
-358.413 57.5428 952.352 69 54 44
-258.205 288.927 1037.67 98 92 82
-277.632 354.723 1126.6 42 38 30
-274.382 303.708 1124.29 230 223 207
-336.852 57.3068 958.522 67 80 71
508.351 230.49 1286.42 177 211 217
-136.229 119.355 1073.77 81 39 28
-284.321 386.679 1150.51 236 222 211
-209.618 145.732 1038.07 231 192 176
-109.744 7.42077 1073.95 255 250 227
-199.429 107.355 1038.31 246 225 195
-201.45 132.471 997.882 99 83 67
-263.848 332.259 1052.24 126 116 106
392.78 -102.597 1013.88 255 247 250
-180.875 14.2415 1089.25 245 196 181
495.349 -100.08 1083.54 235 234 233
-299.799 337.53 1092.19 67 57 40
632.956 -159.253 1116.38 241 255 246
-343.355 57.3723 956.678 82 86 75
-126.999 173.673 1104.87 38 29 26
-314.559 314.345 1134.87 111 65 66
-198.4 294.041 1117.33 250 249 222
-276.908 65.8053 993.858 237 227 212
566.764 -235.919 1036.89 243 244 232
-209.085 125.951 1013.22 112 83 67
-120.063 385.618 1195.24 173 179 195
-172.081 10.4582 1016.65 150 86 77
394.634 -116.577 1068.95 213 213 210
-132.044 201.867 1179.36 239 235 221
-193.411 267.274 1066.89 229 217 194
-184.811 132.769 1001.87 58 35 23
-343.129 41.0306 955.988 100 94 93
-372.716 142.75 1083.34 103 65 52
404.613 -60.2077 1122.81 245 242 224
380.613 -240.271 1128.99 205 195 189
-315.603 251.577 1080.17 255 244 243
-204.215 91.8972 1036.2 78 36 16
417.411 -98.7359 1076.42 246 246 241
-217.57 210.767 1039.7 83 60 48
-165.749 153.091 1007.44 88 75 58
364.211 -183.364 1086.67 141 144 133
-348.622 131.49 999.25 38 29 28
674.406 -53.5671 1196.69 239 255 246
662.898 355.606 1440.11 46 71 79
-250.858 304.98 1058.06 233 227 214
-141.832 16.4285 1039.02 255 233 232
-221.07 26.9454 914.36 88 43 31
-191.188 291.438 1134.43 233 216 191
-204.787 156.217 1039.88 214 200 180
-256.702 199.102 1048.29 255 250 239
-338.863 45.6445 957.41 255 255 247
400.423 30.9223 1126.74 198 190 188
410.424 -190.313 1007.53 173 172 168
416.455 12.4596 1175.93 194 186 182
-365.17 81.0145 951.48 240 231 216
-104.578 25.9706 1076.06 244 225 234
-204.877 166.576 1040.46 87 71 61
-120.282 34.0891 1073.08 195 152 122
-296.95 335.542 1108.24 199 186 174
-317.473 251.204 1108.07 115 93 93
-326.172 231.891 1056.01 244 240 212
464.366 -41.3065 1155.33 253 237 210
633.873 -148.076 1117.97 228 254 227
-334.525 335.128 1152.52 218 218 214
655.188 -125 1159.01 235 255 240
-303.357 244.117 996.601 154 132 123
-134.739 6.77027 984.342 255 243 218
492.083 21.5853 1134.75 233 214 203
534.25 -26.6214 1178.82 252 241 236
-309.982 50.4548 928.261 72 73 60
560.538 260.797 1382.11 135 168 192
-202.208 285.272 1142.71 84 93 59
471.698 18.347 1133.13 222 228 219
-172.585 353.496 1154.64 190 195 157
451.879 -113.315 1072.83 230 209 188
407.276 -71.4256 1122.45 238 217 212
400.193 -114.058 1069.6 176 170 170
-303.062 243.921 1083.38 146 132 128
-118.856 40.5464 1011.5 152 105 74
573.618 348.838 1507.75 157 183 201
-195.421 94.7416 976.609 199 145 118
507.484 29.007 1187.53 255 252 241
-297.042 37.6231 896.301 238 229 210
-339.569 34.5305 1018.21 109 105 79
-349.631 43.4709 954.241 120 99 107
-87.8193 68.4196 1037.6 251 219 192
-300.133 455.338 1264.08 55 57 54
-126.552 25.2509 1000.32 255 254 231
465.221 230.075 1219.41 89 112 124
-247.951 296.94 1131.16 212 215 193
-215.316 234.105 1041.65 150 149 147
-75.5084 130.475 1113.62 246 237 219
-106.371 0.410145 1011.67 255 236 202
538.167 253.34 1353.36 161 180 199
-235.128 298.023 1085.53 202 192 173
635.803 -54.4336 1130.91 230 242 231
594.332 120.266 1287.03 237 232 213
496.55 -52.0881 1156.92 234 211 190
518.598 30.6758 1137.27 126 101 95
623.87 -107.045 1159.56 221 224 201
373.745 -95.2542 1052.8 243 240 236
-201.711 101.063 1013.88 92 46 19
-114.248 383.06 1196.45 47 51 51
-48.1811 229.905 1125.94 255 243 216
-289.216 246.745 1116.14 140 130 127
-77.5576 114.171 1066.59 255 245 217
649.46 329.198 1397.96 221 248 255
-72.3699 130.188 1068.72 250 246 234
-67.1605 146.511 1070.79 255 248 233
-298.709 267.429 1055.78 150 139 135
-294.675 243.813 1065.88 240 223 226
-153.353 139.686 1096.46 150 126 101
-48.1872 238.293 1126.49 233 219 193
430.129 -88.5575 1148.01 219 213 216
-140.988 28.8099 1068.19 241 235 216
-108.419 380.481 1197.66 124 131 141
527.115 -173.708 1056.65 60 58 50
530.372 -262.458 1090.78 158 167 165
627.764 -126.023 1110.26 229 253 235
-340.308 178.959 1004.41 250 251 229
-327.755 104.246 1003.81 73 50 50
-367.571 172.626 1063.04 254 254 235
-374.2 136.514 1035.41 251 249 245
-132.081 -20.3001 1085.5 253 237 186
473.935 -107.532 1074.69 237 222 199
-83.6728 384.262 1277.47 48 49 40
-159.016 197.195 1098.81 253 250 223
528.249 -94.659 1122.46 228 205 190
-253.857 530.974 1284.97 50 49 43
-260.496 219.582 1048.21 110 66 61
-301.351 375.662 1121.16 44 40 25
-118.748 71.311 1054.96 255 236 230
-310.757 26.644 1004.67 214 162 146
462.765 105.552 1185.9 191 195 168
636.5 334.048 1410.81 73 119 126
329.313 -223.749 1125.7 47 50 47
-294.732 277.016 1001.49 230 232 234
-293.185 85.7131 990.447 250 200 176
-331.027 234.229 1054.76 121 123 112
-118.721 66.0396 1054.63 239 208 186
-275.702 615.249 1473.24 59 63 56
-306.635 298.619 1041.71 237 233 229
-182.378 106.047 1018.65 121 66 30
-90.6056 299.411 1140.22 166 98 69
698.575 -59.0739 1219.63 197 208 187
-327.652 292.429 1181.17 234 208 195
-270.161 266.201 1074.2 135 108 106
500.467 -120.034 1178.19 108 93 61
604.226 -133.717 1119.58 162 164 150
483.047 -88.5807 1036.7 231 202 189
-305.084 285.807 1065.63 158 139 136
395.836 -10.0438 1136.27 201 187 185
392.832 -95.5702 1071.23 243 244 247
-108.573 89.9957 1058.36 162 124 116
-100.856 218.304 1022.56 221 208 199
-325.957 64.2241 1023.38 240 227 220
-81.0329 90.7719 1084.41 226 220 191
-41.7351 267.631 1180.02 226 218 204
426.708 -268.185 1179.38 194 164 152
407.132 -74.0449 1118.19 105 76 78
466.354 -28.4821 1180.59 239 234 216
-368.382 64.2677 944.129 224 210 202
462.496 16.0006 1099.93 140 118 115
-222.741 55.9899 950.609 155 141 136
522.8 26.4267 1188.87 142 123 116
-56.4479 201.301 1122.39 221 213 189
677.955 -14.5938 1184.88 226 251 224
-234.601 63.3327 1047.59 254 250 244
-281.201 367.133 1054 86 78 66
443.474 97.9961 1139.4 182 184 155
490.544 -6.82435 1131.4 218 186 176
505.124 12.3276 1163.18 105 88 82
-333.396 45.1376 977.981 251 247 237
607.376 -134.99 1075.6 217 244 222
-157.317 373.207 1184.91 58 49 53
-284.216 -137.564 1203.1 24 25 21
610.349 -22.4211 1275.18 245 232 219
-125.089 -20.1598 985.142 255 229 182
555.001 342.667 1408.79 40 66 83
-118.42 369.033 1136.58 2 5 8
-134.232 102.606 1053.48 255 231 214
-284.009 259.783 979.016 134 117 110
-327.462 113.068 982.392 185 159 140
-315.922 78.8718 1005.83 255 236 227
-245.852 38.0407 1008.26 250 192 175
521.364 -168.946 1100.21 76 74 70
-244.412 486.208 1188.41 67 64 60
-303.874 41.7796 1007.16 244 224 212
-187.618 177.502 1045.35 121 116 111
-294.113 278.45 1058.31 255 210 181
423.548 -18.8912 1081.81 230 224 217
-277.506 255.139 1071.46 151 144 131
507.094 238.955 1330.38 64 108 123
-336.998 220.833 1070.88 100 67 46
514.703 234.55 1275 164 198 217
318.038 -167.311 961.586 32 20 5
-332.157 31.4966 958.652 250 229 205
526.684 88.0065 1246.71 254 254 252
418.067 -270.352 1232.06 58 23 21
340.99 -224.645 1176.05 14 9 5
622.311 -70.5189 1246.95 156 161 141
703.797 74.2131 1232.71 183 190 174
-89.2449 48.0365 1018.13 207 190 176
614.205 311.511 1346.17 106 142 155
-297.319 26.3796 948.039 152 97 74
-327.518 118.006 982.577 129 95 78
-362.963 102.987 968.95 230 220 214
376.798 -112.729 1044.12 192 172 169
399.293 -6.02459 1081.42 207 203 212
-118.57 -61.7946 967.328 252 230 202
631.705 -74.5195 1163.27 128 138 118
-270.013 70.6724 995.828 224 179 160
-85.0687 294.896 1172.04 231 159 127
489.769 -21.3047 1129.68 201 181 173
-380.543 183.439 1104.15 239 238 227
-301.49 52.6091 930.608 253 248 233
442.171 -260.133 1181.46 90 95 90
-112.979 52.8992 1031.62 236 179 149
-240.255 234.819 989.274 200 174 166
-224.463 78.2901 989.319 228 167 147
-322.537 52.052 977.956 172 102 93
-269.466 36.8759 968.592 255 243 221
-103.76 38.525 1124.64 225 192 169
-271.922 366.277 1119.22 131 130 126
543.465 331.44 1406.36 152 177 191
-255.589 270.907 1127.33 222 204 195
361.069 -253.033 1175.14 191 181 184
-286.001 213.651 1041.08 120 83 72
-78.3865 80.8122 1001.63 161 147 120
-287.185 253.147 1090.11 222 215 210
-329.588 215.825 1072.76 146 104 82
-146.117 255.806 1105.52 203 196 196
-121.903 65.1249 1003.98 250 233 215
-133.956 55.3754 1050.58 252 225 227
517.552 -24.3089 1095.69 149 123 109
-302.886 83.5855 1150.18 124 105 91
-132.379 71.1905 1089.04 243 220 209
-298.855 296.365 1057 207 178 178
424.998 -36.6313 1039.25 129 80 54
572.77 333.681 1430.49 88 121 123
367.974 -93.2366 1007.78 178 181 188
-274.852 241.927 1071.35 251 249 245
584.819 -70.2713 1175.05 238 237 215
-143.541 272.572 1107.13 239 239 230
648.324 -74.4723 1128.41 209 227 210
-324.917 66.7297 1002.58 103 106 97
-108.768 134.634 1061.17 224 202 183
-308.655 167.838 951.269 174 144 106
-100.356 34.8718 1033.4 231 187 161
-194.218 76.1444 1037.74 163 103 67
423.26 30.0623 1178.51 217 218 218
-210.535 302.946 1217.9 197 209 187
-277.068 32.0405 916.721 241 208 201
434.499 12.4515 1177.38 122 120 126
384.597 -68.7774 1099.04 191 169 171
400.204 -84.9065 1163.1 123 104 104
-169.56 199.853 1096.32 228 216 198
-315.074 484.659 1334.14 162 162 156
-176.182 344.276 1057.04 129 123 102
-114.459 13.8432 989.333 205 163 122
422.997 24.1877 1177.82 252 253 250
-266.307 231.936 1062.86 153 128 125
456.717 -271.21 1181.46 106 87 74
558.247 -20.4119 1271.67 177 155 151
488.121 -145.166 1070.66 194 173 159
-287.22 216.194 1041.02 166 115 101
621.926 -231.925 1145.3 155 173 163
590.962 97.2061 1206.14 224 225 187
597.174 38.2998 1280.3 195 175 165
-385.901 43.6642 963.133 91 67 60
443.65 2.58242 1208.24 101 102 115
437.377 100.861 1215.17 139 127 109
-292.66 24.1609 948.585 166 119 100
-88.1978 186.072 1068.68 188 121 98
-145.572 23.2032 1004.69 162 94 77
401.178 -79.9118 1099.6 226 218 221
-319.683 80.8265 964.482 223 187 177
572.308 -69.53 1127.33 225 223 189
586.019 115.341 1250.67 226 227 207
649.413 46.3676 1143.94 123 136 117
-189.597 409.176 1332.64 154 160 126
-264.314 244.674 992.75 194 171 158
-69.1152 165.135 1169.81 201 183 153
-116.302 20.5044 1010.83 204 156 126
-283.357 253.324 1108.8 251 250 242
634.925 -18.6797 1168.8 121 135 127
642.96 -0.1316 1138.12 188 211 203
477.752 85.3715 1166.32 85 80 67
466.829 -75.6786 1121.84 168 150 127
-282.642 268.28 1070.86 231 186 172
-296.389 265.059 1225.3 255 251 240
590.719 -88.427 1125.39 231 230 202
696.236 -97.029 1311.03 174 176 149
-107.959 112.449 1016.11 242 200 180
-44.2298 234.259 1037.73 205 171 151
-307.454 198.198 951.504 147 156 143
561.126 -71.7562 1174.06 244 216 202
625.343 -69.948 1094.99 115 145 121
346.922 -302.197 1320.11 64 56 45
387.075 -100.097 1080.21 224 215 212
-331.184 423.545 1257.36 123 111 96
567.774 -88.3171 1081.01 255 255 231
