323.207 173.207 1009.17 13 20 14
260.792 3.79952 956.218 202 194 186
367.714 236.277 1001.43 234 234 230
380.091 269.398 1019.89 253 254 244
-537.274 384.591 1369.16 92 90 81
-484.2 358.209 1254.75 255 255 243
365.133 98.2679 989.005 246 249 238
253.474 3.78747 955.496 223 219 212
241.48 -32.2155 918.993 224 236 232
379.807 103.759 1025.84 151 152 131
420.125 386.93 1208.95 33 54 50
388.436 108.196 1047.51 253 253 241
-322.816 308.51 1240.68 255 247 239
229.505 -45.4277 916.92 41 28 26
224.654 -77.0785 962.995 250 255 250
278.352 409.568 1170.23 63 97 100
-389.365 127.697 1196.88 248 233 213
468.646 506.139 1275.52 53 81 83
-483.478 217.934 1283.81 246 243 240
129.779 -142.987 1176.34 50 44 41
26.3439 -30.6239 995.356 17 17 12
355.844 237.992 1016 201 220 209
-480.167 308.171 1190.62 111 107 88
134.521 185.432 1065.37 255 251 245
377.085 251.409 1018.71 231 231 216
-376.8 149.269 1189.26 134 77 66
-478.047 457.628 1406.08 70 68 70
304.172 25.5459 928.67 242 255 240
-244.497 343.345 1471.54 42 38 22
-343.181 87.1769 1319.99 216 205 200
-396.807 97.9865 1178.01 246 235 211
215.415 -76.4831 945.752 221 225 223
-529.059 342.882 1365.17 254 255 232
185.283 165.705 1012.7 247 236 228
-373.458 128.885 1148.48 162 125 105
-493.156 37.2355 1146.55 103 75 51
-396.869 145.976 1242.46 250 243 213
-499.764 341.804 1306.89 247 245 221
318.804 -3.2947 909.909 233 238 225
59.2471 43.8196 1005.13 204 193 182
-338.52 260.252 1229.91 102 72 53
243.977 15.2437 955.383 207 199 195
69.8688 42.2341 987.225 216 210 205
-442.182 209.963 1187.34 111 107 105
-299.422 216.816 1297.7 197 184 167
270.401 -98.0714 1021.05 204 223 220
291.838 6.28748 926.299 249 253 248
277.851 29.8646 895.615 208 218 209
-348.546 220.734 1204.58 255 252 233
-472.692 154.38 1156 240 221 205
274.946 9.28847 890.293 180 198 185
137.459 -111.463 1111.76 237 217 225
-538.74 359.525 1364.02 237 230 217
192.569 176.739 1053.11 248 240 233
167.775 -59.6753 941.908 221 212 196
121.849 -125.609 1128.44 46 51 60
-455.648 133.405 1122.2 243 231 204
-587.586 133.156 1210.5 143 126 123
248.751 -47.3219 980.595 173 169 164
-340.003 80.6879 1320.32 65 48 42
303.472 -39.811 893.021 232 238 212
335.838 52.1787 933.095 101 100 88
-290.325 214.157 1300.28 58 34 15
-501.672 398.375 1316.63 81 76 71
141.938 -90.4593 1047.01 221 207 204
-335.884 266.691 1231.54 224 207 193
362.567 488.394 1206.54 205 241 249
311.714 123.604 1019.82 99 107 93
239.042 -36.7061 918.447 81 90 91
346.988 487.577 1204.49 75 121 138
74.7141 90.0479 1010.23 249 233 222
-490.225 175.348 1276.12 166 133 108
-321.468 37.4614 1209.29 188 163 143
287.223 11.1826 926.221 104 122 113
-502.907 45.6479 1192.64 142 95 79
343.617 147.937 1024.13 235 249 242
346.736 146.642 992.127 211 228 211
-479.044 35.6865 1143.04 94 48 33
139.354 -94.5457 1088.5 255 219 206
-476.196 173.844 1216.26 233 217 187
-408.1 529.231 1378.72 81 84 80
103.949 66.559 1053.36 222 209 204
-437.325 545.208 1440.16 69 71 66
203.583 -3.84105 964.497 211 206 191
219.052 -28.9107 829.23 237 251 250
213.432 -77.2487 980.098 91 95 94
300.227 117.154 967.573 82 91 81
351.38 78.2258 969.655 244 251 235
72.4649 108.979 1051.02 116 101 109
-297.832 204.113 1354.67 201 172 153
184.594 -55.396 944.064 219 200 192
-406.901 97.0811 1186.92 255 247 222
341.328 124.036 923.554 217 233 213
-305.639 79.0681 1402.79 195 186 175
-508.466 151.956 1266.01 123 94 75
-480.268 217.047 1219.15 149 142 139
-389.915 79.4868 1137.71 194 176 159
392.733 246.394 1019.97 146 142 125
165.328 26.8812 982.092 250 245 232
97.5744 -46.6061 984.711 168 169 155
168.307 -101.318 1049.42 195 190 178
378.663 228.612 1038.88 190 206 189
96.9052 161.596 1038.06 255 244 244
-403.438 110.423 1136.17 233 170 146
-324.896 83.1878 1333.13 167 154 151
187.978 21.1342 1082.37 115 104 85
300.944 -48.4651 892.187 201 202 180
241.619 -90.6122 964.04 156 184 186
72.3272 87.4592 1049.69 100 80 70
-534.521 18.9305 1177.12 255 251 231
-428.635 24.1458 1160.52 251 249 213
-317.575 283.925 1193.25 157 120 116
302.961 73.0963 948.044 237 249 243
359.327 163.539 1012.09 247 253 228
-575.507 66.646 1085.19 252 236 227
293.44 11.5986 895.8 234 242 232
202.365 -2.80159 984.528 221 222 200
-438.631 593.563 1525.06 130 138 132
147.183 345.692 1119.72 111 110 98
-520.56 196.55 1337.53 172 148 127
-506.29 141.837 1201.29 255 249 224
149.147 19.1838 912.249 241 218 197
80.2529 87.622 1050.99 109 85 74
-315.465 179.134 1044.68 249 236 220
76.9646 46.6308 1008.05 243 242 237
298.689 32.831 952.858 203 221 210
211.888 204.593 1019.12 126 102 102
-500.045 217.005 1277.15 236 225 216
374.86 414.114 1168.74 109 140 143
148.077 188.303 1067.63 217 183 172
-398.048 231.072 1206.03 141 113 94
384.367 281.134 1073.73 214 226 210
69.6976 100.285 1010.01 255 250 255
167.602 -126.707 1134.57 245 175 167
84.1802 144.98 1075.42 95 76 60
361.949 82.3167 996.609 177 187 177
165.227 19.1868 981.598 241 226 205
122.535 -141.636 1199.78 211 209 204
326.128 -1.5001 929.075 89 98 82
250.421 -157.201 1123.37 87 100 97
64.6813 110.468 1009.76 255 249 231
223.559 9.8567 919.992 216 201 197
104.946 187.481 1060.79 254 253 254
-279.724 387.757 1394.07 182 184 178
-547.275 309.028 1351.18 150 144 144
404.868 274.461 1085.11 76 80 75
220.008 -2.49962 1027.04 127 116 102
228.869 275.607 1026.14 241 241 216
-535.778 410.012 1374.24 224 218 200
-337.319 360.174 1352.2 166 112 88
161.805 64.0443 1021.47 247 240 220
68.6981 -45.5607 964.437 180 172 149
166.55 11.2337 898.859 68 57 42
157.307 121.769 1024.4 247 233 203
358.098 -177.339 1029.31 45 45 42
61.8807 103.351 1048.94 133 124 117
191.406 210.554 1119.73 255 250 232
-291.029 82.5852 1336.69 75 68 63
210.407 156.727 1074.69 227 212 209
235.923 203.501 1081.05 240 227 215
197.002 -116.027 1074.61 139 110 106
265.868 26.5771 938.563 172 163 157
362.309 217.554 1036.51 217 231 219
126.004 139.341 1061.38 255 250 240
123.225 -87.1355 992.923 98 57 59
72.7958 110.988 1140.91 248 244 245
170.121 210.3 1094.2 217 197 187
-427.977 96.9383 1167.1 255 245 226
306.671 71.6045 916.558 237 252 236
-370.349 -18.3064 1176.87 153 134 119
160.42 -95.968 1048.9 189 197 188
432.015 464.189 1192.87 113 153 170
89.7238 54.3823 1010.46 254 251 251
-570.1 268.659 1333.41 237 216 204
134.694 257.374 1092.38 113 116 101
52.7176 -35.2913 1016.94 162 138 108
-417.635 180.749 1193.02 133 111 91
-372.041 57.664 1182.81 138 129 117
120.643 25.0069 976.07 198 183 163
-405.923 4.58122 1063.64 255 245 222
-415.299 106.177 1172.36 255 241 230
-282.093 102.894 1341.88 133 134 130
59.2185 97.9408 1048.17 241 239 235
453.431 483.908 1217.06 82 110 108
-294.55 102.49 1337.83 130 129 123
161.78 210.076 1092.96 219 196 187
-439.287 106.792 1200.38 255 238 241
361.449 256.14 1017.44 203 225 208
-536.374 351.071 1293.29 148 147 136
-634.003 75.2835 1201.82 255 250 246
283.966 9.15281 890.848 247 245 244
52.3333 57.6184 967.854 160 143 138
-460.148 154.943 1160.65 229 197 174
123.6 196.873 1044.79 166 165 157
179.822 -115.36 1117.54 212 181 161
218.814 -157.567 1137.66 159 161 149
178.621 24.02 948.635 115 116 107
242.543 -49.5569 911.317 106 113 97
328.913 127.48 993.973 193 225 206
-546.138 287.337 1274.05 252 248 244
-587.932 287.344 1328.9 158 147 146
-512.418 100.86 1093.9 251 250 245
-508.914 591.763 1637.01 217 215 209
61.6308 60.794 1046.26 255 251 250
171.161 7.14359 946.716 209 195 185
-392.504 -19.7335 1227.37 145 124 109
160.688 -106.65 1022.55 118 78 74
352.551 143.961 951.529 231 242 209
-504.625 282.833 1231.47 147 141 138
-459.383 120.288 1103.34 198 180 155
-609.382 78.6522 1155.59 183 165 162
-274.983 253.55 1312.8 73 49 39
97.306 -136.294 1172.17 87 84 71
239.049 -157.866 1139.88 84 90 83
75.3139 141.069 1053.38 226 212 197
-634.842 87.3881 1203.5 255 244 240
-389.399 7.42126 1172.69 123 120 99
264.55 56.1425 927.022 167 161 152
-608.144 132.859 1289.81 249 207 197
343.696 29.7277 981.106 219 226 204
-295.693 381.523 1257.35 208 186 159
-615.223 152.94 1224.59 237 239 234
245.47 189.517 1022.06 174 173 163
350.119 501.64 1209.7 117 148 161
236.756 164.67 1037.48 245 223 208
302.286 -27.0142 878.131 191 195 178
382.768 163.5 1014.26 142 153 141
-285.656 61.9247 1407.19 122 107 93
-282.435 218.404 1428.73 164 128 111
95.7852 146.224 998.701 217 215 216
333.535 237.808 947.67 169 190 170
154.54 178.473 988.975 177 159 160
328.922 -67.4148 974.003 171 175 159
201.98 95.7427 1009.17 229 211 187
213.381 -46.6382 804.02 46 57 52
54.3683 74.4296 1006.11 248 246 242
293.335 -139.201 1058.98 22 82 80
191.268 122.085 1029.06 255 247 234
-414.255 65.2423 1169.12 254 231 191
201.13 143.676 907.441 253 227 200
306.96 379.113 1144.5 228 254 254
118.602 -90.7493 1065.49 183 144 135
83.0908 79.8341 1029.5 249 241 246
165.944 75.1537 985.109 216 212 197
-436.646 79.0408 1108.16 225 184 174
73.51 -50.2538 964.836 40 32 19
-310.226 2.68979 1390.99 82 79 60
-538.775 161.055 1303.78 236 220 198
-628.981 105.87 1209.66 243 250 247
-275.541 255.789 1361.02 132 110 104
296.023 -61.4204 890.845 178 189 179
-538.84 20.3429 1157.21 210 197 183
-443.441 119.838 1230.48 255 250 237
393.416 169.76 1040.52 187 195 171
265.341 398.777 1142.26 82 122 132
-414.783 91.7155 1132.38 170 146 118
262.698 82.601 928.384 226 224 198
375.352 393.38 1153.62 98 135 140
-442.299 200.359 1231.62 180 170 154
99.8902 -80.7452 1063.28 166 143 130
367.027 378.163 1202.45 241 251 239
-508.197 247.815 1225.07 236 213 202
168.657 186.941 1050.68 138 131 128
-683.483 41.7632 1239.52 217 213 193
-281.358 66.1185 1337.89 60 28 16
336.241 362.712 1147.55 237 237 229
165.489 272.28 1098.31 236 239 208
-425.28 268.036 1311.6 222 212 193
-290.765 83.3813 1486.05 73 69 58
-602.835 228.388 1310.42 239 235 214
335.971 56.9471 933.428 206 207 197
338.616 470.945 1173 149 179 183
-316.63 -10.2495 1317.63 97 114 112
-309.868 392.325 1317.06 214 189 153
121.477 115.428 981.197 234 212 189
-525.926 240.172 1216.63 135 118 110
113.91 -70.3695 1059.69 229 163 128
-395.459 293.865 1275.27 145 125 110
98.1929 200.132 1104.22 111 99 91
229.504 212.038 1039.18 206 187 167
133.182 119.702 1040.22 255 248 221
221.932 -150.887 1120.38 117 97 77
292.139 -5.49294 865.531 192 198 171
133.254 53.6565 1016.85 213 183 155
-577.645 235.018 1256.21 147 130 113
-367.352 8.34839 1371.86 89 84 79
121.52 120.403 981.459 236 188 165
313.508 -4.86929 919.911 136 143 119
317.778 385.829 1147.42 130 160 169
-354.834 258.853 1128 214 191 176
155.861 115.54 1082.4 246 246 222
-390.767 256.032 1211.64 192 184 168
224.412 290.605 1066.14 209 199 174
209.585 104.687 1071.1 245 232 209
144.545 -134.281 1130.77 89 15 12
141.353 118.045 997.984 161 160 141
187.578 252.678 1100.23 172 173 158
103.895 -64.7089 1004.64 165 138 103
-308.612 264.814 1366.67 157 140 126
-231.238 217.099 1454.09 106 85 70
105.525 23.7529 892.612 138 133 112
266.158 -152.445 1337.84 181 149 137
140.675 110.254 1008.61 169 171 155
138.01 -132.344 1183.27 83 66 72
-520.694 388.847 1306.7 150 151 143
-618.041 124.839 1202.5 245 244 243
-565.494 232.908 1253.12 202 188 171
-290.731 230.565 1302.34 151 126 109
339.295 86.7585 1048.01 227 235 197
370.929 462.129 1385.75 160 192 196
361.65 330.931 1103.42 174 170 145
-589.246 126.938 1297.65 247 213 223
237.775 -102.989 980.447 76 84 86
-451.051 61.2743 1113.7 183 143 118
371.297 300.194 1060.21 190 214 183
172.157 149.867 1009.8 237 212 201
-568.768 24.7521 1163.28 247 236 215
188.848 98.2356 989.378 215 203 171
-506.483 417.452 1387.73 115 120 96
380.796 341.034 1149.48 197 198 176
-435.034 73.4069 1162.52 207 168 142
35.0078 -42.4323 1034.99 41 38 36
74.0636 -37.8789 1041.48 101 104 77
226.671 -141.895 1076.45 164 141 128
