-427.731 78.9041 1358.49 230 205 200
-40.5653 213.583 847.306 218 210 206
43.6894 310.24 923.281 255 253 249
-415.839 123.056 1445.99 242 241 238
-26.3482 30.9568 1029.29 255 255 251
-165.951 103.005 852.014 250 240 234
-505.063 37.6069 1321.8 223 206 192
-175.761 113.066 928.29 212 206 194
-372.395 101.126 1199.6 28 13 8
-376.731 128.066 1461.73 13 2 2
25.0825 308.938 919.754 205 197 190
54.6976 275.932 962.503 203 179 170
-112.278 23.1841 1146.08 54 52 44
-11.4787 7.22531 1008.6 253 255 243
-462.296 14.8149 1268.04 229 219 204
-17.9249 25.0041 991.465 106 112 109
97.3789 15.8226 938.081 222 240 233
-371.106 33.068 1373.5 183 208 205
9.44996 8.98072 1034.31 253 255 251
-490.648 42.153 1260.01 238 219 194
-383.706 138.689 1460.74 236 233 232
-380.898 120.557 1527.05 239 234 231
-349.475 110.718 1469.15 78 66 61
106.825 13.5269 939.232 28 24 14
4.13815 8.5293 957.944 120 124 118
-109.876 31.068 1075.27 239 218 214
-506.541 32.3191 1303.53 204 187 175
26.5829 16.5688 998.478 241 252 253
-0.626219 6.09264 957.041 246 250 244
-491.348 125.695 1208.88 76 50 40
-228.012 338.296 1161.33 220 218 220
-69.6643 152.565 798.775 174 169 156
25.616 253.252 935.066 217 208 197
-501.736 93.0928 1330.84 202 200 192
-563.829 133.409 1385.61 242 230 218
-530.579 133.054 1468.61 171 164 158
-100.038 131.254 784.485 234 238 229
-28.9006 18.4939 1028.07 251 251 244
-558.738 147.478 1390.22 221 201 183
-176.078 122.193 894.866 222 221 214
-171.66 112.882 881.09 255 247 230
-505.529 84.7085 1327.67 204 198 185
-175.819 118.334 907.136 145 136 132
-122.838 24.0454 1119.62 251 253 249
-454.384 128.605 1431.55 162 149 145
-410.233 110.003 1620.03 215 166 162
-30.1686 2.22999 1043.8 255 227 204
-553.605 161.394 1394.86 239 227 206
21.6042 16.4747 997.66 175 186 186
-544.962 113.864 1315.5 255 253 233
-138.527 57.2298 1008.22 63 59 57
-134.92 117.186 822.985 229 253 251
-221.596 262.552 1018.99 229 221 221
-362.032 64.557 1526.91 63 64 59
-439.92 2.55093 1343.47 173 152 137
53.8725 261.425 939.752 198 181 171
-143.384 56.7967 1007.17 249 249 246
-100.89 93.0328 894.811 34 52 58
-144.899 131.922 828.657 247 248 236
-485.298 355.569 1543.09 239 239 233
-126.29 41.8894 1051.44 242 231 228
-134.551 97.8463 871.258 76 88 88
-203.271 110.051 973.568 127 129 124
-448.898 304.881 1549 227 206 188
42.537 259.061 960.121 198 172 161
-333.43 97.0892 1453.05 90 66 59
-163.889 120.354 865.879 108 127 119
96.5344 331.738 970.359 162 149 150
-412.679 266.374 1389.48 194 154 145
-411.385 104.538 1513.37 146 133 131
-61.697 11.5488 1063.08 58 26 28
-448.704 406.501 1407.2 252 251 240
-31.1587 159.478 879.469 45 58 53
113.173 346.477 994.469 152 154 157
-510.045 108.886 1477.88 155 160 158
-155.53 74.0788 1091.54 123 118 103
-37.4978 37.1787 988.592 86 85 84
-318.166 104.238 1404.83 136 102 92
-92.6425 9.45927 1149.42 189 190 175
149.352 149.562 987.026 28 14 10
90.3637 329.777 989.94 175 191 193
-466.988 94.4173 1345.17 154 141 141
-104.141 43.0932 1014.74 254 200 185
-68.1919 237.237 850.226 62 61 45
-566.884 201.833 1520.37 197 181 165
156.728 279.353 1055.37 147 148 149
-213.468 124.355 945.461 80 81 78
-495.963 37.0489 1190.16 20 11 9
139.211 238.273 1028.6 181 162 156
-20.0913 289.806 874.103 190 170 154
-470.786 268.106 1367.7 173 149 133
-509.852 375.509 1536.61 230 224 215
-510.395 387.226 1538.39 187 160 142
-157.926 61.188 1004.21 253 241 245
103.248 248.074 969.972 22 13 16
-148.297 68.5341 1006.73 252 221 205
-472.464 311.905 1373.12 164 137 121
-431.576 278.882 1321.8 230 216 208
154.697 330.389 1057.91 173 192 196
-63.3657 199.025 718.281 165 167 147
-27.5128 24.1969 1070.58 118 115 113
156.113 248.77 1030.46 136 135 135
-474.587 260.925 1374.22 114 102 83
124.926 216.117 986.337 68 35 14
110.001 305.353 922.925 230 161 153
-38.7166 413.893 1031.21 202 208 191
-60.0645 190.577 834.409 50 51 47
-572.639 109.395 1541.82 133 126 119
-61.8233 81.2001 884.27 215 209 204
-128.668 70.7112 972.502 103 106 110
137.217 202.993 972.773 39 41 44
-94.2337 40.8318 1016.64 248 213 211
67.7787 54.2217 890.093 130 107 93
-65.6335 194.782 843.613 118 121 121
-536.91 212.195 1476.75 78 75 52
-128.872 49.5054 1051.33 155 139 127
-85.8899 59.9225 980.635 147 112 100
-514.588 190.951 1339.33 245 240 224
-404.686 364.725 1348.56 206 182 173
-49.1811 154.314 858.021 56 75 71
170.659 266.688 930.845 79 31 21
-349.385 40.0625 1382.23 20 27 39
-397.43 62.7732 1443.74 126 104 95
-60.2478 207.632 903.911 146 143 134
-40.5717 27.3934 934.294 117 108 96
-44.808 39.503 987.376 127 78 62
-40.7081 150.788 859.494 73 80 73
-55.4245 182.682 817.53 50 44 41
-467.082 329.725 1377.55 182 162 153
-430.54 4.25378 1281.58 153 148 133
-150.851 306.354 973.588 238 232 225
-61.1082 233.112 794.472 122 117 103
-473.887 182.998 1283.66 117 95 78
-124.183 330.817 942.993 185 185 180
-384.162 72.7416 1628.82 42 38 33
131.879 135.879 903.233 148 115 109
194.867 304.707 1062.48 184 146 134
130.345 343.713 1035.19 217 149 141
-499.092 235.272 1351.95 157 144 120
-81.272 -0.506156 1217.22 163 159 156
-155.569 70.8717 1005.24 224 195 180
-521.072 266.938 1512.32 81 82 77
-123.989 89.8627 873.092 84 108 104
-501.724 228.332 1349.92 220 208 191
144.845 202.62 988.729 155 153 155
-70.7291 85.0802 966.654 46 59 72
176.949 287.281 1019.46 66 19 5
-75.7602 54.0318 946.08 251 235 229
120.77 351.862 1012.88 34 12 22
-503.059 309.832 1440.57 168 143 135
126.369 204.709 987.9 161 152 138
-513.339 309.855 1523.35 43 33 17
21.9462 294.715 905.799 54 32 26
61.143 277.714 929.537 204 161 154
-97.9231 55.1133 1034.8 146 129 120
-475.201 304.959 1371.07 243 227 222
-692.535 27.1591 1466.19 102 99 90
-519.35 166.334 1312.17 255 248 233
-500.978 168.97 1271.26 192 160 143
-379.023 264.482 1167.38 167 167 164
-366.156 46.4483 1486.72 133 130 134
-25.9353 355.081 869.882 145 147 133
134.729 192.336 986.883 152 142 138
-105.506 95.3067 847.132 90 116 117
-160.983 105.044 897.583 67 101 92
96.7857 276.561 946.945 56 79 93
-15.6207 309.207 857.962 165 147 138
-384.501 1.10263 1510.16 89 89 80
-86.9109 194.866 769.887 247 254 247
-444.035 266.846 1255.69 235 226 211
-342.782 29.9629 1383.21 91 99 99
-1170.5 -168.501 2686.23 185 189 181
47.5864 238.302 880.564 185 163 152
-101.138 66.3559 941.828 247 242 234
-386.848 387.864 1430.61 148 152 147
13.0909 288.126 883.691 64 42 32
-1168.95 -143.747 2730.16 150 152 140
-452.069 417.215 1547.06 226 211 200
-132.572 124.093 804.126 109 119 110
-52.8203 65.4391 916.94 86 119 107
90.7035 -171.471 674.148 17 15 14
-515.317 111.9 1403.43 149 139 132
-81.3669 1.0395 1151.24 70 67 67
-182.441 115.536 893.323 168 144 136
-123.934 64.01 973.15 213 200 193
-55.0738 160.084 806.76 78 76 70
-407.219 78.5595 1511.62 162 139 125
60.6041 174.646 939.846 200 141 113
-82.7098 62.2327 945.194 184 148 133
41.3683 296.999 891.683 222 211 207
-766.125 -109.91 1728.74 102 105 95
57.0458 262.193 962.681 178 155 145
-352.784 347.328 1293.62 197 181 169
-52.4047 59.4754 856.755 237 203 198
132.636 243.073 988.343 115 119 116
-315.034 -317.887 2263.36 195 199 193
-561.88 46.6063 1358.69 156 144 133
-34.7209 48.1574 919.364 143 168 173
-128.336 117.035 755.676 74 72 67
-1176.7 -149.782 2716.63 177 182 172
-792.571 37.1064 1687.69 231 221 208
-51.6253 154.836 828.957 170 166 155
33.2064 230.319 863.064 61 23 13
