230.815 -66.2329 1885.42 255 248 230
-18.8206 18.0336 1166.35 255 253 240
-9.75046 490.601 1257.49 25 30 29
-34.375 500.643 1197.21 244 244 235
-43.7966 464.07 1251.78 255 243 217
-47.5873 410.615 1188.59 216 221 218
201.325 369.688 2075.66 52 72 79
-62.1117 321.832 1179.83 92 84 73
213.313 19.4962 1875.16 229 200 182
-77.8673 196.812 1072.42 55 42 34
-50.5087 401.801 1188.28 209 194 182
221.901 -42.9208 1888.24 36 19 18
-72.4425 69.5768 1065.53 255 243 223
25.6485 -5.21154 1293.56 205 190 170
-138.881 85.8024 1072.23 160 147 133
8.2365 231.23 1243.32 130 115 106
25.4853 485.841 1321.01 77 72 71
175.568 16.3069 1681.19 232 184 170
205.653 -30.0634 1766.53 160 145 141
172.799 442.277 1972.81 75 106 108
-64.8151 206.853 1121.69 128 85 70
237.519 278.638 1947.65 136 129 114
-50.5016 264.249 1178.57 109 65 47
-70.1531 94.9219 1112.86 249 208 186
-67.8872 315.707 1178.12 241 236 231
-31.7398 27.4394 1115.91 255 237 222
-24.501 422.663 1110.14 252 246 234
-50.6605 414.855 1116.71 157 137 120
-69.2621 117.329 1088.57 160 63 52
-124.26 132.252 1103.32 176 161 149
-22.5024 387.588 1219.68 177 146 129
203.796 48.6765 1784.89 205 194 191
233.901 36.3005 1906.62 109 97 84
-25.8202 8.04688 1216.49 188 182 173
172.988 9.44584 1521.78 113 67 52
211.431 485.352 2265.54 201 229 242
-53.8146 323.486 1131.33 74 75 76
209.799 92.9687 1796.35 126 116 120
-224.736 110.335 1124.95 46 8 0
-71.2108 123.413 1104.71 236 178 154
-41.2692 469.033 1144.79 70 60 47
101.649 -140.987 1840.48 76 78 73
-44.6914 311.066 1183.03 128 113 97
177.989 92.7551 1790.27 166 163 160
-45.4476 377.29 1136.27 151 131 129
-64.6827 147.548 1072.15 127 41 28
198.908 25.5461 1654.33 123 101 81
-5.11823 -15.9551 1275.15 107 89 66
-24.2502 294.443 1186.43 245 228 211
-44.3737 250.507 1151.72 237 220 184
18.2175 231.122 1304.63 159 152 143
15.4041 217.074 1271.9 229 234 232
222.857 75.1671 1794.59 247 233 222
-35.6468 443.459 1143.64 203 187 172
-134.457 110.735 1054.58 146 137 134
8.33543 188.843 1298.61 252 223 200
-67.0586 75.9303 1025.21 218 131 110
-58.7675 106.88 1047.78 172 129 115
-181.956 94.8824 1086.98 186 146 139
-88.2404 152.401 1067.42 108 63 49
251.059 -17.6385 1777.27 255 254 219
-184.425 78.948 1085.37 173 133 116
-64.8325 226.144 1122.95 114 92 81
8.08423 185.33 1239.47 176 135 114
209.598 462.14 2102.32 109 133 126
-62.0905 202.583 1076.11 175 153 138
59.5412 230.177 1394.86 34 41 46
8.13553 200.623 1240.76 145 115 93
-19.3607 467.765 1227.29 107 95 80
170.723 -3.5989 1766.38 151 124 118
-36.1868 101.393 1196 254 246 233
-56.8136 223.925 1078.48 255 245 221
193.455 -127.991 1740.7 34 34 32
199.932 290.298 1804.19 139 162 161
4.59941 29.3419 1343.89 173 113 98
-48.8528 105.889 1072.75 160 156 158
-62.0141 103.204 1069.88 119 100 88
217.535 52.996 1788.42 136 119 114
252.341 3.31304 1904.09 244 229 205
-25.7453 369.728 1158.06 255 245 236
-31.8152 88.8657 1253.53 253 248 237
206.787 -122.915 1760 39 35 26
-8.3069 324.729 1106.07 194 197 173
-42.7244 177.156 1124.46 130 95 65
-42.4401 101.573 1092.77 171 167 151
-225.409 79.0262 1074.97 174 129 115
-41.5323 336.496 1159.96 166 136 128
214.039 435.322 2095.94 143 167 169
-321.299 76.2939 1122.39 52 32 16
-46.1982 234.977 1081.32 146 117 88
-13.5081 136.042 1230.69 254 244 230
122.203 282.151 1708.96 78 102 119
-18.5029 387.509 1169.11 232 229 223
-67.3015 139.647 1071.1 234 216 208
15.4534 33.3571 1322.47 202 119 84
-36.0408 134.444 1172.23 252 233 213
-115.575 130.179 1079.52 153 143 135
-16.096 408.781 1251.11 194 188 169
-38.6789 322.345 1159.37 227 217 218
-108.915 131.392 1061.59 77 45 40
-75.741 173.694 1117.09 230 218 213
-59.3543 295.676 1128.45 163 165 163
30.0266 468.486 1313.5 162 160 159
-16.1899 350.101 1247.06 139 115 104
6.54211 627.479 1340.79 162 168 162
-109.214 207.711 1185.45 97 62 41
-53.2741 192.59 1098.55 180 138 131
-96.3419 221.743 1165.23 200 172 156
185.802 367.348 1958.48 124 151 144
-66.5935 267.956 1018.5 131 110 105
0.787533 155.735 1254.18 165 121 95
5.04269 169.548 1296.06 243 214 189
-89.4678 216.891 1116.93 133 109 90
-9.55859 72.6058 1199.89 255 225 205
-48.5096 426.474 1152.72 140 122 104
-30.2812 97.2952 1170.52 238 223 215
-30.3519 36.6272 1234.05 212 179 155
18.3484 263.333 1307.59 191 174 155
36.2426 265.173 1376.43 249 224 208
261.916 -1.47409 1905.15 176 160 130
8.82435 221.262 1128.84 195 181 167
