-62.103 359.717 1179.64 255 250 234
-14.911 340.834 1115.78 253 249 247
-22.525 359.373 1214.6 223 218 215
-67.8666 341.587 1177.34 240 246 246
-1.16867 15.5748 1120.31 29 17 0
446.698 -214.861 1433.92 206 202 195
-14.4211 -38.0902 1068.9 207 178 165
-19.7107 -35.327 1068.13 59 38 36
27.0526 83.369 1130.65 75 34 14
472.225 -154.08 1451.19 255 251 248
31.3438 115.748 1107.15 105 51 32
75.5205 103.703 1140.93 125 95 74
23.302 74.2525 1083.51 247 234 208
26.7558 -32.4781 1099.1 113 84 63
40.6169 -26.173 1124.64 142 79 58
-64.3646 47.4097 1023.09 92 73 58
-20.4947 289.87 1111.08 245 229 216
-23.2395 295.35 1110.89 106 84 73
-31.6081 -29.6367 1060.31 239 220 205
-48.473 413.375 1146.96 242 239 229
477.695 -9.38118 1477.39 243 247 246
440.041 -74.8062 1462.76 253 203 189
423.422 -29.3044 1319.62 148 138 142
-18.3781 272.627 1184.35 240 232 229
-114.413 28.8358 973.378 250 184 155
400.945 -262.644 1496.65 227 191 182
32.7632 97.5169 1132.74 255 242 228
19.403 104.653 1180.39 104 61 43
-103.311 44.3406 1056.56 252 251 244
558.733 -53.5291 1546.19 255 235 229
476.553 -27.6943 1474.1 252 241 242
16.4938 113.479 1180.5 255 240 218
-50.6119 338.893 1107.96 133 110 94
-3.66974 28.2338 1075.46 103 102 89
44.3401 143.029 1138.11 243 237 228
24.4294 131.234 1133.55 137 113 97
-96.8178 57.7208 1017.07 133 91 86
-64.0872 265.576 1099.96 126 113 106
39.0049 -38.861 1078.22 84 15 4
-109.187 60.2611 1014.62 165 76 51
-69.4797 113.734 1025.65 94 59 39
475.637 -42.2784 1471.47 250 250 252
-69.8541 326.484 1150.07 235 230 228
91.2213 156.646 1198.01 113 89 79
28.1962 96.0833 1181.41 240 203 184
-85.2272 38.9258 1060.07 120 98 97
460.214 -49.4383 1468.92 225 212 206
28.484 161.147 1186.48 255 249 236
561.955 177.496 2267.43 97 99 87
-93.1122 50.5745 978.733 97 64 58
468.145 -42.2157 1470.85 91 85 76
485.134 49.8799 1488.13 164 160 136
41.2757 100.397 1134.54 137 94 70
-71.6327 177.7 1048.97 241 207 178
52.2257 155.806 1190.68 153 143 130
37.1388 113.916 1184.56 253 233 195
104.766 4.48651 1187.34 255 251 231
-24.8392 419.297 1374.75 212 209 206
317.452 97.3881 1634.21 76 70 59
46.2573 -23.4332 1125.85 255 228 213
30.2083 159.71 1136.58 100 73 62
104.863 13.3829 1188.17 255 250 233
-16.1027 316.357 1131.87 223 205 195
491.585 -140.218 1455.06 247 242 239
422.394 -42.3668 1316.64 250 249 245
-11.4233 189.957 1083.95 249 254 251
31.0656 -25.3891 1013.25 223 147 130
478.951 -60.6997 1536.43 215 193 184
-116.49 40.0765 1012.01 217 144 127
1.51557 286.201 1162.54 243 251 233
-66.5842 225.444 1053.32 234 212 201
-88.0774 137.064 1065.2 123 76 72
365.691 -226.523 1429.6 71 71 69
-91.8578 258.511 1190.51 126 122 118
452.871 -106.707 1390.39 135 126 124
-108.623 89.092 1058.03 240 205 201
597.937 -264.208 1507.19 187 199 187
-118.881 25.0314 1010.71 199 132 103
15.9018 114.111 1130.73 126 79 56
-49.0348 332.051 1094.73 95 69 50
-108.315 62.7658 957.7 201 90 77
-30.0293 361.485 1186.92 120 119 114
458.225 -82.2824 1463.01 114 78 69
86.6021 23.0042 1152.88 253 245 227
-16.5297 213.7 1102.36 158 106 96
-67.8465 326.762 1176.53 156 148 148
103.57 364.076 1257.51 123 124 121
15.9201 119.788 1131.13 255 230 213
-135.451 471.96 1422.22 167 165 150
519.629 280.614 1676.2 189 231 239
540.567 -160.286 1528.35 229 219 196
-49.9735 251.659 1148.7 150 135 133
7.36548 77.4038 1126.48 250 205 191
499.325 -24.1137 1476.55 245 236 234
-30.2253 60.3885 1072.5 250 255 237
21.6289 116.26 1075.78 120 73 52
-37.2133 220.008 1147.59 151 112 102
-78.3737 47.6351 999.177 221 214 211
501.547 -65.4205 1400.76 241 216 215
500.15 -67.9451 1468.78 255 249 239
385.976 -91.4019 1210.83 212 193 194
32.3372 -35.5809 1014.12 180 125 111
-31.5091 222.321 1103.76 243 222 202
-48.2029 270.622 1127.25 250 248 246
-98.5303 160.984 1064.21 84 73 66
2.28226 295.746 1139.13 217 210 182
434.626 -116.529 1387.31 170 156 145
359.096 -212.576 1431.38 43 47 42
-87.4103 194.181 1103.71 237 247 220
512.098 -57.082 1471.59 254 245 248
-18.5065 385.203 1165.93 109 90 78
-64.4303 98.4703 1025.87 116 82 80
-6.6369 264.276 1186.31 135 128 129
556.655 -21.1883 1555.72 255 247 236
-20.3521 229.197 1130.84 135 81 76
-27.1666 372.846 1163.15 139 138 134
-85.2836 60.0772 1061.34 146 140 134
-78.9793 57.3642 1038.7 150 132 121
-59.7566 40.9765 1086.33 254 253 241
-47.7767 359.854 1020.55 110 81 63
35.4436 66.4955 1130.97 180 131 108
455.799 -116.964 1388.92 236 229 238
564.072 -216.181 1516.08 224 211 203
-116.156 145.383 1104.89 46 30 19
80.1436 17.5522 1160.2 254 254 230
523.746 48.8915 1417.37 253 252 225
33.3687 267.005 1167.36 140 144 131
77.7639 24.1182 1135.13 253 240 220
46.1693 137.773 1188.15 185 154 135
483.015 144.16 1503.17 112 115 106
-66.0699 308.129 1120.04 231 226 229
-9.19436 192.775 1130.93 168 159 152
51.9628 -12.2515 1127.75 127 80 56
494.935 205.589 1583.51 97 129 143
-90.5939 161.484 1018.81 250 228 213
548.364 -71.5149 1471.24 137 113 105
-27.613 217.618 1036.86 160 144 143
-106.207 134.204 1061.08 170 165 161
479.318 221.174 1759.47 56 78 81
25.1489 72.4446 1178.92 248 187 168
-56.5314 295.875 1126.73 166 161 159
526.718 -57.221 1542.32 231 221 218
-100.718 168.984 1098.51 166 136 123
-14.8636 184.799 1033.74 190 165 164
38.6536 176.037 1160.21 161 149 140
-64.7939 261.47 1123.15 166 163 163
106.105 19.8487 1212.64 240 210 181
-95.7291 127.58 1000.86 253 251 250
-24.1401 379.484 1192.86 196 196 187
439.851 -12.8055 1473.4 147 138 136
-43.1589 80.9912 1047.7 250 214 193
27.6009 60.7987 1040.97 157 113 93
93.3062 54.9421 1189.95 255 249 231
16.5504 137.078 1023.41 227 196 192
-65.8767 236.97 1113.01 170 102 94
-64.4035 30.9084 1063.86 138 140 135
-91.7226 12.1733 1015.63 251 238 218
-12.3055 410.487 1193.27 12 17 18
545.833 -134.699 1378.11 240 241 216
-68.7487 39.2316 1039.41 247 217 214
80.1694 31.8263 1116.64 192 128 102
618.011 -209.412 1519.31 216 221 206
453.658 -82.7747 1331.1 213 185 163
-55.6933 429.399 1301.48 240 232 222
544.384 -284.695 1508.8 117 134 132
96.211 42.7549 1217.97 255 226 213
-85.1123 39.4961 1009.26 183 177 159
34.9671 287.025 1196.3 156 148 127
494.55 -243.544 1270.19 159 186 192
-99.5796 140.539 1040.31 155 106 86
495.276 196.7 1590.58 142 181 183
490.62 186.184 1650.53 102 132 136
20.3846 274.894 1135 168 164 144
-77.6737 150.621 1068.17 231 209 180
745.578 -229.461 1813.07 241 249 228
538.511 -255.806 1512.97 154 144 137
38.2677 322.671 1315.44 253 255 229
-33.9651 316.959 1042.08 252 248 241
-31.508 257.176 1130.08 138 131 122
531.828 -42.5508 1475.57 244 222 211
431.152 -99.8172 1457.59 157 135 132
-21.0215 272.278 1054.51 249 220 212
531.386 -280.328 1464.91 184 212 215
573.522 256.089 1693.65 126 157 156
-93.1151 81.2526 1060.93 211 184 201
-113.669 419.419 1253.02 112 100 94
-121.48 96.9611 1055.63 72 26 17
456.813 -99.8624 1391.81 178 169 158
-12.529 258.021 1184.68 255 251 243
-127.899 11.5094 1026.7 130 84 59
524.927 19.6551 1486.27 230 226 199
733.364 -192.198 1779.41 188 195 180
552.096 -137.012 1384.74 154 160 141
85.2854 168.457 1167.96 229 217 190
625.243 -172.634 1527.35 241 250 235
124.299 133.08 1201.95 255 248 235
516.628 275.349 1600.79 124 158 162
542.247 -155.892 1333.84 202 218 195
420.09 -9.55286 1339.03 141 133 136
553.307 -13.4352 1557.04 186 153 140
552.486 -114.813 1463.35 255 253 233
2.80375 67.7236 1028.56 213 162 160
-118.86 150.895 1104.59 167 139 119
577.252 -62.1462 1403.22 245 255 245
408.512 -109.923 1253.71 170 169 176
-89.2226 244.407 1139.17 221 214 208
93.365 60.9606 1190.48 255 238 216
-120.796 467.887 1386.7 67 61 57
434.483 -125.743 1309.65 184 182 184
-44.1798 -25.9684 1022.69 209 185 168
448.261 -90.9308 1422.87 133 102 99
-91.3205 76.5089 969.488 220 187 186
119.641 70.269 1249.83 248 227 203
437.883 -257.893 1502.43 89 61 64
58.3905 188.913 1194.32 190 176 157
523.145 -6.05371 1481.57 214 193 170
-46.0552 20.2152 1066.84 255 192 184
-35.5309 290.028 1100.99 216 154 134
-108.702 110.24 1059.21 191 177 171
-103.537 107.644 1060.2 252 251 250
5.50585 65.3676 1032.34 172 143 134
52.8941 207.962 1342.87 255 243 227
