-464.638 -91.6043 1427.52 134 154 154
34.6696 -41.6506 1008.3 41 38 36
212.26 -31.7779 934.771 140 142 142
-342.525 -33.586 1243.81 134 111 92
-516.185 17.1426 1138.68 255 251 231
281.451 13.9116 934.091 113 143 127
-439.63 21.4414 1119.79 252 235 203
239.524 17.9403 941.435 214 205 201
-305.018 53.7411 1383.44 135 116 108
-489.717 149.029 1338.59 191 141 116
85.7625 143.479 1067.61 95 76 60
85.7625 143.479 1067.61 95 76 60
111.632 148.837 1067.88 129 113 109
212.537 159.755 1100.53 241 234 227
-346.472 194.297 1154.99 255 249 227
318.045 173.825 993.654 21 32 26
-337.988 223.111 1241.48 70 46 37
-324.535 230.469 1213.83 42 24 17
175.581 211.421 1083.07 128 106 86
-239.772 315.14 1248.74 87 56 29
314.257 312.316 1189.15 255 255 215
-319.632 330.011 1203.04 255 230 214
-523.109 374.614 1340.93 31 31 21
-519.524 392.782 1328.97 246 243 235
149.588 341.333 1106.86 64 63 49
365.968 579.29 1378.62 227 250 249
-726.541 -153.259 1197.29 84 85 71
132.486 -107.958 1096.17 243 231 233
139.195 -102.835 1069.17 33 7 15
219.459 -73.2353 948.746 252 254 250
70.3355 -70.9564 1025.75 156 134 107
301.172 -58.4002 899.547 214 222 207
119.889 17.5107 962.373 88 84 63
40.9458 29.4072 987.877 87 75 68
-391.812 78.1092 1128.77 255 253 231
-388.403 94.4911 1142.13 255 247 222
128.429 93.7431 977.62 220 206 179
89.0746 111.379 1030.31 135 90 66
115.629 124.376 1042.06 143 94 83
-290.98 230.889 1322.91 193 153 137
141.26 218.374 1117.76 104 83 73
-338.777 313.007 1443.84 87 64 58
110.718 238.768 1077.66 113 112 99
-236.266 339.483 1432.53 14 14 3
391.282 238.005 1016.26 61 43 29
324.883 286.805 1046.4 255 252 240
-289.676 383.499 1306.76 123 111 91
364.974 372.745 1177.04 244 254 244
-230.45 590.617 1505.64 96 119 110
334.019 484.757 1174.66 231 252 252
328.002 540.673 1266.67 162 181 181
493.303 601.335 1361.84 135 163 163
493.303 601.335 1361.84 135 163 163
178.745 -161.787 1164.44 89 57 50
202.064 -100.246 1049.6 93 47 43
-309.373 -4.97128 1363.08 43 33 28
-391.626 -1.77656 1186.71 135 122 99
-391.626 -1.77656 1186.71 135 122 99
314.686 9.3258 913.288 195 210 183
303.079 20.4826 942.446 87 110 99
288.987 25.2622 937.744 94 103 88
-472.519 36.8977 1120.15 98 35 18
-529.871 53.3955 1176.45 255 241 228
-529.871 53.3955 1176.45 255 241 228
-548.701 60.7597 1137.89 211 139 127
53.3229 54.9848 1029.27 122 105 104
-278.669 89.1547 1415.05 35 28 25
-529.689 70.0777 1084.9 252 252 254
-538.839 80.8341 1215.36 197 166 155
172.81 95.3287 1014.38 205 200 172
172.81 95.3287 1014.38 205 200 172
247.455 138.359 1152.94 227 158 134
347.708 137.143 1020.08 104 141 114
128.224 143.086 1040.02 255 252 250
-355.175 188.796 1197.94 111 76 56
-349.17 192.755 1124.98 227 178 148
-219.215 266.107 1483.39 42 34 27
177.728 192.52 1065.07 108 87 81
185.08 198.615 1050.14 253 247 237
185.08 198.615 1050.14 253 247 237
205.376 218.641 1044.33 255 252 234
177.24 225.556 1056.12 174 159 118
177.24 225.556 1056.12 174 159 118
201.545 232.205 1057.97 186 176 132
-567.039 295.119 1300.41 255 254 251
269.734 239.511 1034.78 248 248 240
158.523 269.657 1100.56 217 220 196
347.89 375.715 1152.3 166 179 176
475.013 461.882 1246.69 78 107 118
285.776 -0.666734 931.466 121 157 126
77.6629 17.983 981.253 141 134 109
66.6275 48.8328 999.907 251 251 255
-532.171 68.3596 1083.5 249 254 251
-549.442 103.477 1157.08 185 126 112
66.3793 97.7972 1034.35 255 253 253
66.3793 97.7972 1034.35 255 253 253
210.434 93.9667 995.107 148 128 108
323.029 91.1739 964.471 255 252 244
140.206 134.055 1040.9 189 117 90
94.5216 148.11 1043.96 209 207 206
-219.39 266.209 1481.88 42 34 27
-578.255 266.573 1296.28 255 251 255
249.67 221.437 1073.35 255 253 250
-511.999 320.688 1247.6 255 255 249
500.527 517.32 1274.66 133 147 145
277.856 -136.767 1051.08 41 90 90
203.688 -116.707 1059.23 208 175 159
203.688 -116.707 1059.23 208 175 159
294.129 -4.23019 894.893 123 147 112
278.79 95.4518 977.519 255 255 237
-470.237 163.985 1173.77 98 77 56
262.66 244.901 1098.6 190 185 183
-312.012 285.037 1224.85 103 81 65
249.491 280.999 1086.78 253 253 244
-369.541 351.078 1247.29 249 254 243
368.668 353.285 1165.92 110 100 82
368.668 353.285 1165.92 110 100 82
-244.466 444.978 1228.43 74 81 79
389.208 438.105 1193.69 196 226 222
389.208 438.105 1193.69 196 226 222
-367.365 -109.707 1309.19 149 134 112
238.613 -72.5379 926.384 158 191 181
238.613 -72.5379 926.384 158 191 181
-346.665 22.0282 1286.61 59 52 50
-535.396 95.0296 1173.82 254 252 255
144.722 82.344 1012.77 128 108 95
-591.578 127.768 1183.97 253 252 254
-591.578 127.768 1183.97 253 252 254
238.783 163.43 964.779 252 252 245
-429.081 211.893 1210.6 254 253 252
149.693 203.715 1091.02 160 134 127
149.693 203.715 1091.02 160 134 127
304.257 451.098 1241.51 210 235 232
304.257 451.098 1241.51 210 235 232
441.228 459.649 1229.58 163 196 191
-459.131 -78.1539 1322.58 102 114 115
-360.227 0.0387354 1261.27 144 134 115
183.295 137.142 1015.23 229 205 193
-353.594 241.357 1211.34 252 251 239
-381.32 330.464 1231.99 255 254 254
-371.281 -41.8661 1246.22 57 40 28
165.638 -15.3284 967.165 98 75 66
-315.653 2.59578 1321.03 57 54 49
-436.922 17.0531 1125.87 249 224 195
-605.048 80.5197 1192.58 219 219 220
231.858 129.325 1011.02 239 235 231
231.858 129.325 1011.02 239 235 231
-362.843 161.8 1119.37 232 205 165
423.037 500.497 1228.22 183 220 213
-346.856 -71.4823 1323.96 57 48 42
343.326 101.79 996.057 209 215 201
-241.479 258.745 1448.27 58 51 48
-398.261 16.8641 1176.07 47 36 22
-289.132 155.592 1472.56 73 62 54
147.578 287.043 999.734 100 95 88
-370.081 483.736 1354.27 84 94 86
96.0505 -19.845 810.192 109 90 89
-452.443 71.9254 1072.97 254 225 222
-332.702 140.2 1328.52 51 45 40
-245.847 423.979 1354.06 56 58 55
-245.847 423.979 1354.06 56 58 55
