-623.628 -392.636 2406.15 28 29 23
-417.83 -63.617 715.034 149 161 156
320.177 -158.3 1801.34 71 68 56
127.066 -51.682 1655.48 76 78 47
-277.398 26.5186 1283.1 158 148 129
281.203 64.6141 1878.2 255 253 248
281.203 64.6141 1878.2 255 253 248
347.672 132.484 1878.59 192 196 187
-116.926 104.677 1038.54 111 31 12
-113.74 136.937 1051.35 126 39 18
325.957 250.852 1805.71 251 247 232
-106.281 158.527 1064.28 254 253 253
-154.001 340.482 1125.76 49 33 27
-214.355 361.945 1155.43 59 13 5
-198.671 440.817 1199.28 185 132 110
3.80634 506.066 1282.59 61 63 63
-168.829 452.385 1089.38 51 29 18
-234.82 630.072 1500.25 213 205 198
18.0618 579.592 1292.12 42 40 36
128.05 -162.89 1773.41 173 198 191
-1130.04 -91.9197 1928.74 144 120 94
251.557 -27.5768 1713.42 60 37 30
280.523 93.9825 1758.05 254 251 232
143.341 96.9028 1768.73 141 148 141
-79.472 63.3181 1127.36 248 235 210
-79.472 63.3181 1127.36 248 235 210
-91.2081 70.9113 1071.3 246 233 213
397.164 158.052 2003.38 252 253 237
387.518 167.07 1879.36 163 166 142
16.9681 127.14 1269.89 254 232 210
-99.344 116.015 1062.77 253 250 247
-253.65 126.74 1113.68 43 10 3
-253.65 126.74 1113.68 43 10 3
213.986 216.676 1839.5 116 92 76
-132.215 139.202 1050.08 75 24 7
-160.445 153.469 1085.6 189 169 161
28.6533 228.795 1317.88 230 186 172
21.1622 274.119 1283.51 252 251 231
21.1622 274.119 1283.51 252 251 231
58.3726 341.957 1488.91 249 233 214
-63.4816 288.193 1113.79 255 251 242
-83.8077 377.918 1115.05 105 97 98
-34.0614 495.412 1192.21 30 35 36
841.99 -356.807 1911.01 91 93 88
0.899052 8.49791 -150.985 139 111 81
330.038 -75.3815 1736.78 121 117 100
247.724 -33.8145 1593.38 254 247 240
307.15 51.5611 1723.1 158 138 131
-76.9507 129.426 1079.64 254 252 255
277.036 214.171 1601.08 146 127 103
-83.2645 151.736 1099.34 190 147 130
-11.2481 227.83 1244.07 143 116 108
186.716 372.823 1743.05 93 120 121
286.875 409.265 1894.74 247 255 252
-103.506 231.479 1053.41 80 65 45
276.541 460.046 1841.9 165 188 190
-150.666 329.647 1149.2 48 28 21
-41.6725 358.009 1166.7 109 91 76
-41.6725 358.009 1166.7 109 91 76
-195.651 376.343 1132.71 147 108 88
-76.3963 415.406 1143.5 252 252 254
-123.561 415.614 1101.15 43 31 23
-78.3668 455.539 1128.44 37 23 12
-33.131 474.6 1168.27 250 241 233
-26.9858 616.58 1250.58 44 46 41
854.697 -311.166 1614.62 127 127 117
-288.855 -52.7957 408.136 137 139 132
-255.888 28.4259 1266.3 121 99 79
-90.3686 86.872 1155.79 210 148 122
-71.0111 109.183 1163.9 255 253 250
39.6124 256.281 1280.86 250 253 233
178.388 464.92 1838.49 87 99 96
-50.154 305.453 1163.82 153 103 93
-50.154 305.453 1163.82 153 103 93
-52.493 413.404 1182.16 254 254 251
13.8998 492.813 1264.27 83 82 78
-121.635 441.874 1052.35 53 38 23
123.886 -112.596 1601.82 185 174 169
156.624 104.918 1782.49 97 104 98
-44.1095 141.394 1158.83 255 252 255
28.1645 173.311 1332.98 254 252 245
253.292 244.76 1657.57 65 50 38
-36.9266 191.854 1206.99 238 224 202
259.149 288.327 1772.54 218 229 223
-60.3602 202.802 1132.66 254 230 202
311.934 356.73 1888.08 247 255 254
7.52406 240.44 1266.65 251 254 255
-74.5488 249.581 1117.76 245 213 183
-33.087 335.305 1197.21 254 252 255
-33.087 335.305 1197.21 254 252 255
-91.0194 390.522 1109.27 88 52 48
-198.559 121.451 1067.61 49 36 24
156.471 326.818 1772.19 99 112 134
-156.094 231.004 1142.73 82 61 46
-64.1315 453.427 1148.31 255 252 249
333.301 -143.55 1875.31 97 87 76
-157.165 13.4042 1262.99 51 99 102
-157.165 13.4042 1262.99 51 99 102
-329.722 89.5324 1157.46 101 76 52
-329.722 89.5324 1157.46 101 76 52
-97.9447 192.904 1071.99 250 251 253
-213.655 331.748 1219.9 161 120 105
-213.655 331.748 1219.9 161 120 105
-186.437 362.938 1107.97 152 96 69
-65.3884 399.776 1130.46 255 252 253
-40.267 470.331 1283.45 125 108 101
-764.344 -167.924 1446.77 104 120 111
188.135 60.5872 1589.71 64 48 42
-228.311 63.1022 1185.35 164 144 116
-70.4568 24.545 1170.18 49 75 80
-119.311 337.177 1108.96 117 59 50
60.2766 139.701 1253.63 77 64 53
39.9309 236.771 1424.83 244 202 179
126.33 394.769 1705.22 90 79 69
-11.6227 545.243 1240.58 93 91 94
208.703 -66.756 1678.14 56 48 45
208.703 -66.756 1678.14 56 48 45
-289.717 153.431 1120.8 71 48 31
332.485 52.278 1770.81 240 247 246
-323.963 16.887 1328.77 141 134 117
-46.6902 137.677 1204.12 255 254 255
-46.6902 137.677 1204.12 255 254 255
-233.653 214.421 1171.8 150 103 71
