-311.912 -102.807 1293.83 63 53 35
-311.385 -21.8877 1210.12 103 88 66
-359.59 58.4567 1106.46 252 228 182
153.79 68.9823 1016.9 253 250 249
183.784 103.878 1002.77 185 156 135
-336.175 133.878 1129.16 255 255 222
-241.15 193.293 1421.16 147 123 104
247.493 266.866 1113.74 144 135 95
264.116 293.633 1085.62 190 178 157
419.539 407.833 1178.55 29 45 57
409.112 497.339 1267.61 233 254 254
-310.15 -59.6518 1210.52 102 77 64
-327.272 -45.1344 1207.93 122 104 90
-308.996 -34.383 1204.86 141 123 100
-324.448 -25.5954 1097.75 166 140 122
-324.448 -25.5954 1097.75 166 140 122
-276.067 53.6791 1314.06 124 100 82
-411.947 45.5322 1053.3 255 234 206
-327.949 45.7569 1010.29 112 61 28
-337.717 80.2517 1037.64 148 114 89
-332.315 87.5038 1056.68 255 247 220
128.577 85.0315 1001.35 249 247 236
-358.043 131.266 1106.9 255 246 229
176.318 137.075 1038.32 128 111 106
-398.023 185.882 1175.26 250 239 224
-314.312 197.221 1139.93 255 248 241
-481.347 309.703 1243.71 219 188 173
288.734 260.208 1009.66 250 250 228
-481.655 335.941 1202 253 250 237
455.51 405.136 1167.1 126 164 164
455.51 405.136 1167.1 126 164 164
-374.333 -41.3882 1106.47 59 83 83
-337.077 -4.81896 1100.93 151 132 106
-282.586 -3.72914 1304.53 50 44 37
-328.803 46.2364 1134.15 184 175 155
-350.976 90.6259 1079.59 142 108 78
-367.456 115.057 1105.05 210 188 173
255.21 160.109 1031.99 230 206 195
237.041 178.665 1033.36 52 21 16
176.086 183.401 1052.04 64 54 50
243.33 183.904 1019.26 255 249 233
243.33 183.904 1019.26 255 249 233
296.683 196.757 1008.39 255 253 235
225.616 266.85 1118.58 206 213 179
122.625 43.5876 990.4 111 85 80
-276.869 68.517 1274.78 65 47 43
-265.171 93.1175 1314.53 142 146 139
120.936 75.7803 1001.98 170 146 142
-402.348 170.806 1084.33 255 245 217
168.677 174.424 1068.04 243 244 246
303.384 200.519 1027.27 254 252 246
382.33 279.336 1069.83 172 171 142
-331.411 -104.378 1242.9 155 145 125
-445.116 134.056 1115.09 172 142 118
-445.116 134.056 1115.09 172 142 118
191.665 209.405 1044.43 168 170 139
-488.035 319.223 1171.81 252 252 254
-296.73 -68.7645 1238.21 44 34 23
-308.008 20.5248 1225.16 50 41 33
-398.781 213.845 1172.14 255 251 250
-472.303 390.837 1243.08 99 92 89
-294.361 50.3952 1252.46 162 138 117
-487.304 275.74 1212.9 254 251 251
-426.973 341.269 1183.02 183 209 174
-373.639 65.4665 1109.54 239 210 173
-373.286 12.5302 1034.17 250 234 193
165.836 116.532 1045.58 193 160 138
-334.477 165.912 1114.58 236 201 174
-229.085 265.283 1416 67 56 53
-213.26 201.333 1561.84 176 167 148
