-380.675 -14.0225 1411.91 128 115 103
-66.9631 29.0569 1083.25 158 97 85
-362.823 60.8767 1502.3 63 55 60
-447.496 61.0342 1412.36 20 25 23
-532.386 89.4743 1412.15 34 30 19
-397.511 115.476 1473.98 14 8 3
62.625 73.4712 915.344 187 187 163
-540.205 158.753 1476.78 130 124 111
-191.042 106.986 895.481 185 174 171
-565.994 167.687 1363.9 198 178 162
-485.439 191.111 1431.92 14 11 6
-544.278 203.659 1509.8 13 15 3
-213.844 124.906 901.051 191 193 171
70.9694 197.053 947.993 196 150 117
61.6338 210.914 933.322 210 158 132
-416.688 337.938 1470.48 69 37 26
-416.688 337.938 1470.48 69 37 26
-52.9957 182.806 807.751 44 41 41
-587.938 371.648 1573.7 186 194 180
-87.3218 183.319 756.81 247 246 236
-380.309 406.305 1580.62 252 255 240
-460.594 368.202 1404.78 255 245 225
7.12795 267.912 889.44 21 13 3
-163.112 331.996 1022.68 249 247 241
164.091 351.401 1045.16 77 30 19
-152.99 336.361 983.703 255 252 242
86.3141 342.849 965.572 29 28 27
-40.9981 305.185 845.625 123 117 109
-60.2632 314.091 856.878 168 180 157
-60.2632 314.091 856.878 168 180 157
-15.3577 338.698 886.421 211 195 187
-15.3577 338.698 886.421 211 195 187
160.585 420.048 1006.02 217 196 180
-42.8594 388.096 898.076 242 254 238
93.9423 435.477 1002.01 177 132 118
-1001.05 -233.827 1521.31 189 206 197
-514.303 -48.333 866.895 129 138 134
-643.504 -27.2251 1112.91 230 237 232
-643.504 -27.2251 1112.91 230 237 232
-396.462 -39.2038 1450.37 133 127 107
-429.42 -24.8008 1397.96 52 26 12
-1647.97 -46.7044 2955.22 231 240 234
-353.399 -12.8529 1394.42 45 35 26
2134.22 35.828 -3726.41 166 186 175
-627.207 8.08508 1142.51 126 134 130
-505.615 16.1523 1413.77 198 174 162
-505.615 16.1523 1413.77 198 174 162
-510.514 29.4127 1432.11 42 20 16
-362.536 41.2238 1458.69 14 17 25
-110.256 29.012 1084.48 250 254 253
-197.019 68.3128 1058.79 118 117 114
-550.612 94.6325 1315.88 255 228 202
-514.733 123.172 1425.14 17 19 10
-664.496 162.593 1542.28 249 243 229
-222.91 121.961 918.242 59 61 44
-533.059 222.434 1419.11 255 247 229
-520.316 249.989 1536.67 136 137 129
-106.009 203.463 830.48 250 255 251
186.419 274.433 1058.46 56 19 7
-190.404 257.047 970.494 250 250 227
-437.622 404.151 1503.31 208 210 210
-43.3676 224.878 836.827 196 191 183
-427.774 393.175 1359.48 253 247 233
81.6439 333.496 963.057 166 195 184
118.236 347.233 997.265 197 145 140
223.432 402.824 1100.03 53 23 16
223.432 402.824 1100.03 53 23 16
177.62 387.348 1049.44 180 132 118
-232.006 382.664 1021.01 148 188 174
-1122.5 -225.727 1717.95 100 119 109
-479.229 -79.6741 721.473 95 115 105
-1010.72 -125.154 1658.7 179 189 182
-510.47 36.1356 1344.66 196 170 149
-510.47 36.1356 1344.66 196 170 149
72.9482 79.9311 938.115 60 55 48
-104.448 90.7704 915.545 156 186 184
-54.8609 97.0476 868.959 87 80 82
60.3957 205.508 918.628 211 165 133
-391.826 343.606 1283.92 134 96 76
-34.5592 226.106 852.283 32 22 20
-34.5592 226.106 852.283 32 22 20
-424.736 364.487 1356.68 172 126 93
-172.676 293.899 1013.73 254 250 238
92.4289 286.853 963.202 123 161 159
-123.893 358.763 980.128 169 165 157
-24.6681 345.644 866.814 113 114 111
-599.558 -75.9002 1023.38 203 213 205
20.3749 13.3491 -158.904 176 183 176
-116.587 70.0825 971.91 251 243 237
-331 114.852 1385.02 178 177 179
73.4738 81.8791 943.576 49 43 43
-104.216 90.2596 907.555 156 186 184
-125.194 102.94 870.104 84 106 102
195.282 368.405 1071.43 180 155 147
11.1327 310.268 891.697 43 24 6
-680.296 60.9319 1148.26 103 111 100
111.627 228.347 969.959 71 46 34
14.7161 214.167 884.374 138 70 58
-52.5545 450.553 949.503 254 254 252
-726.277 39.0568 1285.72 84 87 76
-347.872 92.1525 1506.31 35 30 26
-602.195 415.61 1757.92 239 229 218
75.6077 246.132 959.631 64 50 50
75.6077 246.132 959.631 64 50 50
127.295 281.412 1002.26 68 119 112
135.82 297.093 983.198 67 57 61
135.82 297.093 983.198 67 57 61
31.011 316.009 910.738 174 168 164
-461.253 44.4638 1407.55 180 174 162
-2.66174 67.0582 889.04 123 191 185
-45.6802 167.254 831.106 172 175 170
-80.8046 178.573 793.19 59 51 49
-416.5 97.104 1450.06 216 191 177
-416.5 97.104 1450.06 216 191 177
-13.0176 313.888 877.416 179 145 131
-13.0176 313.888 877.416 179 145 131
-147.258 443.785 1073.61 181 175 159
101.021 48.1391 960.952 49 47 43
101.021 48.1391 960.952 49 47 43
73.5022 195.097 936.308 180 132 100
-13.133 201.905 874.26 47 44 46
-573.547 246.005 1473.47 232 231 227
-39.6406 263.956 846.726 55 52 50
-392.101 518.226 1368.15 251 255 251
-372.039 112.32 1164.7 59 48 43
