-54.2985 -331.004 1069.51 188 174 157
-238.886 -71.663 348.773 146 161 153
417.231 222.333 -1135.9 45 60 50
491.571 -285.096 1440.75 51 41 34
490.493 -284.536 1438.04 51 41 34
656.896 -248.631 1277.64 23 30 33
-139.145 -36.4628 213.61 77 90 85
-308.265 -95.841 653.772 109 115 110
-254.071 -79.0443 535.959 37 45 41
795.609 -185.723 1423.34 239 250 230
-272.69 -76.5004 588.57 31 45 37
-429.802 -108.553 952.259 47 36 17
-390.081 -102.618 913.106 247 251 244
680.363 -113.841 1395.56 208 187 164
597.63 -89.3203 1338.35 197 204 172
597.63 -89.3203 1338.35 197 204 172
819.693 -96.2652 1493.08 251 255 251
558.831 -85.4646 1356.28 76 48 46
537.453 -56.7886 1311.81 181 144 131
605.052 -46.4436 1410.73 72 51 47
-2.35519 -28.1508 1107.77 19 0 0
646.158 -6.25458 1157.91 184 194 187
552.747 -14.6447 1460.61 107 86 66
645.242 -13.2105 1368.11 252 247 232
625.818 -4.8663 1388.35 255 246 245
661.897 16.804 1380.98 240 223 206
100.311 55.4294 1136.94 199 111 77
790.084 118.95 1516.3 132 114 93
801.689 131.471 1536.92 235 224 209
115.208 125.1 1208.76 255 239 222
131.374 135.006 1157.49 221 167 131
-34.7843 93.6993 745.315 228 206 164
1.02075 135.833 1005.98 161 141 115
1.02075 135.833 1005.98 161 141 115
31.6285 161.526 1091.43 253 242 226
37.0384 176.555 1101.26 250 239 227
720.841 268.419 1569.23 229 251 250
-100.67 197.153 1076.43 255 247 231
-100.67 197.153 1076.43 255 247 231
21.4657 213.922 1129.64 219 182 178
49.8993 227.233 1138.06 228 202 196
-20.5074 225.987 1086.7 247 239 227
-76.3686 236.378 1077.12 249 224 192
65.2752 261.276 1151.84 252 251 244
-67.0591 261.635 1114.54 131 38 25
56.9785 293.026 1160.65 253 255 233
-27.9333 282.72 1068.38 252 237 227
38.6448 302.251 1143.3 231 240 218
27.9645 332.549 1142.12 143 165 123
-31.2182 361.727 1122.16 36 44 37
-55.6192 348.137 1046.16 255 250 233
189.921 458.657 1371.89 45 40 28
149.244 526.571 1312.81 58 57 56
143.058 520.624 1289.75 33 38 35
132.934 519.012 1244.75 186 212 200
-265.697 -92.6109 431.718 61 73 68
-293.57 -87.216 439.562 55 69 61
-293.57 -87.216 439.562 55 69 61
618.003 -277.083 1390.16 86 60 46
-280.413 -138.203 682.122 58 66 60
479.144 -261.077 1418.73 100 43 33
784.239 -250.958 1412.85 198 224 196
-430.237 -174.628 1182.06 132 141 131
-430.237 -174.628 1182.06 132 141 131
547.604 -168.786 1237.4 72 66 57
-363.098 -107.379 867.839 70 69 64
576.448 -96.7449 1364.59 75 72 66
-116.473 -74.8941 1242.28 66 55 43
640.204 -61.8443 1373.2 168 122 109
663.396 -55.2354 1362.74 253 249 246
830.203 -39.6625 1494.76 116 132 122
-9.41742 -17.9962 1047.82 255 242 226
690.998 17.022 1353.23 186 188 179
690.998 17.022 1353.23 186 188 179
96.7506 35.3765 1130.56 173 118 94
102.322 40.3119 1110.02 254 248 232
687.575 62.964 1442.76 253 252 235
-133.936 36.2384 976.182 203 176 147
-19.2607 40.3906 1047.57 201 117 88
645.111 77.2191 1464.6 181 179 162
-104.477 75.1281 1036.88 237 232 232
779.843 141.077 1529.45 249 250 237
23.4696 134.673 1127.19 255 245 229
42.8537 137.558 1072.7 85 53 34
50.0574 152.774 1067.19 116 74 55
56.9627 192.768 1128.58 248 253 246
141.53 204.839 1174.99 209 148 121
141.53 204.839 1174.99 209 148 121
1.83292 208.276 1085.36 250 252 251
711.956 322.975 1617.24 80 111 134
-84.6598 247.386 1038.03 252 250 245
81.2075 281.918 1172.9 250 255 255
-22.5801 272.804 1121.15 252 250 252
91.2184 294.429 1160.99 255 248 230
14.9168 289.525 1125.34 171 122 112
46.0359 304.448 1139.72 103 92 71
12.5683 305.615 1117.46 228 236 208
-60.5176 330.612 1057.46 250 252 245
92.5879 525.164 1210.65 28 48 37
-269.234 -198.272 667.192 158 160 146
-8.37534 246.337 -1060.27 149 121 85
-506.698 -184.839 864.375 60 71 64
-88.5324 -56.5128 281.134 156 159 149
-141.522 -40.9847 211.258 146 156 149
620.263 -231.31 1283.29 150 138 127
-381.832 -114.713 655.597 118 127 120
-118.097 -27.4225 155.351 50 54 48
-437.858 -99.9623 685.638 55 64 56
603.457 -168.019 1297.03 151 152 136
589.118 -166.703 1312.43 123 123 113
545.769 -158.069 1279.94 130 126 117
781.395 -117.712 1390.27 229 243 227
738.276 -122.087 1442.88 157 146 125
626.835 -85.2192 1363.95 110 98 77
-530.261 -36.8333 698.372 1 4 1
483.586 -58.3992 1415.42 38 38 23
19.895 -19.6004 1059.24 179 125 96
582.839 4.76983 1400.7 139 122 117
-104.384 7.05585 1046.49 151 108 81
586.874 16.8352 1379.57 26 8 6
-96.5798 17.5692 1016.08 206 185 155
-96.5798 17.5692 1016.08 206 185 155
632.2 37.7166 1402.9 184 187 158
686.043 45.2876 1424.61 255 254 237
-43.6266 41.1639 1045.21 204 108 90
-86.2254 84.9486 1026.08 223 241 230
121.29 96.5182 1147.57 251 249 253
646.083 141.916 1333.66 254 255 249
150.934 150.952 1187.68 226 164 123
647.032 213.919 1637.37 135 158 155
-107.376 152.109 1034.25 254 252 254
-107.376 152.109 1034.25 254 252 254
662.598 306.414 1742.26 69 57 56
776.126 283.536 1604.4 237 254 254
-93.1429 200.732 1039.71 255 253 232
16.654 221.054 1134.17 225 171 169
759.122 403.409 1937.6 46 57 50
185.259 280.314 1216.21 201 143 114
-93.1824 260.584 1067.09 72 27 29
-188.498 -122.02 460.571 153 153 144
-134.357 -78.1851 406.132 139 145 141
-388.791 -127.968 677.886 71 77 70
-460.556 -102.582 913.48 60 35 22
556.562 -122.445 1324.85 31 14 5
785.899 -108.124 1518.68 254 253 241
750.83 -86.8547 1382.66 253 251 242
620.185 -44.5344 1344.64 255 249 246
50.9624 -14.0689 1076.27 93 33 21
606.162 -1.58499 1378.99 249 255 255
3.4808 13.6355 1063.71 252 199 182
732.33 65.5323 1448.73 253 250 246
-81.3968 95.657 1033.8 181 113 98
58.3879 147.328 1107.2 247 225 200
-107.399 152.347 1037.39 254 252 254
-107.399 152.347 1037.39 254 252 254
743.863 301.724 1634.47 209 230 229
191.656 310.436 1274.56 231 196 168
63.7049 412.756 1181.11 255 251 253
41.9365 405.507 1142.88 254 251 249
14.2704 393.071 1090.71 216 209 199
-44.5351 424.411 1154.95 64 55 43
-214.164 -164.313 577.577 99 101 89
14.7375 -88.673 352.978 54 35 19
-152.974 -119.163 556.79 104 103 92
669.092 -272.825 1316.29 121 166 159
475.578 -236.363 1368.74 151 148 154
484.072 -216.528 1338.08 15 11 6
-43.1749 -21.3754 1060.75 102 71 59
9.38334 58.8633 1073.77 255 253 254
113.368 104.729 1126.98 248 243 230
-3.5097 165.261 1073.55 245 225 207
92.6801 198.342 1165.05 200 165 125
20.1435 193.293 1102.63 248 253 251
2.82131 207.01 1121.89 254 254 255
740.036 343.617 1572.86 212 236 231
-73.2653 266.117 1063.55 232 221 228
-63.8132 301.311 1086 252 254 255
-6.09341 395.155 1125.41 88 79 80
-189.103 -124.125 447.181 89 90 76
-5.0064 -189.806 743.538 88 83 81
-316.418 -196.117 846.748 105 100 87
-231.504 -69.6114 384.504 133 146 138
627.973 -112.404 1323.99 115 95 80
593.193 -63.8451 1321.14 139 107 81
-132.372 30.8484 990.095 195 169 137
-35.7795 45.4944 1049.79 221 138 114
-57.7203 49.5326 1022.36 237 251 242
-57.7203 49.5326 1022.36 237 251 242
760.256 92.5223 1429.33 139 125 104
760.256 92.5223 1429.33 139 125 104
-116.154 91.7147 1003.65 246 244 229
-10.0859 133.992 1094.89 241 218 195
36.8845 135.479 1102.93 129 92 72
36.8845 135.479 1102.93 129 92 72
36.8845 135.479 1102.93 129 92 72
-22.2859 217.284 1094.89 254 232 215
-19.9969 245.965 1111.1 171 136 118
-41.3166 321.218 1118.26 165 92 74
-41.3166 321.218 1118.26 165 92 74
-246.396 -148.931 620.639 139 147 143
-246.396 -148.931 620.639 139 147 143
-71.1302 -18.1083 82.833 133 146 138
-451.279 -123.066 720.117 133 147 141
159.591 189.909 1203.73 229 215 197
-121.22 176.291 1064.43 123 99 80
7.49142 261.018 1116.42 255 251 251
-38.3629 392.903 1135.36 245 230 215
0.0845433 -112.503 374.092 121 121 112
-140.965 70.1054 1042.78 78 47 33
-10.3926 70.2221 1059.31 249 255 255
-10.3926 70.2221 1059.31 249 255 255
39.395 342.64 1153.52 171 194 142
551.747 -208.832 1190.72 106 88 74
-279.462 -124.725 882.476 150 131 108
-279.462 -124.725 882.476 150 131 108
-437.431 -99.3838 961.656 78 73 52
89.5408 -45.879 1088.15 214 173 134
716.373 3.31743 1354.82 252 255 254
716.373 3.31743 1354.82 252 255 254
603.858 176.714 1749.72 156 151 138
-28.1574 -68.9942 237.761 138 138 131
425.423 -190.762 1425.85 54 45 35
798.315 8.42644 1507.29 251 255 250
495.146 61.4879 1529.63 62 56 47
723.995 200.765 1511.22 219 241 237
657.66 315.854 1766.4 82 70 63
524.761 -171.624 1327.3 48 43 36
-17.6882 -53.4475 1078.14 43 85 92
792.266 -47.7558 1540.15 203 190 181
-316.642 -55.2909 584.588 63 50 39
37.368 145.816 1088.97 60 33 24
37.368 145.816 1088.97 60 33 24
