-68.7556 -66.3308 241.052 134 149 149
138.83 199.421 -805.265 151 114 91
-92.9729 -215.292 910.269 131 109 89
-367.565 -338.984 1502.89 158 133 117
490.54 -216.745 1119.59 125 153 165
408.842 -202.278 1186.87 197 165 157
417.678 -96.9274 1015.69 207 196 186
323.507 -37.812 1055.63 144 118 105
491.456 -30.415 1106.39 169 158 137
468.034 19.2823 1079.33 169 170 152
532.819 182.667 1183.51 225 222 188
544.091 242.367 1224.9 97 93 84
-247.421 258.681 989.686 198 199 200
595.548 354.007 1332.52 235 255 255
595.548 354.007 1332.52 235 255 255
610.052 359.027 1342.82 138 166 168
-451.462 299.45 1073.95 238 248 230
604.997 384.845 1345.39 232 251 250
-212.478 339.663 1148.16 113 82 60
569.748 407.668 1334.07 216 246 255
-310.774 361.357 1111.72 85 73 53
-310.774 361.357 1111.72 85 73 53
-378.838 370.862 1113.15 251 240 226
-137.928 406.689 1174.61 176 159 132
-185.054 455.641 1230.48 26 23 21
-203.535 457.065 1188.66 38 44 56
-186.449 573.58 1252.76 12 27 21
-127.79 -52.8362 184.064 108 114 109
-24.2639 219.692 -727.273 144 144 136
-57.7129 -207.883 745.775 77 70 56
336.247 -189.906 1241.61 64 11 8
1056.72 -196.729 1513.66 65 73 70
227.331 -141.089 1125.39 167 166 157
401.464 -80.4395 1040.59 102 81 73
401.464 -80.4395 1040.59 102 81 73
424.159 -81.0277 1045.76 94 94 85
487.354 -79.6629 1040.91 150 146 134
389.815 -23.5956 1062.61 111 87 77
570.273 -14.6431 1096.6 186 200 180
302.158 1.25951 1075.87 255 254 255
584.813 27.0998 1144.63 245 255 243
352.802 35.638 1079.35 255 252 222
296.771 62.8311 1112.95 105 84 69
291.829 72.7126 1088.98 224 213 205
504.734 86.316 1190.92 255 255 235
589.887 91.1671 1144.35 245 248 246
401.275 104.452 1137 93 67 63
-369.203 98.4561 1000.92 253 232 212
451.265 113.14 1136.63 97 72 66
320.81 136.436 1099.01 79 63 65
-203.363 136.431 1070.58 96 82 65
618.331 157.619 1187.36 243 248 245
-269.279 136.988 1040.31 107 54 31
626.434 161.579 1161.99 200 206 182
-261.553 147.041 1001.01 252 229 205
431.603 171.272 1165.89 148 147 141
559.258 183.105 1186.11 255 253 237
337.542 184.345 1175.91 151 137 113
-245.014 165.747 1029.28 255 228 209
435.41 236.641 1230.6 102 92 74
435.41 236.641 1230.6 102 92 74
-186.75 210.192 1089.24 255 242 233
-178.15 253.587 1252.25 103 79 62
-296.663 232.998 1080.31 255 253 246
567.392 283.993 1276.07 214 242 241
-221.125 246.726 1066.42 255 223 201
-452.724 247.94 1035.86 244 241 226
588.4 322.103 1323.26 111 139 138
-168.138 280.204 1125.32 254 247 228
447.881 384.966 1445.44 120 125 119
-294.779 326.656 1132.43 254 252 246
446.335 392.21 1338.83 75 106 115
561.659 436.611 1375.3 206 232 227
-176.087 366.543 1142.73 233 151 105
-105.354 456.324 1410.75 51 45 33
615.36 451.263 1390.37 159 183 174
615.36 451.263 1390.37 159 183 174
-180.337 172.328 -475.007 139 124 110
-218.532 -270.59 814.27 100 102 97
37.3086 -275.68 866.107 176 175 171
37.3086 -275.68 866.107 176 175 171
489.814 -149.257 980.999 120 140 120
511.705 -110.219 1040.19 115 143 119
526.776 -80.505 1049.28 252 255 249
374.34 -24.3989 1060.32 253 249 228
374.34 -24.3989 1060.32 253 249 228
271.44 -20.5635 1046.2 111 86 80
436.949 -3.44976 1085.42 130 113 90
274.755 15.6308 1085.39 123 92 94
-267.101 27.9039 1009.41 254 226 196
353.582 45.4212 1146.13 128 77 57
-337.173 43.1789 960.303 181 136 112
-215.184 86.3157 1277.12 105 89 74
-212.42 109.346 1246.26 95 88 79
413.637 113.371 1146.09 252 244 233
-261.595 103.548 1033.3 165 90 83
-261.595 103.548 1033.3 165 90 83
-474.115 110.238 972.764 247 245 243
-309.42 115.389 1032.07 225 176 162
-510.603 119.008 1021.57 89 70 55
432.244 145.496 1163.32 178 168 124
-440.908 130.558 1011.81 255 255 249
-489.38 146.806 1067.47 225 251 240
-235.242 145.958 1047.5 245 248 242
345.646 173.304 1181.06 87 81 62
-235.817 169.106 1087.36 252 254 243
-472.652 208.259 1050.16 134 110 106
-193.518 220.203 1087.81 205 143 96
-193.518 220.203 1087.81 205 143 96
-183.403 234.334 1108.59 255 248 212
387.374 260.306 1194.78 142 134 129
-435.8 237.021 992.064 244 241 226
-394.547 324.235 1105.32 248 255 254
-340.95 340.484 1095.66 182 147 134
-414.192 362.536 1081.82 254 254 255
-372.902 393.978 1122.4 255 252 242
-205.349 452.872 1208.85 253 252 253
-129.227 569.442 1352.61 131 168 155
-249.131 -204.652 780.673 99 94 82
237.805 -158.382 1150.72 175 170 164
287.839 -28.7695 1047.21 252 253 251
287.839 -28.7695 1047.21 252 253 251
556.242 -24.1778 1093.35 249 255 243
434.277 23.9199 1092.41 208 134 107
391.293 29.3598 1095 143 106 82
359.527 49.6024 1092.15 155 101 83
-214.815 73.2552 1183.95 190 170 150
-434.935 65.1001 916.97 217 206 181
-434.935 65.1001 916.97 217 206 181
-390.848 100.209 1020.2 212 127 103
-236.984 170.41 1093.55 252 253 245
-198.329 291.907 995.189 252 255 255
479.972 470.747 1422 148 165 160
529.013 487.553 1431.82 131 165 176
-370.285 427.205 1060.89 132 124 112
3.44061 -152.586 461.551 94 95 90
365.251 -189.939 1134.12 203 177 161
372.443 -143.746 1031.25 52 44 41
517.622 -129.327 996.53 200 201 183
256.556 -117.858 1054.63 60 62 50
508.975 -13.9384 1090.1 252 252 227
331.443 86.8352 1117.41 136 113 125
-487.216 76.4275 946.141 198 189 162
424.731 98.1577 1133.66 105 79 74
320.236 109.466 1133.03 253 253 253
473.976 136.993 1145.1 189 187 173
-347.424 257.109 1098.58 253 254 250
-443.014 298.658 1095.25 136 103 81
-374.37 349.198 1114.77 134 98 87
-438.368 358.809 1130.47 254 253 255
-438.368 358.809 1130.47 254 253 255
565.71 470.617 1385.01 203 229 230
-200.321 -246.554 805.98 160 164 158
276.307 -18.6755 1123.11 87 64 57
532.536 6.36082 1181.81 168 167 120
532.536 6.36082 1181.81 168 167 120
469.475 21.4035 1122.32 252 255 251
-423.05 104.084 986.226 249 255 254
-338.564 164.483 1053.62 138 89 78
-330.256 198.574 1075.07 130 85 67
-330.256 198.574 1075.07 130 85 67
-330.256 198.574 1075.07 130 85 67
551.907 221.561 1193.87 127 121 114
-378.197 263.671 1050.25 251 242 228
-390.039 385.299 1113.25 253 251 249
-388.045 425.272 1109.48 251 251 246
-84.2034 -243.167 1037.15 178 153 128
377.49 -106.63 987.611 88 69 69
-272.436 -39.6352 1115.66 163 139 111
-264.301 -47.4643 1222.85 115 90 71
-272.357 -39.3873 1114.42 162 139 111
368.776 -3.34672 1073.64 117 93 82
-344.981 303.684 1053.68 255 254 250
557.577 -19.2621 1090.71 254 255 251
-377.361 127.616 1014.95 255 255 250
539.1 229.57 1227.32 126 115 106
539.1 229.57 1227.32 126 115 106
-322.42 402.241 1142.82 177 196 157
-168.361 -177.465 563.233 98 99 93
-168.361 -177.465 563.233 98 99 93
-39.9409 -198.016 784.763 172 155 125
-39.9409 -198.016 784.763 172 155 125
-165.008 -201.054 902.175 103 75 55
-268.262 23.2067 1026.54 246 209 173
440.51 82.1535 1120.76 137 111 100
-157.432 301.335 1266.92 115 94 82
505.844 -138.468 1001.74 133 169 126
597.615 114.804 1153.29 148 163 153
322.205 161.356 1204.9 79 72 60
370.312 -213.345 1124.54 107 98 92
535.795 336.325 1336.18 205 229 226
528.533 112.451 1168.4 250 255 251
-136.016 -69.5392 453.008 96 60 43
-273.739 385.491 1283.07 221 219 218
444.914 278.534 1491.75 102 86 76
