916.27 -321.441 2317.59 136 125 112
419.809 -204.308 1510.07 159 153 141
525.811 -92.3521 1533.1 248 248 225
-1187.77 -65.5278 2023.64 68 69 47
244.33 -10.8946 1535.09 87 87 71
459.114 -4.21546 1543.4 151 131 141
71.7532 6.56996 1168.41 255 229 209
250.287 45.0193 1473.23 81 80 67
-149.093 40.6561 1042.29 62 23 9
41.9308 84.9133 1156.54 249 250 246
-163.748 112.132 1152.37 154 89 60
-5.32942 117.247 1125.81 183 122 94
505.764 201.437 1765.16 32 23 14
63.7015 140.059 1184.26 247 230 206
63.7015 140.059 1184.26 247 230 206
63.7015 140.059 1184.26 247 230 206
114.298 147.641 1240.59 221 176 153
-822.638 -425.968 1434.29 133 147 141
-822.638 -425.968 1434.29 133 147 141
-1533.55 -549.907 2098.14 137 152 143
-495.801 -219.381 1426.98 142 153 143
425.851 -194.942 1502.38 73 82 79
406.625 140.552 -1258.42 132 112 75
399.704 -123.339 1411.87 142 134 124
-946.118 -38.1607 1541.28 89 89 72
-1244.54 6.55735 1634.74 69 66 52
447.929 43.9167 1597.2 40 20 18
112.111 60.8515 1204.98 175 131 98
-267.808 67.8029 1296.18 44 16 5
107.145 69.5175 1220.42 255 244 219
-56.5971 65.6231 1057.19 248 251 243
-25.5999 86.2362 1170.81 255 249 248
-22.9647 78.9887 1096.38 255 249 248
-86.4713 85.5374 1058.81 78 28 15
-20.2933 98.2906 1078.47 255 252 247
49.5527 116.2 1188.1 66 25 14
49.5527 116.2 1188.1 66 25 14
41.7898 154.312 1169.97 255 250 229
41.7898 154.312 1169.97 255 250 229
-81.1853 169.516 1091.75 217 184 167
-61.0818 177.349 1050.98 77 56 50
-159.5 207.033 1150.01 64 18 3
-87.4341 267.084 1077.03 80 54 39
-730.354 -366.944 1244.69 77 87 80
-730.354 -366.944 1244.69 77 87 80
-997.509 -359.193 1294.08 136 143 134
-997.509 -359.193 1294.08 136 143 134
310.155 -233.846 1728.64 98 90 82
558.899 -115.37 1610.12 142 147 121
566.813 -104.333 1586.33 241 244 229
403 -88.7955 1452.9 45 20 9
430.84 -75.9213 1436.39 119 103 102
-1213.63 -20.6148 1687.98 48 35 11
-27.4634 12.0175 1088.08 234 219 199
439.785 20.3235 1508.98 238 234 234
439.785 20.3235 1508.98 238 234 234
521.543 85.7185 1589.56 255 254 242
494.399 154.237 1586.04 132 117 103
518.3 179.89 1652.14 249 250 244
46.3626 212.642 1174.61 242 224 217
457.212 -479.17 2072.86 163 154 142
-774.718 -312.99 1696.04 129 129 122
-774.718 -312.99 1696.04 129 129 122
340.809 -173.65 1525.49 10 11 7
494.894 -130.93 1665.03 91 66 62
427.467 -96.2535 1471.02 252 250 252
-20.555 -11.6867 1095.67 96 71 47
513.342 2.94313 1585.6 136 103 84
589.402 83.9971 1647.33 162 163 138
-29.5444 79.4538 1069.74 249 255 255
-57.5282 152.959 1062.57 254 252 254
-57.5282 152.959 1062.57 254 252 254
-29.9409 251.222 1112.37 166 70 55
-7.33818 261.542 1137.5 248 253 255
-7.33818 261.542 1137.5 248 253 255
-1094.34 -244.526 1459.31 144 155 146
-410.767 -310.827 2037.38 56 38 23
463.439 -82.5191 1525.05 133 112 101
-72.2728 32.4412 1043.09 213 192 167
1.61344 47.6502 1096.49 222 137 123
-15.2797 53.5311 1092.9 255 252 255
390.824 167.719 1606.99 59 38 24
51.4558 138.588 1167.47 175 118 95
51.4558 138.588 1167.47 175 118 95
42.035 163.687 1169.96 245 234 219
87.5771 178.092 1215.72 253 251 251
135.011 193.786 1250.6 250 249 247
7.45014 247.311 1153.33 149 111 100
7.45014 247.311 1153.33 149 111 100
-34.7742 273.011 1110.44 253 253 255
-637.464 -276.083 1940.64 72 71 69
-920.598 -188.908 1584.65 88 91 87
-2.05947 95.0976 1107.51 221 138 116
-156.539 103.209 1108.1 148 102 67
-156.539 103.209 1108.1 148 102 67
-138.937 250.397 1186.9 157 114 98
28.0197 268.06 1169.3 255 254 255
-44.6304 -347.82 2102.09 53 40 30
369.357 -207.305 1525.14 198 176 169
514.966 -199.324 1558.6 96 92 87
-949.545 -159.147 1583.03 123 140 131
20.4066 76.0703 1131.84 255 253 249
20.4066 76.0703 1131.84 255 253 249
-53.8418 138.902 1061.85 254 254 251
-1093.84 -243.216 1492.54 123 145 135
-57.5392 -47.7377 1175.65 34 70 73
-1024.32 -133.617 1535.83 86 73 58
-1024.32 -133.617 1535.83 86 73 58
372.962 -8.03797 1497.17 68 49 47
-202.244 79.4488 1069.36 76 51 36
-93.9225 187.83 1111.25 77 61 39
-577.094 -323.004 1730.22 130 136 131
245.974 -120.603 1533.14 88 76 57
-104.623 66.0726 1065.86 58 37 28
377.541 -130.499 1480.12 63 51 46
468.605 133.518 1747.6 63 50 45
468.605 133.518 1747.6 63 50 45
-148.396 101.836 1057.32 183 138 110
325.775 50.7862 1484.72 73 82 50
