-75.255 -184.568 1540.24 163 153 139
-213.066 -97.9321 1421.41 47 29 14
-202.479 36.8073 1471.2 105 68 51
-42.7231 58.4452 897.508 66 112 108
41.3102 104.115 768.694 26 16 9
27.5976 128.405 838.997 20 11 3
165.573 198.793 924.608 148 89 61
165.573 198.793 924.608 148 89 61
266.723 257.522 962.677 153 129 115
151.902 260.269 934.209 50 19 12
34.9537 272.663 871.764 73 47 36
84.2602 291.149 908.298 27 11 6
9.24133 284.432 874.649 124 118 112
106.88 318.806 937.768 218 220 218
51.5224 303.449 887.261 192 168 158
249.79 521.888 1154.82 149 158 149
-71.8773 -205.15 1581.06 73 78 77
-126.803 -129.988 1452.3 25 11 4
-241.727 -96.7235 1414.03 138 116 75
-171.232 -67.091 1468.85 52 31 17
-24.7116 -38.1356 1523.75 39 13 5
-131.352 -30.4774 1461.56 50 31 33
-154.2 -19.9809 1383.99 141 125 121
124.893 -0.519892 992.537 255 254 245
124.893 -0.519892 992.537 255 254 245
117.939 7.1398 988.526 96 96 89
0.312782 56.4052 917.666 176 204 200
25.8443 79.1189 893.162 70 67 66
194.75 144.685 907.555 46 34 24
0.236783 142.49 845.545 20 35 34
258.922 164.88 930.502 31 1 0
-7.79853 157.516 843.864 69 66 66
142.311 184.008 897.461 97 64 38
251.018 217.388 953.193 151 154 151
164.679 210.88 902.932 77 45 39
188.988 219.801 936.588 123 101 97
295.06 272.049 978.58 43 9 5
168.998 268.564 930.621 27 37 46
134.45 285.458 933.955 184 182 174
134.45 285.458 933.955 184 182 174
124.464 295.116 939.997 90 65 59
90.1311 296.91 935.654 34 26 24
16.3667 287.992 874.429 81 52 43
162.902 330.975 936.951 21 19 23
25.2536 327.509 898.282 137 123 123
280.9 382.376 930.543 199 188 174
331.483 -395.668 1374.09 189 188 184
-34.9684 -142.028 1455.54 40 34 29
-176.296 -47.5047 1470.36 196 182 168
-176.296 -47.5047 1470.36 196 182 168
-157.051 -20.1225 1422.79 141 125 121
93.3885 8.74741 973.622 195 170 148
179.794 74.8065 897.84 136 106 81
179.794 74.8065 897.84 136 106 81
133.209 154.908 914.186 49 31 22
32.4409 145.717 841.978 24 35 40
41.4542 161.175 850.416 140 137 137
224.898 238.293 913.188 20 16 14
219.529 245.01 933.928 35 20 16
275.699 275.438 971.934 148 105 75
275.699 275.438 971.934 148 105 75
153.831 290.569 936.519 166 189 179
315.234 334.148 1013.82 48 22 20
83.992 308.055 916.999 201 200 190
261.25 351.783 1004.31 62 24 11
201.67 340.546 962.869 213 158 151
197.435 360.596 970.45 51 31 32
333.057 402.717 1028.22 24 8 0
164.11 416.876 974.846 150 118 89
276.747 466.819 1075.52 104 114 107
247.675 503.862 1071.62 50 75 79
297.938 -246.984 873.755 54 35 30
219.226 24.7101 899.914 15 14 13
-33.7004 74.3681 923.233 90 115 116
230.657 237.157 956.351 179 154 142
128.902 246.12 919.208 57 38 31
262.245 274.205 975.492 40 33 38
129.857 271.367 927.564 137 68 48
177.464 279.771 940.481 106 155 146
197.285 362.19 972.507 31 15 17
-207.586 -94.7298 1442 62 50 38
-207.586 -94.7298 1442 62 50 38
142.799 -40.2948 1095.03 63 57 49
183.769 60.3042 887.453 50 35 28
162.885 80.3939 880.56 40 39 36
232.978 153.419 937.401 48 20 15
85.8976 204.554 889.631 145 61 49
90.8565 250.54 899.578 176 174 168
64.6744 274.741 902.346 54 48 49
22.5438 340.1 898.732 55 45 46
-93.601 -138.083 1480.63 58 40 30
14.5429 -28.1201 1494.59 49 37 34
-36.2026 -6.07327 1460.77 63 46 45
-196.207 31.6903 1564.37 93 65 52
290.629 299.436 976.959 60 25 17
228.819 297.582 951.505 63 55 66
228.819 297.582 951.505 63 55 66
-117.474 -83.8524 1468.57 171 157 140
-117.474 -83.8524 1468.57 171 157 140
164.163 -7.39935 951.226 76 74 68
-14.5573 38.8529 932.798 110 73 74
-30.6393 166.14 846.926 59 48 45
-30.9019 -136.231 1379.67 36 37 31
136.825 -33.1727 1103.11 88 104 109
136.825 -33.1727 1103.11 88 104 109
173.284 23.3894 929.602 118 186 179
271.91 238.575 970.269 52 45 43
140.403 241.764 921.618 53 28 25
140.403 241.764 921.618 53 28 25
291.014 354.341 1009.08 166 138 118
316.276 388.554 1013.69 61 45 44
121.451 417.241 965.368 143 70 55
-54.102 -343.507 1566.3 98 89 77
-199.796 -78.5454 1437.73 55 40 23
249.283 179.694 944.028 59 42 39
-12.254 211.593 865.713 57 50 48
54.0441 -60.1551 1315.44 185 180 167
-38.6846 85.4359 904.895 185 219 210
101.779 280.892 918.32 78 77 69
101.779 280.892 918.32 78 77 69
250.779 107.756 882.711 159 153 138
12.8233 246.717 864.533 54 52 49
169.629 296.545 940.27 72 97 105
169.629 296.545 940.27 72 97 105
89.5173 160.356 836.063 59 52 47
