432.526 -236.295 1677.13 105 88 84
565.259 -157.393 1715.97 105 103 83
407.179 -73.4105 1584.63 186 173 156
470.035 -53.7395 1609.76 255 246 223
-1193.13 -5.74677 1606.02 141 129 106
103.421 67.9209 1270.2 255 242 235
-73.7018 162.477 1075.73 27 18 9
-111.904 264.423 1234.07 114 106 84
-111.904 264.423 1234.07 114 106 84
29.9151 325.927 1240.59 254 254 241
-139.395 319.599 1198.23 139 101 81
-192.232 502.536 1527.2 173 159 142
-84.7725 511.908 1441.3 40 27 16
-117.087 515.347 1446.67 230 226 211
-421.16 -196.218 668.133 128 145 136
-574.876 -311.846 1310.68 96 92 79
-681.174 -346.548 1734.69 167 159 147
-661.072 -243.57 1345.33 132 129 121
447.131 -190.618 1573.92 62 50 43
421.256 -137.34 1556.26 152 140 127
578.102 -108.705 1762.23 244 246 218
531.952 -85.6465 1646.85 191 189 155
461.419 -24.184 1596.67 254 248 249
312.076 -16.3657 1649.11 36 30 15
-350.726 2.98678 437.079 171 161 142
508.578 64.7738 1691.03 247 246 222
486.453 69.4912 1671.68 138 132 111
-42.6819 56.9302 1099.49 253 248 254
542.587 138.317 1721.21 161 144 119
-121.995 101.753 1161.28 150 126 121
-85.8415 174.334 1127.71 226 199 181
-66.0586 190.953 1137.45 92 70 60
-52.2592 216.807 1148.95 255 248 242
-52.2592 216.807 1148.95 255 248 242
-9.61783 244.343 1187.2 255 247 238
474.083 387.814 1860.6 164 196 190
81.7403 298.147 1310.16 254 254 250
30.1583 324.596 1238.24 239 237 218
-162.751 397.917 1279.55 132 92 73
-76.7337 381.442 1211.21 42 25 13
-568.555 -265.563 904.434 66 85 75
-568.555 -265.563 904.434 66 85 75
-617.489 -300.112 1023.28 75 89 81
-1544.33 -341.333 2175.45 136 153 146
-1261.12 -264.115 1746.27 59 68 59
-879.484 -158.446 1223.62 66 70 59
-94.0583 -25.7688 182.184 122 97 65
13.3754 34.4162 -176.413 125 103 73
562.404 -125.963 1700.29 145 144 113
562.404 -125.963 1700.29 145 144 113
-1354.25 -21.7421 1774.05 142 133 107
-1561.91 -26.3139 2281.52 149 141 113
393.453 295.468 1736.07 80 105 104
521.214 332.726 1899.57 238 252 245
400.142 383.413 1838.37 67 82 78
506.623 389.559 1856.34 160 183 182
-29.3313 346.441 1204.22 254 255 253
-31.8688 372.203 1214.36 254 253 253
497.442 -245.844 1656.01 184 205 205
-630.517 -97.569 1021.63 135 146 139
481.77 -136.14 1609.6 111 89 75
521.822 -147.59 1841.97 102 80 69
435.817 -106.057 1568.58 255 255 250
525.101 -20.7121 1698 147 125 111
515.844 32.0025 1696.27 238 219 205
490.51 281.961 1794.97 236 252 246
12.0488 426.338 1250.17 83 65 60
12.0488 426.338 1250.17 83 65 60
-689.922 -170.896 1375.12 134 142 136
-779.65 -94.3814 1155.04 123 139 129
354.878 23.2034 1733.59 122 125 114
-153.647 66.4266 1133.35 48 30 23
575.815 115.269 1762.6 152 139 115
575.815 115.269 1762.6 152 139 115
446.618 202.223 1667.95 220 234 232
-29.6097 201.57 1158.83 236 197 156
-9.75461 272.758 1202.59 255 251 254
114.107 316.732 1337.58 251 254 255
-38.1045 281.215 1157.82 251 250 254
-139.778 336.576 1276.9 152 89 63
-46.9289 333.84 1140.76 83 50 39
0.952713 368.238 1248.69 255 254 255
-561.203 -217.147 1564.85 70 72 68
-634.133 -115.674 1017.14 76 88 81
-252.237 21.3365 1179.25 123 94 74
-252.237 21.3365 1179.25 123 94 74
-5.20817 99.2838 1201.86 227 139 117
383.719 255.842 1830.73 102 120 127
383.719 255.842 1830.73 102 120 127
-146.298 254.058 1206.16 139 95 69
113.671 315.878 1334.17 251 254 255
-77.2373 -252.501 1540.9 50 44 30
-849.214 -164.405 1159.9 96 102 94
378.392 -225.987 1654.58 177 171 150
521.251 -213.425 1657.8 105 95 85
-656.627 -97.1924 1023.5 126 141 132
-946.474 -107.749 1344.84 75 66 53
-946.474 -107.749 1344.84 75 66 53
-212.635 83.5724 1095 79 53 43
391.508 364.814 1959.66 65 59 46
-418.546 -207.62 1130.2 130 135 130
228.615 -125.688 1559.95 85 82 69
574.628 -24.138 1809.06 193 188 181
501.373 -461.409 2373.62 184 185 173
-157.17 266.704 1324.39 124 81 57
327.284 49.6136 1580.32 77 84 58
