142.62 -324.994 983.781 57 39 16
-734.542 -240.644 1423.67 64 67 58
237.968 -120.505 1020.66 136 99 96
237.968 -120.505 1020.66 136 99 96
192.541 -114.768 1059.55 27 11 10
-926.34 -213.993 2032.08 65 58 52
-832.067 -138.724 1488.23 92 88 67
221.173 -16.7007 947.553 86 60 52
250.433 -7.69536 897.2 87 74 73
231.951 -7.13045 949.413 205 192 177
278.437 -6.01823 912.03 68 48 51
-351.216 29.6624 1103.38 239 188 146
379.563 34.3302 899.861 218 230 206
180.105 39.3057 943.813 233 207 186
388.672 46.2262 919.002 222 230 215
132.147 55.5067 989.263 169 150 150
132.147 55.5067 989.263 169 150 150
151.62 72.8303 960.649 195 184 162
175.307 102.115 1040.6 192 169 148
297.303 97.1467 957.745 255 252 230
191.777 102.691 1002.37 255 249 222
146.813 106.005 1013.12 208 168 146
266.273 156.29 994.109 182 154 145
-246.341 179.014 1044.72 47 25 9
-232.576 229.346 1302.79 194 161 142
-227.532 251.159 1335.64 122 98 80
230.589 247.868 1098.9 217 210 188
-213.551 328.602 1343.41 71 42 20
-213.997 345.617 1367.46 212 222 214
-378.023 302.87 1178 239 253 224
35.8831 -704.51 2464.62 146 146 131
228.139 -166.453 1121.27 90 70 62
228.139 -166.453 1121.27 90 70 62
-860.646 -177.255 1401.62 108 112 106
199.977 -150.793 1154.95 51 24 15
312.158 -116.729 1013.59 64 70 74
181.036 -114.168 1043.02 244 239 239
114.805 -89.2237 1035.7 50 56 53
288.532 -65.5149 885.431 23 28 16
-288.477 -72.5094 1226.28 99 76 58
143.657 -52.4856 923.935 193 179 150
-290.288 -47.5009 1231.97 130 107 85
-301.032 -36.6295 1274.12 105 86 60
358.104 -13.5733 870.202 232 227 210
252.891 -1.97533 921.244 239 231 218
229.184 0.208224 943.717 79 64 50
90.6708 14.9551 954.766 79 72 70
-312.255 38.2217 1192.03 43 28 20
199.458 49.0459 957.096 248 243 231
215.373 52.6619 956.827 105 86 68
215.373 52.6619 956.827 105 86 68
-333.407 76.6168 1116.12 254 254 213
187.309 80.7535 1002.9 235 213 193
222.802 92.1099 980.707 183 189 144
130.918 102.662 1012.73 201 192 167
197.199 122.351 1005.91 163 123 118
-297.627 167.021 1153.19 108 67 51
382.946 162.764 1015.15 9 10 11
219.15 186.012 1025.22 118 94 80
-279.894 318.422 1290.41 242 228 215
386.335 276.203 1064.83 255 255 234
267.057 283.936 1073.08 135 118 97
383.236 272.96 1031.68 172 170 155
-238.943 360.862 1284.38 126 109 92
450.606 526.538 1296.96 23 48 94
-218.788 -317.751 1127.04 67 67 62
237.066 -102.813 961.311 95 63 52
275.649 -88.6769 917.215 47 76 64
275.649 -88.6769 917.215 47 76 64
-2151.6 -339.606 3752.75 100 108 101
-2171.22 -199.258 3997.26 93 96 85
78.2195 -30.1567 950.032 58 58 53
-336.832 -25.3509 1210.61 45 31 23
-330.471 -16.2989 1141.53 136 111 84
-330.471 -16.2989 1141.53 136 111 84
-251.875 -19.5925 1319.42 26 14 12
347.459 8.66154 904.872 76 102 86
347.459 8.66154 904.872 76 102 86
221.309 22.7955 936.305 116 95 87
-319.834 33.615 1172.43 173 160 137
182.884 70.527 1001.12 122 100 85
136.333 71.9473 1007.67 105 87 81
288.934 89.287 943.349 157 150 130
145.382 97.9207 1034.26 138 98 81
182.681 104.232 1002.44 254 244 208
182.681 104.232 1002.44 254 244 208
138.378 124.433 1044.71 136 88 69
-220.335 181.478 1358.32 51 23 12
226.133 173.78 1037.46 107 71 64
226.133 173.78 1037.46 107 71 64
241.728 184.756 1056.5 252 243 231
241.728 184.756 1056.5 252 243 231
283.229 191.582 1040.26 130 92 94
249.897 196.743 1004.78 255 251 233
168.835 231.543 1114.86 114 106 100
-188.09 307.265 1423.13 197 187 164
-185.113 319.601 1395.32 18 17 11
207.564 248.741 1074.11 228 232 201
207.564 248.741 1074.11 228 232 201
-234.849 341.855 1285.01 188 171 159
-234.849 341.855 1285.01 188 171 159
-239.768 357.905 1205.14 251 248 236
374.075 423.242 1391.86 239 251 247
351.814 465.652 1300.24 155 175 168
515.169 436.004 1215.37 80 108 118
427.155 460.929 1215.29 242 255 255
492.729 454.086 1193.8 49 77 84
530.052 481.525 1249.18 183 209 208
553.196 507.97 1278.25 120 127 126
-268.421 13.4665 1294.18 168 140 121
-231.869 77.0834 1430.56 25 24 19
-238.258 79.0468 1339.06 159 154 145
-238.258 79.0468 1339.06 159 154 145
259.547 103.784 980.412 220 143 119
187.665 114.685 1001.28 175 112 97
172.597 121.907 980.248 255 250 240
-516.009 274.303 1281.63 247 248 251
-516.009 274.303 1281.63 247 248 251
-189.656 311.393 1442.72 197 187 164
234.679 222.828 1030.27 254 255 251
181.74 262.109 1145.34 113 99 92
-169.627 445.116 1344.55 92 115 103
483.073 406.897 1162.53 158 201 191
-51.0879 -60.5025 207.556 103 105 100
319.155 -140.174 997.953 62 92 95
319.155 -140.174 997.953 62 92 95
-968.49 -95.465 1806.56 170 176 165
-345.939 -17.4045 1137.89 64 43 35
327.46 -11.3992 884.216 112 147 117
155.895 7.49998 939.959 146 144 122
316.521 76.4096 922.974 251 251 228
-350.59 139.245 1157.76 240 242 232
-350.59 139.245 1157.76 240 242 232
257.244 116.951 972.564 232 215 215
298.356 214.514 1025.77 187 180 172
-275.802 281.251 1277.83 107 77 67
-444.717 366.504 1293.86 94 90 76
400.525 314.914 1087.81 90 87 61
400.525 314.914 1087.81 90 87 61
487.835 447.709 1217.9 171 209 209
190.575 -151.61 1116.24 84 77 68
95.6828 -54.138 983.662 76 63 49
-287.55 6.99385 1240.11 52 45 36
318.836 97.6747 971.995 181 171 127
255.574 171.923 1039.8 124 100 92
-274.694 233.952 1207.2 137 107 95
301.663 247.354 855.519 110 95 78
-22.332 77.0165 -198.456 105 105 101
1928.23 990.397 -5086.96 96 96 89
-302.537 -14.3925 1226.51 146 130 114
-294.687 28.444 1220.83 64 51 52
-273.167 37.1578 1280.46 159 131 115
235.128 120.417 1000.33 228 198 183
-234.051 208.672 1342.2 165 132 108
-306.903 226.234 1213.2 250 255 245
-266.6 -11.8584 1312.07 57 53 43
-381.264 0.971313 1105.91 233 205 177
279.51 111.5 979.43 234 232 222
279.51 111.5 979.43 234 232 222
-331.363 154.78 1177.69 250 215 185
-321.325 -278.535 1171.98 156 166 159
-294.413 -84.9491 1307.91 57 41 34
149.944 109.095 1029.35 206 165 144
149.944 109.095 1029.35 206 165 144
275.179 163.17 1038.86 146 118 113
-192.552 240.814 1433.54 63 54 49
-448.377 255.346 1285.99 254 253 255
357.162 -97.4293 916.911 41 118 134
282.631 -40.7236 940.661 75 72 76
-636.283 -217.457 1478.78 144 152 146
-636.283 -217.457 1478.78 144 152 146
217.026 298.405 1093.07 113 104 93
383.822 413.359 1211.36 208 235 237
-193.758 -218.328 831.017 26 24 21
-919.033 -209.994 1789.95 114 103 86
331.522 183.252 993.106 253 255 251
-274.791 120.977 1282.12 56 43 42
-206.534 419.344 1378.18 54 54 49
-206.534 419.344 1378.18 54 54 49
