12.4193 -532.168 1779.66 180 177 169
-401.345 -41.2533 1270.05 42 26 6
-386.941 -8.39429 1417.57 166 162 147
-367.572 -4.58133 1322.53 178 175 161
-478.645 53.1729 1272.11 128 120 103
-549.073 62.1458 1349.24 253 241 213
-389.274 74.3414 1424.6 147 119 115
-568.899 147.78 1588.91 9 0 0
-201.281 126.139 805.019 69 65 62
-482.671 358.437 1602.61 58 30 24
-441.509 356.93 1484.57 123 91 69
-111.847 194.073 799.867 42 42 35
61.6256 236.746 946.803 147 118 111
-103.507 202.646 796.23 34 35 44
126.64 266.423 980.813 164 141 131
116.972 264.576 948.043 36 34 28
28.7981 279.917 911.142 204 187 179
94.1322 298.785 966.689 121 151 156
100.736 327.107 988.289 22 26 20
111.061 322.659 969.665 142 156 144
103.237 345.894 990.824 195 213 212
-32.0028 312.139 876.129 192 164 154
-15.1739 333.408 883.723 14 13 11
43.5108 354.221 941.726 57 56 54
-80.286 314.678 833.798 70 49 35
-65.6231 340.49 839.414 58 44 38
-175.789 -479.846 1802.45 193 196 191
-938.039 -372.243 1560.83 133 152 142
-938.039 -372.243 1560.83 133 152 142
-169.137 -471.431 2521.36 124 124 108
-1639.76 -308.998 3321.55 237 240 232
-9597.51 -882.673 20822.8 247 250 246
-477.408 -17.641 1378.72 194 178 157
-391.463 61.2077 1421.05 206 184 168
-391.463 61.2077 1421.05 206 184 168
-343.653 65.2911 1464.37 209 146 133
-220.803 81.5222 984.436 124 110 83
-269.889 114.116 930.075 67 71 53
-249.943 118.01 894.813 77 76 65
-249.943 118.01 894.813 77 76 65
-519.122 256.995 1494.46 255 251 237
-99.1832 169.569 812.106 32 55 54
129.425 -193.074 -897.473 27 21 19
-111.515 192.862 796.206 42 42 35
-97.424 196.809 806.68 33 37 38
106.834 235.235 965.767 57 56 54
-534.404 433.576 1680.13 82 83 77
149.72 282.553 1006.33 42 15 9
122.42 274.632 979.374 20 19 14
116.31 324.748 999.418 44 31 29
118.027 346.933 970.989 68 36 22
-195.892 390.957 1094.62 255 254 241
63.3382 346.396 949.036 82 45 37
-24.7413 318.512 855.098 235 236 233
-60.4919 332.199 835.817 190 178 169
-65.7431 360.882 907.859 190 178 169
61.5927 378.436 946.395 148 103 92
-843.354 -294.408 1899.52 114 116 112
-568.101 49.1928 1323.62 255 251 241
-532.382 48.7263 1322.91 170 126 92
-135.756 172.985 764.166 52 44 37
44.7362 229.789 909.844 56 28 22
-80.6248 235.534 835.688 39 25 26
-80.6248 235.534 835.688 39 25 26
125.752 281.255 998.906 22 15 16
52.7581 292.602 925.606 116 164 157
161.668 333.022 1011.99 67 45 34
-158.703 312.053 891.451 183 185 183
97.3091 342.519 958.775 63 57 62
-55.9836 408.558 867.503 123 111 106
-100.754 478.316 988.996 249 249 245
-100.754 478.316 988.996 249 249 245
-759.425 -336.159 2074.36 86 92 85
-899.722 -210.677 1716.33 186 197 190
-467.043 -12.6681 1285.26 53 38 31
-33.1179 236.96 859.22 57 39 27
-33.1179 236.96 859.22 57 39 27
-43.4902 299.321 864.692 43 42 37
-43.4902 299.321 864.692 43 42 37
67.1824 362.085 932.49 62 34 27
-26.0912 223.555 857.184 150 76 51
135.757 285.006 915.784 73 22 15
-95.6605 307.358 837.477 55 50 44
21.3405 -463.494 1600.13 173 174 165
-509.062 4.05186 1316.48 59 54 35
-320.449 59.4959 1462.99 58 43 35
99.1568 312.807 966.404 68 61 58
-12.7212 323.937 887.71 183 182 178
-499.005 230.716 1396.64 255 253 247
-89.2089 177.253 812.865 187 196 194
-89.2089 177.253 812.865 187 196 194
146.609 363.092 1023.07 187 149 133
146.609 363.092 1023.07 187 149 133
170.709 395.585 1034.73 68 49 41
76.1748 -411.171 1706.11 163 163 157
-388.255 62.3172 1400.63 211 193 178
-388.255 62.3172 1400.63 211 193 178
108.266 190.921 957.287 80 63 58
35.7347 205.012 900.875 194 147 114
61.9286 251.232 940.348 48 36 29
61.9286 251.232 940.348 48 36 29
-127.678 301.108 845.307 232 236 231
-502.211 19.8344 1316.2 66 43 31
99.8161 -456.182 1723.03 158 157 154
99.8161 -456.182 1723.03 158 157 154
-332.016 341.057 1228.23 100 108 102
-332.016 341.057 1228.23 100 108 102
-86.3331 273.246 827.148 60 56 53
-40.7394 369.95 845.547 61 56 53
-41.4319 -366.2 1500.62 130 112 91
-311.363 64.7691 975.697 60 49 48
-17.5843 183.018 847.014 61 54 55
