-345.997 -221.61 948.499 119 94 75
426.496 -280.706 1296.97 32 38 24
396.923 -98.8964 1134.7 114 94 87
530.962 -59.3099 1223.09 103 101 72
481.437 -55.3031 1168.29 188 170 150
583.199 -49.5276 1249.56 174 115 93
701.001 -40.3794 1259.3 230 249 230
463.031 -26.879 1150.03 250 245 216
441.701 -22.9732 1137.21 104 58 48
408.209 -13.3524 1145.71 157 144 124
-175.663 22.3197 1013.89 205 170 159
-112.547 31.9702 1008.72 141 88 69
732.431 90.228 1296.55 86 87 72
-248.748 69.6661 970.249 255 247 233
-349.067 71.8989 940.243 146 127 114
-242.986 76.6432 991.754 254 246 235
499.013 105.725 1240.17 92 87 67
632.895 118.339 1317.58 255 254 234
518.767 140.512 1208.82 109 105 82
-55.108 138.625 1065.92 253 246 226
-319.011 134.681 975.736 38 28 26
-302.567 233.964 1003.4 253 253 255
-113.51 272.671 1077.44 253 252 244
-240.037 332.608 1045.32 11 8 8
-68.1058 -66.0425 256.212 64 69 62
-149.296 -72.2703 309.259 73 70 56
436.626 -247.822 1208.98 223 190 176
-215.467 -118.957 1169.14 113 127 129
694.496 -80.216 1227.68 171 180 155
439.598 -61.9509 1153.98 68 59 62
422.628 -55.893 1136.79 85 61 63
440.51 -40.1251 1135.96 97 97 75
440.51 -40.1251 1135.96 97 97 75
-213.364 -22.1569 948.248 54 27 13
-213.364 -22.1569 948.248 54 27 13
400.302 -6.64053 1144.81 47 30 21
-88.3133 -0.212711 1003.92 212 158 105
-88.3133 -0.212711 1003.92 212 158 105
409.853 26.5577 1210.51 44 28 24
470.003 37.5283 1204.58 255 251 248
577.696 50.4723 1234.77 254 245 240
-290.818 43.9055 958.713 253 249 247
-162.614 46.8168 980.069 179 105 94
-162.614 46.8168 980.069 179 105 94
712.96 71.1008 1280.46 235 234 221
-325.926 54.3793 950.143 249 246 240
-180.382 64.6051 995.32 214 164 139
438.06 86.2408 1236.91 37 27 13
-234.613 81.44 1009.05 255 252 244
473.117 117.848 1206 243 242 213
-115.228 124.398 1044.32 39 2 0
663.567 186.965 1368.85 243 247 241
-84.8299 143.476 1056.24 242 232 223
-94.692 193.306 1042.48 50 32 18
-203.706 236.959 972.925 254 248 241
-296.147 300.866 1074.31 250 255 253
-286.827 307.33 1038.4 251 255 253
-288.346 339.019 1072.35 254 252 243
-268.639 431.815 1175.54 26 36 32
-244.023 -173.497 572.494 56 57 54
-296.349 -355.624 1408.22 137 130 114
547.379 -235.731 1103.73 187 219 217
-366.868 -131.897 660.064 7 12 7
597.89 -162.498 1154.95 64 53 57
422.778 -97.6028 1143.21 255 246 238
682.231 -89.985 1220.07 249 255 241
439.923 -84.5454 1136.38 255 248 249
390.679 -79.4692 1139.52 39 24 15
500.662 -37.184 1195.19 222 224 191
500.662 -37.184 1195.19 222 224 191
597.036 -31.1447 1135.78 249 255 250
-88.8127 25.4932 1013.82 138 77 48
-88.8127 25.4932 1013.82 138 77 48
-120.135 36.421 1008.25 165 81 60
-295.447 39.3616 944.693 151 105 101
-325.965 47.7212 967.814 114 98 93
-325.965 47.7212 967.814 114 98 93
-179.536 54.9981 988.501 254 246 231
-286.857 61.5555 952.824 238 239 234
-93.407 94.1175 1040.03 249 233 229
-121.004 112.525 1063.8 45 11 3
-67.5896 162.573 1180 176 118 66
527.882 237.239 1545.82 145 157 157
-99.3299 179.078 1047.87 52 18 11
-314.652 175.925 980.496 252 252 237
534.155 332.787 1449.52 52 81 94
-288.468 251.068 1015.81 136 94 89
-204.922 256.759 1016.92 192 132 125
-283.386 266.81 1037.63 244 251 251
-272.721 269.304 970.734 251 255 251
-244.15 320.088 1082.14 255 254 240
-84.0512 -46.7404 181.972 36 36 32
-202.818 -77.2316 419.338 74 78 74
-161.937 -14.0325 962.567 69 28 26
469.175 -5.42116 1184.3 255 252 249
469.175 -5.42116 1184.3 255 252 249
531.744 30.9019 1208.16 98 65 56
531.744 30.9019 1208.16 98 65 56
596.96 68.2873 1320.09 248 248 225
594.612 72.4791 1263.41 176 174 161
467.541 79.427 1222.31 159 162 136
-48.7923 181.706 1072.81 254 253 240
668.106 291.322 1417.82 152 179 178
-221.221 200.723 993.961 62 18 14
-234.096 231.125 1053.69 253 243 235
-264.798 371.137 1061.93 61 41 34
-87.7304 -40.0403 147.363 83 78 68
-87.7304 -40.0403 147.363 83 78 68
570.572 -219.826 1021.67 44 80 98
452.187 -194.071 1086.74 51 48 52
452.187 -194.071 1086.74 51 48 52
613.019 -60.9281 1205.21 157 150 109
613.019 -60.9281 1205.21 157 150 109
427.269 39.2442 1174.92 251 250 247
427.269 39.2442 1174.92 251 250 247
-208.924 185.788 1069.37 255 254 242
-219.289 183.147 1014.11 233 229 225
-219.289 183.147 1014.11 233 229 225
495.007 347.51 1463.34 84 83 70
-105.586 351.762 1135.79 131 121 84
-238.546 369.564 1087.63 62 58 64
60.6775 85.8513 -237.877 62 68 62
-230.086 -154.174 513.789 136 149 145
337.981 -216.987 1174.87 144 143 143
595.217 -134.706 1208.55 90 79 72
-339.015 74.037 948.654 236 217 210
-190.681 92.8484 995.348 126 75 66
-190.681 92.8484 995.348 126 75 66
-182.35 124.27 1009.39 127 80 68
-182.35 124.27 1009.39 127 80 68
-269.861 130.46 984.107 222 171 141
-141.135 163.89 1037.02 236 231 218
-244.735 219.364 1023.05 183 139 127
609.376 339.918 1415.48 192 222 217
609.376 339.918 1415.48 192 222 217
-247.856 295.05 1012.94 234 230 227
-247.856 295.05 1012.94 234 230 227
-181.481 -145.049 516.409 124 130 125
-120.595 -141.684 595.182 151 128 102
513.676 -172.771 1099.03 81 65 66
407.949 -82.6653 1105.94 240 243 243
-179.94 62.9452 998.013 216 175 155
-171.564 163.065 1032.57 122 100 97
-171.564 163.065 1032.57 122 100 97
-109.916 238.945 1089.49 255 254 251
674.496 -84.541 1202.94 250 255 242
555.426 14.7881 1214.1 135 109 95
405.381 80.827 1474.99 72 63 56
424.378 77.7763 1235.53 53 42 39
-257.482 77.7472 955.395 180 103 74
713.005 123.069 1303.35 114 147 113
-318.711 110.999 959.102 249 254 255
509.387 219.385 1660.71 134 127 118
-56.6205 181.963 1079.51 255 210 201
-220.532 241.142 1049.69 243 231 224
-111.994 -180.665 706.229 179 157 135
-111.994 -180.665 706.229 179 157 135
-203.835 -149.016 667.487 82 59 38
-229.378 60.5379 973.569 248 224 215
538.748 84.8889 1224.23 237 234 210
10.7274 527.172 1363.8 179 179 172
-213.007 -85.8464 1121.15 90 101 100
574.677 -179.853 1227.08 71 53 45
-141.135 278.892 1173.51 225 226 219
505.194 148.146 1522.68 65 54 49
-204.709 135.082 1029.45 172 138 115
