202.575 -68.933 983.268 24 18 15
8.93911 -66.9 1050.95 55 50 41
-30.9055 -43.6311 1025.07 252 255 255
-680.454 9.3259 910.919 144 154 146
-333.083 22.5428 1442.59 139 105 110
-390.974 33.9273 1366.78 213 192 177
-612.82 41.2516 1305.98 255 249 239
-672.695 57.2603 1411.32 252 252 251
-372.594 64.7774 1375.95 131 108 98
-496.176 63.6692 1318.73 159 140 116
-481.421 63.2937 1301.67 10 5 0
-478.847 86.2603 1250.55 255 244 227
27.4681 59.6688 818.562 242 249 238
-464.498 103.817 1250.36 97 66 54
-464.498 103.817 1250.36 97 66 54
-106.791 88.8828 949.399 190 174 162
-616.78 131.502 1382.22 190 176 156
-584.219 131.519 1389.46 255 248 235
-584.219 131.519 1389.46 255 248 235
-489.627 137.352 1290.19 251 244 231
-433.966 149.978 1282.61 42 36 23
-71.9633 111.094 935.416 253 242 216
-407.549 224.784 1307.54 29 26 14
-407.549 224.784 1307.54 29 26 14
186.176 170.371 989.195 46 22 9
35.8102 159.564 888.346 252 253 239
-41.451 183.06 965.522 243 237 215
-254.22 273.105 1403.18 255 250 234
312.222 232.959 1160.93 81 70 54
-303.118 329.914 1462.87 11 17 12
68.2607 212.884 895.949 204 212 189
-294.906 291.762 1194.14 206 207 195
60.9397 231.129 896.033 154 174 151
65.3109 254.534 925.265 114 125 117
300.951 327.035 1126.99 198 182 176
288.638 321.809 1095.96 187 174 149
-283.13 516.02 1467.65 112 141 130
103.823 348.659 947.21 252 255 249
103.823 348.659 947.21 252 255 249
57.9801 395.312 1049.16 254 255 236
203.051 540.553 1130.12 236 252 252
235.635 579.428 1193.14 203 227 247
19.6321 -76.8512 1136.25 84 82 78
-383.899 -56.816 1328.27 134 111 91
62.2843 -24.501 984.695 197 180 174
-466.183 -12.6374 1258.17 26 22 6
-390.213 35.8183 1357.45 227 207 193
-421.389 40.2444 1313.5 37 28 27
-41.7351 27.8093 924.718 47 103 99
-336.42 51.0882 1418.43 198 160 152
-336.42 51.0882 1418.43 198 160 152
-491.173 47.4842 1250.81 141 90 52
-507.821 86.3034 1278.36 254 242 225
-507.821 86.3034 1278.36 254 242 225
215.455 78.9193 1014.43 143 103 95
61.2786 81.2553 844.89 163 160 150
-569.591 147.963 1399.31 155 130 116
-62.7892 106.881 925.418 145 127 108
-62.7892 106.881 925.418 145 127 108
-36.8245 130.135 929.121 135 126 113
-647.29 223.665 1531.09 255 252 253
-359.717 178.09 1138.75 174 177 168
97.1189 138.468 886.947 38 27 26
-421.674 217.848 1362.13 159 160 153
222.605 167.247 1029.82 41 27 23
222.605 167.247 1029.82 41 27 23
267.6 178.251 1098.7 41 27 26
-82.4003 200.05 996.061 172 133 120
-495.494 357.498 1510.88 254 253 235
-495.494 357.498 1510.88 254 253 235
-68.4679 258.428 1054.16 255 247 231
59.2636 220.983 886.003 254 253 247
67.0568 249.822 936.147 244 255 251
316.79 309.304 1135.3 199 178 157
-29.0335 313.662 1061.6 197 194 169
262.183 337.719 1084.68 52 28 19
130.985 321.529 943.332 115 106 105
24.2654 369.379 1057.73 253 255 245
122.074 344.992 938.618 247 246 240
128.649 506.001 1082.08 176 178 176
137.642 564.271 1187.13 249 254 251
-221.814 -489.431 1816.7 77 80 67
-360.009 -452.056 1808.61 164 163 154
-35.3194 -14.9779 1043.47 16 8 22
180.071 -8.43184 982.813 52 47 41
-467.879 -2.42423 1291.31 190 163 141
-467.879 -2.42423 1291.31 190 163 141
-447.313 45.642 1277.93 196 185 171
-621.953 51.4703 1295.7 247 252 250
-442.666 51.7587 1321.7 56 38 30
-602.031 56.1056 1325.99 255 253 245
-100.372 54.2429 915.215 211 207 185
-18.7949 53.2226 851.5 46 58 56
-18.7949 53.2226 851.5 46 58 56
-540.001 91.2819 1296.38 255 254 241
-540.001 91.2819 1296.38 255 254 241
-133.137 93.0365 958.616 160 153 139
39.7888 101.282 829.864 255 255 243
-301.383 200.644 1370.88 96 46 29
-113.194 164.968 1002.85 193 194 167
-31.844 181.999 953.388 180 159 140
-235.91 260.378 1253.58 22 22 15
-89.2928 216.79 1033.62 255 251 253
50.1069 195.573 895 254 252 255
-109.043 246.269 1072.84 253 252 254
-365.327 333.191 1354.94 207 193 183
104.457 321.491 922.663 117 118 109
104.457 321.491 922.663 117 118 109
116.262 360.518 959.453 65 73 50
-222.023 -490.637 1822.14 73 74 63
128.482 -70.0529 1028.06 65 91 83
128.482 -70.0529 1028.06 65 91 83
-574.409 27.8682 1280.76 255 238 223
-663.842 83.4392 1421.53 255 249 255
4.87743 64.2824 858.996 198 209 194
-591.056 122.779 1375.09 252 244 233
-560.351 147.306 1333.49 253 251 246
-491.079 178.459 1284.25 254 253 247
10.4009 363.709 1065.32 249 252 247
237.152 454.242 1127.23 55 82 96
13.2231 -70.2926 1121.95 57 57 54
-650.95 40.8127 1364.02 214 222 217
-326.468 80.1335 1437.33 155 164 162
159.103 231.347 973.098 165 153 151
-372.475 319.266 1297.62 165 107 71
214.218 469.548 1100.48 54 84 123
214.218 469.548 1100.48 54 84 123
-377.005 -483.359 1990.07 166 163 161
-395.431 -53.6741 1306.5 64 55 50
25.0251 67.5436 820.802 136 144 120
211.273 131.327 1018.68 79 58 50
266.704 139.769 1086.97 56 50 42
-292.305 341.991 1605.85 50 42 41
52.223 423.813 1095.32 148 134 116
52.223 423.813 1095.32 148 134 116
201.689 526.533 1118.89 185 208 205
-838.872 -118.619 1476.42 98 98 89
40.2535 -12.7279 952.156 204 166 144
40.2535 -12.7279 952.156 204 166 144
-13.5624 216.654 963.815 255 252 254
201.575 -48.6314 1012.15 51 50 46
-376.678 52.9016 1369.55 187 162 142
-376.678 52.9016 1369.55 187 162 142
-466.353 154.182 1264.5 225 227 207
-345.914 214.663 1426.28 196 158 140
-345.914 214.663 1426.28 196 158 140
-345.914 214.663 1426.28 196 158 140
-280.124 247.206 1537.37 52 42 45
271.271 198.947 1089.53 90 61 56
-355.021 266.876 1386.93 67 55 48
62.9222 201.932 882.441 251 253 253
157.746 484.925 1084.89 183 215 220
50.0473 63.4009 837.448 48 44 34
-299.765 134.457 1426.27 62 48 40
-44.0532 379.379 1108.15 130 117 103
-44.0532 379.379 1108.15 130 117 103
63.2745 368.551 1057.91 252 254 252
-473.563 17.4381 1263.82 49 33 31
-423.539 441.572 1479.32 93 99 94
186.709 527.696 1164.66 156 181 182
-568.423 48.2691 1301.02 255 242 233
-395.757 527.653 1441.04 245 251 246
-480.887 198.971 1283.9 203 198 188
-341.154 427.593 1606.82 56 53 50
-341.154 427.593 1606.82 56 53 50
33.847 247.513 903.384 251 255 254
154.45 299.549 922.44 74 58 50
-423.484 123.557 1489.02 74 69 66
