-898.639 -283.478 1817.63 128 122 113
458.643 -183.885 1768.32 32 24 12
462.069 -180.863 1740.04 176 168 156
550.025 -114.733 1759.58 178 175 146
338.74 -115.717 1883.57 58 46 32
329.674 -46.6275 1805.14 20 25 4
468.155 -42.521 1902.17 126 110 102
386.985 135.25 1973.81 145 158 125
584.682 332.268 2107.86 246 254 254
564.363 314.355 1985.75 145 149 147
-130.623 451.938 1352.26 16 14 7
434.962 -288.375 1789.89 198 199 202
326.58 -234.61 1799.66 53 64 40
465.077 -93.2353 1746.52 252 236 219
485.552 -41.8642 1812.81 226 225 220
569.412 45.3716 1951.52 255 253 222
367.019 47.7663 1729.09 57 34 13
367.019 47.7663 1729.09 57 34 13
651.564 83.2758 2040.19 251 254 230
483.202 93.5574 1774.1 182 173 156
482.136 131.749 1882.25 86 74 71
-80.4198 158.022 1211.31 200 168 152
56.3681 230.774 1349.33 255 249 243
-101.921 228.794 1193.66 125 110 89
55.6352 265.855 1315.8 199 186 182
16.1624 364.372 1329.33 254 255 228
-13.6647 368.512 1234.59 85 44 35
529.261 -291.258 1805.36 181 206 213
388.571 -300.137 1981.89 103 92 84
-914.181 -160.788 1209.98 46 52 46
-707.967 -107.182 990.044 90 100 95
65.7344 -89.6903 1409.83 61 83 75
-34.8214 -6.70364 1127.15 240 222 201
-28.2783 78.4014 1188.92 133 95 94
557.016 150.633 1932.2 133 118 98
544.712 172.409 1894.85 253 255 244
391.171 217.915 1829.83 151 180 174
75.185 174.173 1336.98 131 113 90
-57.4288 164.124 1146.94 83 65 44
514.857 316.33 1979.57 246 254 250
435.357 408.101 2117.77 72 91 84
528.303 396.89 2042.4 149 178 183
-25.5081 349.673 1231.23 250 255 255
-7.55504 451.573 1285.02 254 254 241
1286.56 -490.402 1888.81 79 82 80
290.972 -418.596 1759.32 169 162 151
379.525 -238.365 1837.89 18 14 9
507.219 -153.76 1861.25 253 244 243
-165.89 -74.1382 1373.51 105 80 63
-165.89 -74.1382 1373.51 105 80 63
593.001 -53.552 1975.59 149 123 107
587.369 -30.1472 1954.24 139 119 95
635.097 103.003 2013.3 156 140 117
635.097 103.003 2013.3 156 140 117
-11.6308 86.8592 1228.13 255 251 253
-25.9029 249.675 1233.91 157 66 45
16.8717 412.677 1291.47 84 68 54
-651.403 -84.4187 870.272 61 59 52
-65.1545 6.21464 1125.82 231 210 187
442.7 157.635 1693.49 68 50 45
499.221 206.21 1939.79 219 230 230
97.6841 167.636 1364 255 253 252
721.408 438.401 2700.34 245 253 248
-2.26235 263.965 1288.93 255 251 252
-30.9068 267.678 1211.82 254 249 254
-24.8333 303.112 1228.9 252 251 255
-41.9711 334.488 1236.45 93 63 60
5.76828 344.148 1261.19 252 251 255
-373.982 -233.68 1415.78 59 40 28
-526.847 -205.24 1330.21 75 76 73
-548.756 -150.866 1028.3 34 29 24
-727.602 -145.645 1092.85 65 72 66
6.29231 76.8164 1257.48 221 149 120
580.795 272.474 2071.48 246 255 250
34.6859 267.757 1298.58 255 253 255
120.239 312.241 1419.57 251 255 250
397.904 -268.597 1789.88 182 173 157
-1024.24 -172.055 1517.02 118 136 126
28.594 53.9546 1248.12 253 254 255
28.594 53.9546 1248.12 253 254 255
330.086 184.988 2018.96 188 187 169
-48.3927 122.965 1169.48 249 255 249
-159.967 169.568 1276.96 153 94 56
-425.758 -52.2525 538.132 75 65 56
-64.7368 -84.2424 1336.07 62 106 109
-68.7868 271.384 1214.02 94 50 37
-10.8695 336.376 1225.01 229 226 226
292.104 -454.228 2047.11 183 174 162
-123.738 313.179 1281.27 148 89 56
-51.603 381.281 1239.33 53 45 41
-104.565 42.6106 1160.16 56 35 23
-95.8012 177.382 1218.57 77 57 39
413.217 -181.87 1740.98 61 52 46
293.187 -189.356 2038.53 44 38 29
59.0071 515.101 1393.88 73 72 69
546.013 -579.025 2812.54 181 184 174
-52.7566 550.657 1452.11 48 46 42
358.658 30.793 1794.05 74 95 59
