-557.255 -185.72 1050.18 94 90 67
-33.874 -90.0853 976.492 51 59 53
-33.874 -90.0853 976.492 51 59 53
-497.643 -115.347 1285.78 171 170 156
-453.681 -80.6174 1273.67 46 35 18
-98.6401 -51.3899 949.966 29 30 26
-442.311 -69.3515 1278.03 95 83 62
-535.714 -52.6279 1166.99 176 171 160
42.7852 4.30621 860.77 251 246 225
-695.782 11.0889 1183.25 123 102 81
-410.119 15.4268 1300.22 111 91 84
-264.999 45.6494 1047.92 30 26 20
-501.3 49.0111 1194.44 249 245 218
-63.9842 56.2079 963.325 255 252 253
73.7133 77.0736 919.156 244 242 214
-540.909 -140.554 1291.22 170 167 151
-555.07 -115.042 1078.98 166 167 155
57.2356 -75.3313 883.372 60 68 63
131.096 -51.5136 827.013 208 213 196
-597.484 -29.8013 1144.51 255 252 238
-523.805 -8.38781 1050.12 171 105 90
281.201 11.4398 1055.04 140 120 104
-396.043 16.6524 1315.17 38 23 16
-48.2725 45.8568 972.757 254 255 254
130.437 59.9199 814.484 250 251 254
-1263.23 126.335 1670.56 155 156 140
-381.606 -129.068 686.611 94 93 78
169.909 -185.024 1073.3 76 108 100
169.909 -185.024 1073.3 76 108 100
-431.929 -79.6725 1260.19 142 118 99
-54.2839 -58.5713 927.314 36 31 29
137.934 -46.6059 824.296 51 45 33
-444.668 -61.9088 1130.04 163 137 106
157.801 -41.411 847.626 57 48 41
-457.361 -50.364 1092.98 34 17 3
-482.59 -45.2028 1182.33 189 172 147
-657.332 -22.9658 1186.35 255 250 231
-657.332 -22.9658 1186.35 255 250 231
-555.217 1.04057 1106.52 255 247 247
-477.456 6.37819 1097.24 140 86 48
-453.095 7.81791 1195.47 52 40 35
116.953 87.537 887.745 235 235 206
59.5159 -117.534 973.284 206 184 172
-482.911 -61.6545 1190.69 65 48 40
259.298 -12.5311 1045.17 164 124 98
-62.8943 4.66316 921.287 148 143 122
-355.958 30.8161 1379.39 23 22 18
-606.51 -140.231 1247.36 175 178 173
172.632 -34.4865 884.41 154 153 144
250.919 -33.087 1015.44 172 134 111
130.583 -3.49709 842.339 140 162 124
-367.158 -3.81843 1347.15 54 38 36
88.2957 37.3013 893.09 118 103 93
-549.99 57.8021 1165.47 252 243 230
175.273 97.8176 881.569 200 213 198
86.5987 -71.1073 874.044 165 203 192
3.34248 -54.5725 894.394 62 48 38
-489.994 -43.853 1151.01 55 46 33
133.286 -18.0693 822.635 240 244 226
-388.609 18.8402 1311.13 36 28 22
-636.729 65.3549 1210.58 201 134 129
-6.03652 63.0626 944.249 147 122 106
-6.03652 63.0626 944.249 147 122 106
-524.901 -26.5839 1114.92 250 226 206
35.3693 5.78095 917.747 232 213 190
-492.065 21.3644 1105.11 232 202 175
-406.21 -48.4907 1347.03 61 52 53
-412.099 2.49296 1288.17 172 148 131
-412.099 2.49296 1288.17 172 148 131
-429.135 -120.64 1325.08 45 35 27
62.2575 -26.4239 877.043 93 88 83
167.43 89.2267 916.868 250 253 241
-488.353 -24.5638 1167.08 53 39 36
-401.244 -212.861 1049.61 145 153 147
-401.244 -212.861 1049.61 145 153 147
198.211 -77.3373 950.516 134 139 124
