-144.123 -285.83 930.372 150 148 142
-31.2191 -697.97 2879.24 197 181 155
-34.4872 -615.072 2609.1 106 98 74
148.794 -92.159 1060.21 83 55 60
171.535 -80.4337 1045.4 194 164 133
-1470.67 -105.581 1937.15 36 35 27
387.965 44.0667 1020.19 126 140 110
-359.66 67.7742 1183.16 53 35 22
306.695 61.2459 1027.64 249 246 218
178.019 73.7034 1033.91 177 173 150
-513.352 68.1303 934.71 135 124 107
-513.352 68.1303 934.71 135 124 107
379.813 82.1765 1050.28 53 59 45
296.015 92.26 1097.2 193 119 98
-391.886 103.178 989.871 186 125 92
381.996 118.548 1063.94 186 194 188
-417.449 116.647 1008.94 255 240 231
-530.185 113.765 980.185 243 173 143
294.973 143.462 1105.99 156 130 125
318.663 207.21 1106.28 176 174 167
-391.452 190.279 1027.08 255 237 222
-391.386 203.357 1023.05 58 10 7
273.875 224.377 1110.21 245 244 236
273.875 224.377 1110.21 245 244 236
-396.148 205.839 1017.93 255 240 218
-461.583 250.65 1034.91 251 243 229
-598.949 261.189 1028.08 165 167 155
-297.142 275.267 1073 124 112 100
374.152 339.715 1215.42 250 254 247
-344.319 301.588 1085.2 247 226 203
432.247 384.447 1316.19 214 237 234
178.512 196.881 634.19 47 63 83
-463.206 341.916 1088.73 169 141 137
272.354 381.784 1205.97 46 61 76
-569.173 371.134 1103.53 146 104 85
-545.016 361.579 1070.12 252 224 212
-521.444 393.332 1150.26 247 253 236
-310.609 568.527 1239.08 54 66 57
-559.121 -289.845 1584.33 22 15 10
210.729 -135.29 1134.76 106 56 46
1180.7 -119.753 1633.59 109 103 97
292.981 -60.1654 966.315 136 131 131
-886.319 -49.5311 1153.65 147 155 146
313.521 -10.5209 980.773 178 167 153
-369.836 30.7255 1034.43 159 146 122
-369.836 30.7255 1034.43 159 146 122
246.536 33.3959 1034.83 220 194 163
243.762 45.0644 1028.37 107 89 61
-501.079 58.6687 994.457 245 241 221
-499.071 60.0276 953.883 241 231 225
-484.495 77.9426 950.234 198 144 124
289.038 96.5052 1048.45 215 148 123
158.847 98.8364 1046.8 103 44 26
358.437 103.891 1060.46 255 252 224
149.892 106.341 1058.93 165 157 121
188.209 108.548 1071.34 107 61 39
-355.644 107.313 985.76 241 233 215
-430.148 120.845 1024.87 50 10 5
-430.148 120.845 1024.87 50 10 5
194.409 167.394 1074.36 255 251 252
-499.75 153.262 896.247 255 244 232
173.503 195.903 1107.38 155 133 124
173.535 204.595 1101.19 72 52 45
449.643 234.807 1122.49 243 251 249
271.435 236.154 1116.08 141 142 131
-330.557 233.755 1053.09 255 251 240
217.383 252.36 1113.51 234 233 207
217.383 252.36 1113.51 234 233 207
-472.908 292.93 1047.04 255 250 241
-309.252 359.377 1234.53 85 60 52
204.373 339.516 1148.34 75 59 47
-582.667 332.435 1068.47 246 248 246
-287.98 412.366 1194.51 176 176 166
303.285 478.546 1355.94 94 118 129
387.603 477.406 1306.83 226 249 251
405.578 484.572 1299.28 242 255 255
-294.007 446.363 1168.66 240 240 232
355.256 532.149 1332.35 203 233 230
-218.522 -324.389 932.047 83 87 78
-283.934 -364.303 1171.12 74 75 70
187.563 -115.992 1127.58 69 26 14
187.563 -115.992 1127.58 69 26 14
161.015 -107.799 1107.63 253 244 247
-1032.49 -60.3866 1370.51 29 30 18
179.66 -41.8048 956.343 56 40 40
-455.568 -2.6748 1067.01 115 115 117
368.774 8.2295 994.591 112 125 110
247.402 11.8294 989.902 100 69 57
-364.25 44.6916 1257.58 45 39 32
342.223 51.4341 1025.1 138 131 93
-364.472 61.8792 1055.98 81 61 41
246.722 70.9069 1042.59 191 188 151
246.722 70.9069 1042.59 191 188 151
-346.934 81.6247 1022.36 170 163 152
198.684 92.5914 1054.15 111 92 63
208.958 100.957 1056.6 229 236 207
426.641 109.426 1099.64 238 246 246
314.334 117.495 1145.25 245 244 239
263.604 137.643 1083.1 93 66 67
-452.558 137.165 1019.81 201 163 150
254.683 147.368 1068.05 238 219 212
-551.641 158.199 964.933 255 245 227
-379.365 171.793 1033.46 254 249 228
333.454 249.832 1106.18 255 254 237
333.454 249.832 1106.18 255 254 237
-410.103 299.864 1158.62 91 71 61
-469.229 286.894 1062.23 218 189 182
292.012 399.982 1296.79 81 106 132
446.864 440.428 1306.58 140 170 175
421.005 502.735 1282.49 165 182 178
-353.984 459.925 1157.14 252 255 250
-268.228 -361.903 1467.13 90 39 26
212.259 -163.292 1208.99 66 67 56
128.906 -143.545 1162.58 82 82 71
128.906 -143.545 1162.58 82 82 71
103.671 -137.163 1190.75 95 85 63
368.162 -33.7452 992.99 113 138 113
-374.501 -23.515 1200.16 57 47 35
388.452 -2.93266 1020.9 219 226 223
-434.709 23.7182 1039.47 53 74 89
-460.881 31.4146 1044.89 48 83 91
142.16 33.9781 1017.43 254 253 249
289.226 67.9915 1049.47 131 106 85
-442.468 74.2436 972.79 98 52 41
258.272 86.7187 957.741 212 127 109
287.886 95.4013 1066.19 212 127 109
206.374 113.314 1042.68 161 76 68
352.733 326.008 1159.05 229 243 240
349.617 360.109 1253.91 235 246 243
-303.452 327.542 1110.48 110 75 63
292.964 373.028 1259.83 224 239 231
-441.979 457.876 1223.79 165 186 148
323.145 551.053 1415.16 151 166 161
297.795 -114.21 982.77 44 48 42
239.079 -126.373 1107.78 207 180 166
195.173 -66.8934 977.392 34 33 30
390.257 -40.2539 999.048 125 151 121
-485.449 5.13931 1086.39 60 103 106
266.573 166.747 1084.99 102 78 71
164.946 170.647 1088.41 246 248 248
329.752 217.482 1145.02 185 181 172
-306.122 284.775 1070.61 108 86 61
303.394 348.502 1243.44 84 65 54
-582.306 303.95 1068.98 150 110 93
-578.31 359.726 1096.82 252 254 254
-578.31 359.726 1096.82 252 254 254
-546.375 399.678 1112.66 253 254 255
-182.726 -294.563 902.566 165 169 164
371.624 -105.201 969.333 66 107 123
308.77 -100.901 968.454 147 193 184
308.77 -100.901 968.454 147 193 184
337.171 80.388 1037.78 163 156 120
337.171 80.388 1037.78 163 156 120
-534.339 99.6697 1003.11 216 178 151
454.756 197.106 1105.55 117 114 112
-496.342 194.666 977.332 232 215 198
-446.632 203.157 988.852 143 97 77
-313.488 268.472 1159.01 78 65 53
-280.734 385.63 1317.69 157 152 139
-545.502 440.121 1118.22 253 253 250
-357.61 42.4145 1096.51 154 149 139
-358.553 51.2285 1201.65 76 72 65
222.069 63.9281 1049.75 94 64 55
-464.736 259.107 1076.24 130 116 106
-464.736 259.107 1076.24 130 116 106
417.937 349.095 1233.49 196 222 218
-496.263 320.213 1055.19 254 251 251
-27.3424 -91.6522 304.75 119 89 74
259.143 -43.087 990.359 74 55 51
410.594 61.1635 1050.46 225 230 222
-517.971 143.974 1005.75 245 255 249
-422.751 178.66 1001.47 231 198 170
-422.751 178.66 1001.47 231 198 170
-301.881 312.073 1345.25 79 68 67
-335.734 282.045 1087.11 254 248 228
384.924 314.147 1212.68 114 105 93
384.924 314.147 1212.68 114 105 93
-478.325 416.252 1129.32 168 193 155
-517.383 456.236 1150.89 94 93 88
-169.542 -284.001 1189.78 97 73 53
-396.587 49.022 979.058 232 198 159
-396.587 49.022 979.058 232 198 159
-480.834 80.9369 974.818 223 179 160
-385.941 103.72 1009.2 240 206 176
287.21 152.288 1079.38 143 123 115
-632.045 -148.706 981.231 142 161 151
-303.007 322.682 1218.11 79 66 59
352.447 398.932 1246.29 205 233 234
-345.964 189.749 1209.61 86 69 61
354.619 181.196 1086.8 250 255 248
354.619 181.196 1086.8 250 255 248
242.351 328.037 1226.38 83 80 75
242.351 328.037 1226.38 83 80 75
-392.741 358.365 1122.01 252 255 255
-392.741 358.365 1122.01 252 255 255
-529.53 240.058 1127.06 255 249 233
