52.3149 -142.677 431.789 198 199 196
-212.337 -229.582 982.864 57 38 21
-536.834 -541.483 2470.33 156 137 112
-112.531 -149.67 708.29 219 202 179
-112.531 -149.67 708.29 219 202 179
263.248 -139.515 1163.37 146 114 95
423.129 10.9774 1134.38 204 194 176
-438.327 14.967 1076.15 136 148 150
-352.201 47.2098 1031.31 246 234 188
-462.86 51.6621 986.453 255 254 236
235.489 64.7311 1137.37 164 145 126
368.086 119.793 1151.04 204 196 184
-396.897 114.302 1034.04 82 36 33
309.65 130.759 1156.55 66 33 27
309.65 130.759 1156.55 66 33 27
230.931 127.335 1122.15 190 173 162
-368.591 192.958 1046.9 72 32 22
-308.988 221.423 1085.32 255 247 216
249.762 243.408 1187.05 41 37 27
-576.883 250.398 1016.44 159 154 135
397.957 307.608 1244.02 174 163 144
-326.393 279.663 1026.54 118 104 92
228.127 325.747 1180.39 75 69 60
442.27 353.125 1284.88 226 248 249
-366.202 286.077 1015.82 187 190 180
-576.059 313.94 1075.31 236 249 233
-543.078 334.153 1076.35 251 246 250
-543.078 334.153 1076.35 251 246 250
-503.569 365.745 1083.89 226 192 184
-484.448 392.499 1134.02 236 255 231
456.512 480.482 1383.48 127 149 153
-509.067 392.206 1119.22 255 247 233
-509.067 392.206 1119.22 255 247 233
-509.321 370.007 1045.97 117 90 91
-461.536 393.952 1098.45 241 237 222
-533.995 429.899 1118.27 60 62 43
-55.2298 -292.709 866.545 176 172 162
-245.744 -283.182 845.046 77 87 80
-111.372 -94.8577 285.02 68 77 72
352.594 -161.282 1212.08 230 212 205
360.483 -156.354 1177.01 128 174 172
385.554 -84.1022 1047.3 246 245 234
1246.27 -143.62 1933.55 20 17 17
1246.27 -143.62 1933.55 20 17 17
-427.269 -38.7854 1150.04 130 144 143
-427.269 -38.7854 1150.04 130 144 143
356.609 -34.0596 1111.87 208 206 189
-356.564 -29.9378 1222.71 63 56 39
262.685 -24.9746 1050.98 161 147 125
-370.639 -9.93564 1178.92 91 76 56
-326.567 25.4964 1009.13 157 143 123
-347.209 27.6387 1008.79 135 113 78
-355.543 43.5125 1314.94 76 66 56
-355.221 32.8876 973.394 196 173 133
-480.639 48.3507 1007.97 63 42 30
304.24 76.2567 1136.02 196 193 153
203.397 87.4909 1097.36 117 57 44
203.397 87.4909 1097.36 117 57 44
-419.595 92.7287 1022.12 217 175 160
-582.306 136.915 1009.32 147 136 141
298.352 166.381 1177.21 82 55 53
352.602 180.204 1186.83 123 86 80
-363.85 208.876 1073.11 255 238 223
325.203 236.583 1205.5 148 144 143
-300.633 255.558 1281.45 220 190 173
-300.782 225.554 1093.38 122 111 102
252.075 239.294 1132.09 223 216 199
235.091 258.711 1212.05 77 70 72
-338.222 250.924 1084.4 185 131 99
-342.372 280.229 1088.95 255 238 212
-273.639 349.391 1220.79 96 71 60
-273.62 338.257 1110.49 254 248 232
-509.357 336.012 1082.24 254 251 248
541.792 478.124 1458.71 145 159 163
-576.88 409.56 1161.21 250 253 254
-337.659 430.608 1188.28 251 254 238
-233.55 -285.403 838.471 107 114 107
209.973 -86.6608 1108.54 27 31 25
1243.02 -131.109 1767.43 71 68 60
1243.02 -131.109 1767.43 71 68 60
448.617 -43.6872 1105.58 249 254 246
455.377 -21.001 1122.37 249 255 248
451.673 2.03124 1116.91 194 196 176
-360.164 6.47988 1169.7 60 44 27
455.204 30.5294 1138.53 138 159 141
339.131 54.9117 1112.35 137 113 92
302.345 59.4767 1124.5 188 195 153
169.647 65.6358 1099.35 126 96 89
307.164 90.7645 1182.6 122 103 70
261.534 94.763 1147.31 255 251 217
261.534 94.763 1147.31 255 251 217
343.391 141.428 1258.55 101 78 77
313.387 142.018 1164.17 242 223 215
-574.094 115.436 930.617 78 64 58
-378.364 147.527 1074.67 174 106 86
-524.374 134.143 953.365 238 248 242
306.685 173.516 1171.02 254 244 230
306.685 173.516 1171.02 254 244 230
371.462 186.477 1198.14 251 252 241
404.923 223.855 1150.2 253 253 245
-314.474 261.534 1285.24 58 34 17
-342.479 259.505 1070.77 254 223 212
-342.479 259.505 1070.77 254 223 212
-453.063 298.211 1071.9 255 246 242
327.228 396.747 1344.11 54 104 107
-418.922 366.35 1103.36 250 253 232
-296.606 409.475 1229.25 179 131 106
-306.318 405.837 1164.14 224 135 102
-516.556 427.942 1156.87 255 253 241
-516.556 427.942 1156.87 255 253 241
-258.951 457.589 1228.77 39 35 30
-192.601 -177.356 762.771 78 29 17
294.843 -129.912 1156.95 95 51 40
369.392 -1.53615 1102.3 110 89 78
-698.572 94.407 1236.93 216 200 178
-326.815 110.449 1278.58 104 87 74
338.073 97.8272 1130.08 239 234 220
-498.134 112.731 1009.41 196 124 103
-289.238 302.416 1149.33 119 96 82
407.53 464.884 1275.79 81 123 155
407.53 464.884 1275.79 81 123 155
352.389 511.615 1307.77 125 171 178
-136.748 -110.168 373.348 155 161 156
-335.456 100.413 1233.76 191 172 156
329.863 164.534 1196.58 115 88 75
329.863 164.534 1196.58 115 88 75
-622.004 155.682 1038.54 255 255 252
530.608 191.843 1232.09 101 96 87
356.763 196.569 1140.12 180 175 164
362.956 251.804 1206.19 249 249 223
-453.741 265.156 1048.74 255 253 253
-543.885 300.506 1045.58 137 92 68
-480.482 351.788 1064.01 128 109 101
-546.424 360.548 1083.3 252 254 255
-546.424 360.548 1083.3 252 254 255
-546.424 360.548 1083.3 252 254 255
-487.919 525.806 1206.54 45 46 46
-487.919 525.806 1206.54 45 46 46
-84.9269 -76.3076 242.921 161 167 159
-147.604 -46.467 219.357 105 113 107
378.016 -124.365 1085.78 157 204 199
378.016 -124.365 1085.78 157 204 199
-408.475 11.9344 1071.05 56 89 101
-450.664 181.074 1046.52 130 99 79
-438.052 212.229 1048.25 131 84 63
-438.052 212.229 1048.25 131 84 63
-517.652 207.371 1005.18 227 193 164
-274.699 304.114 1313.87 92 80 75
442.591 293.698 1224.79 117 111 99
-514.392 401.141 1101.75 254 252 252
313.556 -60.0977 1084.11 91 70 66
266.138 50.3099 1091.73 103 81 71
-427.831 255.796 1069.23 123 102 94
-345.05 285.432 1036.9 249 255 252
-361.281 24.2101 1109.39 134 119 100
475.478 46.924 1148.95 209 216 205
217.134 97.5939 1108.79 160 135 112
-513.997 163.311 1006.94 198 130 116
-401.37 181.746 1034.18 234 197 169
-178.138 -180.945 564.01 100 102 93
-70.0802 -338.869 1371.35 183 162 135
-70.0802 -338.869 1371.35 183 162 135
-173.081 -190.452 849.763 100 73 50
-369.783 41.3704 1009.34 255 238 204
-348.148 97.0271 1005.61 241 218 180
342.493 145.125 1162.85 130 110 102
410.86 411.158 1358.74 208 232 231
13.3799 26.146 -149.172 23 22 20
375.177 420.435 1710.58 97 88 80
185.101 -39.021 938.891 155 154 156
-377.129 377.115 1169.66 255 254 254
