-484.962 -44.0695 898.074 229 235 229
-802.667 -23.4351 1143.7 206 214 207
-721.907 -19.6627 1515.63 54 37 18
-453.639 15.8693 1375.67 112 102 76
-17.0813 30.8546 999.993 47 71 64
-273.199 83.4983 1164.18 254 253 251
-220.068 81.9652 1010.42 178 167 144
-571.273 133.902 1422.05 152 144 118
-579.988 136.956 1470.45 30 31 8
-620.567 134.435 1394.51 255 249 239
-563.757 148.362 1421.55 144 131 107
-566.715 151.912 1455.83 20 18 1
-538.708 197.736 1443.53 18 7 2
10.0259 125.554 895.059 46 53 48
-645.087 276.27 1619.36 255 252 240
-434.103 259.909 1506.28 22 6 5
123.2 176.453 1013.31 41 17 9
-150.164 176.8 1012.25 224 221 210
-515.066 345.762 1593.1 232 237 230
-368.43 379.608 1570.26 229 225 214
-466.942 371.687 1481.36 73 45 34
-466.942 371.687 1481.36 73 45 34
-44.5789 237.661 906.217 158 163 154
-386.583 384.054 1465.17 252 255 238
-65.7677 251.388 902.872 204 199 168
-135.102 386.702 1116.55 253 253 237
-56.36 442.01 1149.29 184 186 160
156.751 550.837 1150.44 31 60 81
-904.178 -8.66258 1310.56 215 230 225
-1031.28 30.2306 1539.27 222 231 228
-550.167 34.3765 1303.28 62 47 33
-842.874 52.9785 1279.57 239 243 238
-631.661 60.6483 1350.79 205 168 142
-413.802 81.3951 1492.1 51 13 5
-460.147 94.8066 1512.71 209 182 163
-1059.45 127.997 1682.36 245 252 252
-1059.45 127.997 1682.36 245 252 252
-1533.32 188.886 2505.05 132 138 137
-13.0212 124.291 889.495 42 46 41
-28.3175 131.989 868.683 185 180 170
-666.522 238.195 1542.44 255 254 254
-552.022 223.783 1420.6 255 247 216
130.568 164.616 1041.54 177 133 115
-641.09 301.793 1523.6 194 192 190
-204.308 226.405 1097.03 212 210 189
-62.0476 187.703 904.539 135 145 134
11.1113 190.315 908.325 29 19 12
11.1113 190.315 908.325 29 19 12
-422.077 272.878 1278.54 210 205 200
-457.429 306.165 1441.86 83 58 49
131.604 239.502 1042.87 59 89 89
246.087 290.831 1182.88 90 65 43
-173.879 270.647 1081.32 255 250 248
-72.5737 252.504 931.703 189 189 165
-488.476 409.316 1516.89 162 110 72
-123.864 323.924 1056.99 246 239 223
11.7969 333.547 946.361 252 254 237
23.1676 376.028 937.328 124 127 112
32.6326 402.502 965.382 115 113 107
154.485 515.944 1112.78 190 211 220
18.3956 529.574 1130.37 248 254 249
-1123.94 -129.073 1803.85 96 106 99
-1162.58 -66.1567 1642.63 128 146 135
-509.671 -8.51456 1423.71 45 35 25
-63.3084 20.4151 1047.62 234 213 201
-534.937 34.2615 1345.56 161 147 127
-534.937 34.2615 1345.56 161 147 127
-523.411 84.4242 1363.44 187 181 171
-523.411 84.4242 1363.44 187 181 171
-523.411 84.4242 1363.44 187 181 171
-534.898 79.8603 1244.62 147 105 59
-525.853 94.6106 1421.53 46 37 34
-577.839 97.7319 1326.33 253 235 208
-727.489 120.591 1491.98 246 248 243
-153.654 81.9762 934.606 38 31 31
-135.794 82.9218 925.77 28 43 31
162.103 105.436 1068.08 56 28 15
-143.821 164.001 944.949 239 231 221
-136.255 261.195 1028.15 252 252 239
-68.1074 238.523 919.27 255 254 252
-177.997 283.85 1086.95 162 160 156
62.3202 256.342 968.068 166 140 122
-6.35189 302.884 921.134 161 185 153
-112.606 364.012 1053.18 255 254 241
-75.3355 421.686 1115 254 252 246
73.3507 476.054 988.664 43 44 41
-700.657 -38.0641 930.54 93 109 99
-403.923 -6.96514 794.184 61 50 35
102.661 37.9705 988.901 53 51 48
-85.3907 110.989 850.516 217 224 207
-396.797 214.242 1373.65 61 33 17
151.607 188.802 1053.99 50 33 23
168.55 193.224 1069.13 173 158 137
-162.364 184.668 1015.53 146 122 108
-156.304 224.659 1011.57 181 162 141
232.714 265.549 1158.62 76 35 17
-336.966 453.605 1643.95 91 96 95
-85.4467 331.952 1013.8 172 154 147
161.254 498.968 1104.19 49 72 91
-55.1672 144.546 851.677 248 249 236
-472.233 402.114 1499.2 170 116 88
78.021 283.634 978.267 170 165 150
-677.275 -36.7652 957.666 144 153 146
-91.2079 -37.1699 1165.76 178 176 160
-475.341 -19.4954 1422.92 66 52 41
-668.916 -5.39448 1430.01 178 165 146
-166.201 94.3838 941.444 65 52 48
150.094 157.443 1050.9 80 44 35
-140.031 156.372 937.681 202 201 189
116.822 203.547 1025.67 62 51 41
-92.4032 250.108 920.2 253 252 254
102.696 271.823 1007.53 139 78 43
-493.845 40.1846 1430.07 171 166 154
-493.845 40.1846 1430.07 171 166 154
-113.053 85.2621 926.07 224 245 240
-2.77435 132.089 893.065 157 156 149
199.489 192.851 1108.59 54 45 44
-21.6949 261.811 925.717 252 253 252
-69.3727 424.494 1040.82 199 187 161
-69.3727 424.494 1040.82 199 187 161
-452.853 -37.7155 1543.65 35 34 20
126.396 -2.22058 1021.81 52 45 33
-449.707 93.5792 1473.64 203 178 158
-449.707 93.5792 1473.64 203 178 158
172.45 133.346 1063.95 74 47 37
-411.782 264.872 1521.02 201 170 151
-411.782 264.872 1521.02 201 170 151
139.714 197.989 1049.32 81 63 60
139.714 197.989 1049.32 81 63 60
-434.756 330.918 1533.3 82 58 51
6.17076 259.348 905.986 59 51 45
-39.5601 113.306 854.444 51 44 37
31.9453 5.90215 968.454 119 185 180
-555.049 56.8107 1355.1 70 46 39
-696.15 98.2617 1513.02 250 234 218
51.5667 130.491 947.134 43 39 30
9.69931 233.122 913.181 54 50 45
-432.991 564.873 1472.04 250 250 248
-534.669 231.208 1317.06 191 189 183
-45.8891 279.189 873.448 250 255 253
-366.418 443.885 1540.46 55 62 59
57.1104 132.87 943.324 46 42 33
