-109.261 -240.893 883.216 144 112 93
-127.85 -124.614 546.632 84 84 77
319.666 -55.7157 973.705 208 212 206
370.671 -50.1139 972.171 119 149 109
311.573 -26.2463 1009.87 144 122 109
302.522 -18.6185 952.627 160 138 143
271.257 -14.5424 973.854 54 44 36
-372.66 -16.8725 1187.17 39 17 3
246.28 -13.7941 1009.01 200 184 167
254.453 -8.55296 937.633 224 219 203
254.453 -8.55296 937.633 224 219 203
-386.223 -11.2864 1151.62 162 148 130
-348.518 -1.97442 1226.97 54 55 44
-503.07 23.7391 1029.57 77 43 35
416.953 33.5158 1034.18 215 227 204
148.081 34.7797 985.456 92 62 53
-361.228 63.3303 1095.88 184 169 159
158.182 61.2961 1025.74 145 142 128
-523.398 58.5977 969.498 136 79 56
-506.004 72.4467 1005.2 255 237 220
-394.818 71.6892 953.277 255 234 203
227.485 74.5183 1027.14 201 195 163
114.692 84.2014 1050.45 255 250 243
-534.527 85.2724 1027.96 233 171 147
362.086 91.6845 1030.77 0 4 0
158.966 132.971 1062.23 99 73 63
302.165 144.584 1106.16 231 215 194
-378.415 157.274 993.585 48 5 0
-360.527 163.944 956.274 59 35 15
-360.527 163.944 956.274 59 35 15
410.417 179.978 1052.13 240 255 235
-464.588 192.752 1088.27 72 48 34
-580.138 215.864 1074.79 146 122 99
-588.653 216.937 1077.18 251 241 226
364.761 259.188 1054.51 165 167 141
313.392 301.357 1099.38 185 167 151
435.33 335.293 1178.05 142 150 148
-544.958 324.603 1120.08 255 241 235
-527.424 368.415 1171.88 255 252 246
289.451 396.896 1241.18 177 225 231
349.062 423.034 1138.54 116 137 148
-267.061 501.709 1241.5 99 131 116
-265.705 591.909 1351.27 116 130 120
-44.0808 -159.29 506.162 165 173 167
217.067 -139.624 1138.49 86 58 38
295.326 -100.849 1016.55 62 75 77
348.984 -27.067 979.283 86 119 93
-357.59 -26.9241 1125.78 136 116 98
241.477 -5.67758 990.97 78 46 38
274.605 -3.482 1028.45 96 73 59
403.22 14.3545 1000.9 152 156 131
-403.911 19.6392 1014.47 203 180 147
-392.013 23.4118 1048.64 112 87 46
337.159 35.8151 1007.53 183 179 158
-504.779 49.2847 1000.66 197 134 111
233.045 50.9527 1044.65 101 74 54
-473.634 83.5532 1083.25 248 251 245
428.174 92.3601 1041.54 142 145 127
-368.991 103.458 1052.29 253 242 227
202.085 110.114 1111.18 252 250 219
-454.364 109.29 1050.92 178 155 148
-559.276 111.834 1062.36 234 190 172
287.442 126.846 1047.87 255 249 233
290.685 146.184 1098.9 104 51 40
-368.423 153.398 1106.54 253 249 232
378.484 151.036 1056.35 11 18 11
378.484 151.036 1056.35 11 18 11
164.183 160.248 1020.66 243 237 238
-304.011 222.008 1318.8 38 16 4
265.717 209.806 1120.93 255 254 229
265.717 209.806 1120.93 255 254 229
283.916 237.325 1104.61 245 234 217
471.627 248.812 1142.91 157 158 129
282.721 260.155 1077.96 255 255 236
384.212 271.751 1131.01 247 245 217
-516.09 282.135 1083.87 251 253 248
-307.38 303.4 1104.35 255 239 214
-488.695 350.411 1137.02 249 247 224
272.779 381.434 1238.94 84 117 133
-289.671 377.953 1215.2 178 167 159
-241.19 433.177 1384.14 48 34 27
-373.913 390.004 1205.1 255 249 230
469.976 431.053 1277.64 123 140 143
-485.081 457.709 1216.07 18 20 16
152.156 -732.628 2383.32 151 156 151
303.777 -137.774 1102.82 201 184 185
184.503 -115.799 1109.28 84 18 8
241.858 6.75969 1003.79 167 166 147
381.439 9.70638 1032.83 231 237 236
-525.109 57.5791 974.794 162 102 80
137.396 73.4955 1035.38 83 55 46
-640.619 122.918 1160.44 253 253 253
253.04 146.4 1102.63 62 40 41
-596.785 165.995 1050.63 248 249 249
-596.785 165.995 1050.63 248 249 249
224.051 174.121 1076.71 97 61 50
403.635 177.706 1075.74 110 120 97
235.766 182.607 1081.45 251 233 215
235.766 182.607 1081.45 251 233 215
274.326 185.881 1063.42 88 56 46
279.307 186.198 1035.43 255 249 250
204.18 260.163 1137.9 227 222 187
373.303 352.41 1195.33 162 175 172
-294.643 400.205 1160.25 255 253 243
-353.115 418.48 1174.47 255 253 253
469.685 464.602 1301.53 89 110 124
419.057 549.292 1274.97 254 255 255
419.057 549.292 1274.97 254 255 255
316.523 -150.014 1113.81 51 81 85
357.417 -23.806 987.37 112 147 116
106.191 41.051 1019.16 97 75 78
-497.581 66.8318 1018.61 254 224 210
269.598 73.5331 1027.73 130 101 69
-360.869 83.0789 1140.62 124 109 88
-330.95 89.2026 1256.94 46 31 16
116.5 83.667 1027.16 255 250 247
219.085 99.8161 1038.62 119 88 54
277.167 103.804 1074.33 229 124 111
191.772 117.414 1049.41 139 46 39
271.148 118.305 1058.99 232 220 215
183.206 130.011 1074.33 254 251 251
143.765 135.626 1056.54 191 184 191
154.584 175.274 1118.64 238 236 238
-566.307 257.568 1093.96 147 124 102
-566.307 257.568 1093.96 147 124 102
-251.832 326.676 1260.41 151 150 132
-294.042 364.933 1167.24 122 74 42
380.142 488.833 1281.13 47 89 125
-255.934 567.932 1313.33 94 119 106
241.329 -127.75 1103.57 194 181 161
179.309 -63.6448 971.231 43 29 26
-354.226 -51.9932 1222.56 60 50 36
383.015 -29.0393 997.01 119 149 114
331.2 70.3573 998.366 244 242 223
-524.089 114.545 1111.04 255 253 248
-563.687 131.636 1036.28 250 253 251
-563.687 131.636 1036.28 250 253 251
-505.622 161.048 974.676 235 201 176
-309.205 256.125 1091.45 95 65 48
-568.254 279.643 1108.45 254 254 255
378.462 -45.0348 962.894 171 171 160
-556.76 91.4607 1069.59 235 164 140
317.78 88.6072 1007.08 168 155 119
-462.625 147.061 1031.95 147 111 90
-380.985 168.04 1058.85 245 249 249
-380.985 168.04 1058.85 245 249 249
-449.126 173.71 1027.09 119 78 62
-449.126 173.71 1027.09 119 78 62
448.731 215.666 1103.51 74 67 55
-308.732 236.389 1172.66 67 52 44
-358.034 14.9477 1152.9 157 150 131
-341.402 22.337 1228.81 72 67 64
108.592 22.0044 1024.72 50 32 27
108.592 22.0044 1024.72 50 32 27
-506.403 110.633 1021.32 253 253 244
-393.449 76.1434 1044.09 230 202 162
289.691 107.595 1048.51 247 244 240
-527.216 133.038 1020.61 211 137 111
-448.651 157.605 1091.57 238 202 178
-278.177 270.502 1336.27 66 58 56
-337.777 249.344 1097.38 251 248 229
-380.842 351.633 1138.05 251 254 250
-38.2187 -152.357 567.271 97 69 49
-371.509 -48.6736 1234.15 97 80 61
-406.764 26.8185 1022 221 188 152
396.048 72.7533 1030.4 245 250 231
378.952 -53.0853 991.83 144 169 133
-380.204 486.463 1190.47 79 77 74
-380.204 486.463 1190.47 79 77 74
-344.296 161.967 1251.3 75 60 46
-357.906 284.26 1033.8 252 254 251
