474.212 -550.484 1606.7 66 49 29
-680.241 -768.122 2650.86 75 79 64
511.292 -244.836 1110.05 74 57 45
-161.97 -135.964 629.114 66 60 41
484.404 -229.456 1067.45 203 194 179
516.61 -191.802 1177.79 107 94 86
518.394 -167.032 1187.21 210 200 181
525.775 -166.823 1221.07 110 100 79
503.331 -162.861 1210.83 171 150 132
629.938 -154.124 1206.54 231 252 238
-134.349 -112.095 1094.14 147 146 133
-141.197 -80.1825 1025.35 83 61 52
-320.102 -75.3151 1149.5 33 24 13
24.4779 -56.8531 1106.38 255 248 222
24.4779 -56.8531 1106.38 255 248 222
575.163 -42.3876 1283.09 176 174 160
-60.6005 -11.8651 1058.86 255 245 233
516.114 -2.4466 1279.88 209 217 179
516.114 -2.4466 1279.88 209 217 179
12.6769 6.79608 1107.89 255 249 229
-164.568 48.278 1020.64 110 59 53
20.6724 54.4459 1131.84 255 235 228
529.272 70.4796 1376.2 157 148 139
-61.7019 78.557 1098.58 245 229 214
484.039 146.805 1364.36 143 173 167
-106.326 119.474 1086.78 247 232 210
80.6377 170.077 1211.7 236 223 202
558.989 249.604 1407.33 226 243 242
-58.239 220.597 1110.59 104 79 66
-161.199 240.002 1118.92 110 90 93
-355.735 -387.187 1314.2 77 81 66
463.66 -346.35 1329.34 223 183 168
-705.293 -403.178 1966.4 59 63 57
-113.287 -155.344 1208.24 124 121 120
-113.287 -155.344 1208.24 124 121 120
466.11 -152.791 1193.97 171 166 144
-43.5238 -68.8681 1033.62 255 195 157
450.027 -82.1773 1261.42 35 19 14
466.519 -73.207 1304.29 152 139 128
466.519 -73.207 1304.29 152 139 128
18.8976 -47.6366 1090.38 140 113 75
-170.782 -9.50854 1016.25 251 253 250
-68.4541 -7.86243 1061.14 255 255 254
-214.865 -3.78619 985.562 239 250 245
487.656 7.18905 1251.69 165 167 149
-217.932 7.66242 1013.07 128 113 100
566.036 54.0955 1270.39 247 253 249
483.631 115.535 1437.41 19 40 38
-36.1941 111.772 1106.21 250 250 239
-47.8985 115.868 1097.87 248 241 233
526.424 169.84 1505.81 60 82 85
558.678 166.913 1425.04 143 177 173
-191.371 128.171 1062.39 115 86 59
656.515 207.974 1469.1 241 255 254
-152.063 175.096 1043.77 254 251 253
-191.061 197.547 1108.25 244 250 250
64.7054 227.631 1241.84 213 134 92
-116.376 210.118 1094.05 64 46 40
-58.8153 244.443 1189.01 244 244 211
-153.999 290.252 1133.02 61 38 26
-153.999 290.252 1133.02 61 38 26
-124.082 300.609 1162.39 22 21 23
-124.082 300.609 1162.39 22 21 23
-166.089 298.536 1148.49 255 251 242
-166.089 298.536 1148.49 255 251 242
-1086.58 -630.615 2097.6 68 83 75
-331.904 -494.66 1740.21 156 154 151
-676.187 -384.071 1496.24 55 72 63
-978.228 -461.436 2130.87 20 18 15
479.205 -224.182 1164.79 150 150 131
439.97 -223.868 1191.81 128 126 108
448.089 -194.951 1174.2 255 249 250
448.089 -194.951 1174.2 255 249 250
495.214 -191.535 1157.69 214 193 167
605.711 -191.511 1164.16 250 255 240
-1397.84 -307.906 1998.85 1 3 0
-1826.32 -361.807 2657.22 4 4 2
495.479 -150.168 1226.35 111 100 73
494.892 -124.519 1200.71 169 119 105
-112.135 -82.6066 1018.45 221 205 202
-112.135 -82.6066 1018.45 221 205 202
-209.917 -64.3033 1069.65 144 108 79
-175.216 -62.091 1038.54 213 198 166
-184.906 -55.1343 1007.3 211 189 163
-184.906 -55.1343 1007.3 211 189 163
-200.816 -50.3495 1024.42 205 183 154
659.592 -54.47 1248.78 120 124 118
0.512522 -29.952 1095.69 255 254 220
5.19928 -9.2493 1114.67 215 193 160
-226.007 0.795265 999.611 75 64 53
-140.26 10.5904 1030.01 188 109 95
-168.11 28.3872 1030.36 255 247 231
507.667 76.3548 1353.87 45 34 31
618.508 96.1424 1386.7 237 253 252
618.508 96.1424 1386.7 237 253 252
636.569 136.983 1394.89 181 194 194
-199.193 132.249 1054.58 253 255 233
567.433 200.773 1527 55 89 102
-168.699 207.638 1082.85 167 91 71
-165.889 243.87 1093.74 252 254 255
-137.811 338.083 1105.69 209 202 184
521.136 -617.702 1784.51 91 67 54
-141.921 -667.185 2075.41 107 109 104
391.828 -313.899 1323.37 158 155 152
367.41 -272.078 1194.75 21 23 19
590.469 -230.42 1173.9 89 91 82
644.601 -159.32 1293.09 255 255 245
-1385.86 -263.986 2260.24 56 59 52
-146.88 -86.1466 1032.93 76 51 38
-52.4648 -79.8843 1038.83 79 37 19
654.315 -81.074 1238.11 86 93 86
589.297 -63.2841 1321.17 253 255 240
602.252 60.3824 1352.78 244 255 251
616.565 228.917 1438.17 229 253 251
616.565 228.917 1438.17 229 253 251
-113.792 323.459 1162.01 48 41 42
-113.792 323.459 1162.01 48 41 42
410.564 -175.341 1141.89 31 21 17
387.047 -91.1166 1262.71 96 97 83
387.047 -91.1166 1262.71 96 97 83
-94.4716 -10.6544 1048.89 248 237 237
-167.344 32.1212 1025.45 253 248 240
-103.723 130.816 1116.89 251 253 250
468.309 206.656 1381.5 64 63 56
-176.347 176.036 1096.49 138 52 44
-173.816 187.91 1044.88 230 233 230
-149.487 334.665 1142.45 86 77 68
107.205 -683.388 2039.79 74 76 72
31.8129 -560.908 1724.24 78 76 71
31.8129 -560.908 1724.24 78 76 71
-504.501 -571.121 1777.62 105 102 88
-985.297 -432.201 1739.22 129 151 142
-1012.09 -393.811 1765.13 72 76 69
625.699 -195.116 1192.76 249 255 249
564.838 -64.7155 1282.59 252 247 222
-139.753 -21.8981 1027.26 214 133 113
-162.798 -17.4976 1016 249 238 236
-221.055 25.4054 1002.67 244 226 217
-76.8209 31.6013 1075.99 109 73 56
-76.8209 31.6013 1075.99 109 73 56
-76.8209 31.6013 1075.99 109 73 56
12.2958 32.2457 1121.57 247 248 234
-116.207 60.9413 1051.37 236 206 187
-150.703 74.9262 1041.54 227 184 147
-126.735 168.979 1101.88 170 105 98
-126.735 168.979 1101.88 170 105 98
680.418 -18.3381 1310.67 126 154 122
-238.061 1.91768 1010.62 110 66 54
-206.648 65.6379 1034.16 248 249 247
-206.648 65.6379 1034.16 248 249 247
54.5626 112.199 1181.47 249 246 235
-100.096 186.89 1127.06 255 249 243
631.059 -79.179 1208.27 141 151 143
-142.818 23.9196 1043.35 199 111 90
-39.6588 36.6647 1111.84 233 188 150
-70.7778 273.401 1191.45 161 180 127
-910.817 -464.883 1677.39 78 83 79
-910.817 -464.883 1677.39 78 83 79
558.947 -283.129 1158.8 81 74 74
449.159 -267.718 1111.86 116 106 96
-807.148 -361.835 1970.15 78 62 44
-85.9814 -67.0301 1041.63 240 170 147
74.3213 62.609 1157.56 143 139 121
-725.929 -418.555 1527.11 136 148 141
326.475 -261.918 1297.79 53 45 33
639.817 -139.641 1320.33 251 250 245
602.102 -67.1996 1248.09 253 252 249
602.102 -67.1996 1248.09 253 252 249
579.013 104.125 1349.72 221 243 240
401.844 -230.138 1186.82 48 44 37
442.678 267.203 1517.43 200 200 191
-145.317 624.907 1513.74 190 190 185
567.705 -281.481 1255 83 68 61
-855.646 -319.883 1809.25 55 45 32
616.911 -114.86 1321.04 253 253 248
-55.8011 425.947 1299.76 54 53 50
-70.7511 70.1303 1065.02 147 80 71
-70.7511 70.1303 1065.02 147 80 71
