-83.6061 -391.504 1367.62 140 113 83
55.0669 376.456 -1565.9 83 65 40
-1324.18 -261.306 2032.32 62 66 58
129.636 -48.8169 979.005 195 183 163
269.299 -15.0128 952.929 54 45 46
-364.006 -18.8043 1171.62 40 25 6
-361.605 0.331125 1246.17 144 139 124
-525.569 16.154 1056.96 93 91 69
-399.691 19.6138 1015.26 201 179 147
-512.565 45.8928 1036.18 254 236 226
-530.123 49.7809 1053.08 169 131 117
381.416 95.8447 1068.81 12 13 5
129.075 95.016 1034.36 91 74 71
260.344 100.55 1093.04 144 83 55
-481.987 107.41 1187.8 55 8 5
-481.987 107.41 1187.8 55 8 5
-366.279 152.117 1104.01 252 250 230
-372.442 151.706 976.243 37 7 1
-375.735 156.354 1004.85 253 226 216
283.53 191.012 1122.45 249 238 222
451.094 210.624 1137.48 189 206 194
-348.893 243.066 1157.09 255 247 225
-310.248 307.084 1334.71 111 91 81
-318.415 296.486 1131.97 255 240 221
479.411 366.901 1281.35 135 143 137
-350.08 335.521 1155.79 189 156 119
-250.059 453.217 1435.7 36 31 22
-451.417 429.724 1238.93 231 248 216
-316.848 443.561 1276.35 254 252 243
408.886 484.265 1299.13 116 134 143
421.922 524.268 1323.65 244 255 255
-710.288 754.725 1856.68 241 243 236
-195.409 -459.162 1684.68 140 117 98
305.397 -118.683 1040.16 59 71 74
305.397 -118.683 1040.16 59 71 74
289.654 -97.7439 984.967 39 64 64
331.126 -57.5729 990.511 236 232 220
-374.95 -27.8682 1193.9 110 104 80
277.44 -9.14375 991.225 211 190 182
-351.761 1.14869 1242.73 56 65 51
-358.58 31.7568 1202.49 32 29 26
416.217 33.4004 1019.44 208 219 198
246.22 52.5453 1075.59 92 65 54
-411.812 71.2613 999.831 255 228 195
-555.007 79.5216 1117.09 255 222 207
236.816 76.4451 1043.66 196 192 152
166.036 76.286 1035.7 173 153 131
274.196 96.6081 1055.69 178 109 84
298.286 128.384 1065.74 253 248 239
-395.159 152.316 1098.77 253 252 229
175.974 166.275 1057.14 255 248 253
-307.435 226.427 1335.35 39 20 7
266.966 207.661 1106.78 255 250 235
-599.024 221.556 1094.71 255 255 235
301.332 247.341 1148.62 245 242 213
309.226 247.613 1135.59 168 173 133
299.136 270.74 1117.95 253 255 231
393.265 275.644 1118.15 179 182 176
-565.364 312.386 1193.09 254 251 244
-565.364 312.386 1193.09 254 251 244
353.66 332.485 1215.17 185 165 148
-420.522 383.395 1203.47 249 255 238
327.356 441.901 1379.56 200 226 238
327.356 441.901 1379.56 200 226 238
-372.275 388.154 1197.86 254 253 233
490.138 483.81 1347.93 84 109 116
340.096 520.088 1290.42 198 230 229
303.023 -135.313 1085.24 228 199 196
185.331 -113.871 1088.29 76 19 7
185.331 -113.871 1088.29 76 19 7
4463.82 494.748 -5991.59 60 61 46
-426.956 -51.4264 1183.64 51 75 77
365.525 7.44408 970.308 254 254 255
-372.79 9.70252 1079.97 151 132 116
251.49 7.14142 1018.2 183 166 145
-511.637 32.1181 1057.72 231 226 208
-350.187 47.4791 1269.95 186 156 135
-502.737 40.5657 1057.42 194 136 112
-380.072 79.9759 1539.89 46 38 26
143.548 74.2049 1045.76 76 47 38
417.366 81.4942 1052.31 176 200 167
237.342 91.1134 1045.16 186 188 143
406.013 160.644 1121.31 49 46 45
296.266 197.089 1125.77 122 68 65
-423.478 205.072 1122.87 237 228 208
257.801 247.452 1165.85 239 237 232
259.78 244.536 1118.4 148 142 114
-455.816 242.62 1062.33 234 204 189
214.019 265.558 1157.99 221 213 183
308.555 245.672 1041.39 255 254 229
-528.494 345.093 1217.98 201 179 173
305.587 421.555 1360.22 76 114 132
512.462 467.149 1379.3 128 150 154
-591.193 461.757 1283.34 127 120 109
448.216 581.772 1347.19 254 255 254
317.264 -148.006 1101.23 44 81 80
117.668 -108.405 1149.9 189 179 178
-521.717 15.1772 1103.83 39 32 36
114.903 41.6734 1045.47 108 84 90
-582.489 45.9963 1087.55 213 202 180
-523.625 70.8312 1075.97 248 210 197
277.879 74.3103 1040.25 126 101 80
235.466 104.317 1080.72 111 85 57
282.03 103.943 1075.18 218 122 96
-381.804 108.267 1062.72 153 102 86
282.699 119.873 1081.89 228 228 216
197.986 118.307 1053.54 154 69 44
191.293 132.026 1087.88 253 254 249
-588.439 139.036 1086.13 255 251 244
-524.511 223.612 1189.79 254 249 239
-360.153 219.959 1122.99 223 160 123
-360.153 219.959 1122.99 223 160 123
188.193 265.942 1273.72 83 72 53
162.327 255.495 1105.34 88 76 73
-600.686 276.687 1163.59 145 117 91
-285.161 378.01 1203.85 153 146 133
-564.855 434.757 1244.95 247 249 244
-564.855 434.757 1244.95 247 249 244
139.503 -134.726 1067.07 90 87 76
139.503 -134.726 1067.07 90 87 76
243.033 -126.079 1094.07 207 180 165
181.022 -63.195 952.179 31 27 19
388.887 -47.2977 977.262 193 194 176
-364.829 -53.6875 1267.69 56 49 38
-361.004 39.8567 1222.94 61 52 47
-641.163 120.733 1088.49 247 254 250
161.461 177.099 1129.84 245 241 242
306.613 217.087 1095.33 171 170 165
-333.567 282.17 1194.3 129 84 64
-588.01 292.185 1148.65 253 252 251
-583.23 388.317 1250.16 254 252 249
-328.103 75.6773 1291.08 76 64 53
-582.407 96.5636 1121.31 233 157 136
-390.398 174.663 1094.16 252 240 230
-390.398 174.663 1094.16 252 240 230
-495.019 195.147 1142.5 140 97 72
-495.019 195.147 1142.5 140 97 72
-320.047 249.405 1226.05 68 50 49
299.053 261.993 1120.79 233 228 213
738.252 599.356 2218.05 97 86 75
-555.902 411.512 1201.48 253 252 251
-1173.18 -61.803 1626.56 75 76 64
-364.657 16.1299 1181.19 147 140 127
-364.657 16.1299 1181.19 147 140 127
-351.671 23.7186 1272.51 72 66 57
116.577 22.6593 1045.11 69 58 57
116.577 22.6593 1045.11 69 58 57
205.787 65.8978 1017.12 111 90 78
248.369 122.04 1066.76 220 185 169
-556.182 140.074 1081.41 203 129 113
-625.097 161.46 1106.37 254 252 252
265.701 200.209 1076.28 255 250 234
398.354 275.258 1135.45 206 209 199
-533.442 308.386 1184.3 255 252 253
302.379 110.59 1073.68 233 229 224
-538.997 118.543 1090.71 254 255 251
-454.877 162.207 1112.1 237 206 176
-454.877 162.207 1112.1 237 206 176
-293.094 289.962 1417.5 70 60 57
-357.831 269.581 1176.57 247 241 215
-293.54 395.838 1511.9 149 143 129
-54.5684 -301.879 1112.01 97 70 47
-381.134 -48.243 1268.41 89 81 63
-410.733 27.7029 1036.21 241 217 185
412.795 74.634 1059.57 226 230 215
154.693 106.675 1050.08 135 94 74
251.606 215.517 1089.19 168 148 104
251.606 215.517 1089.19 168 148 104
379.164 -52.2647 983.419 151 161 122
-350.374 167.406 1280.63 70 59 49
-365.144 294.205 1060.06 252 255 250
