-520.627 -36.828 1403.69 174 185 177
-388.205 -28.7064 1468.63 128 114 94
-388.205 -28.7064 1468.63 128 114 94
-530.629 9.84247 1406.45 152 116 67
-304.983 11.2723 1535.12 50 56 61
-500.25 36.3632 1391.24 196 168 139
-466.124 70.1713 1455.38 46 36 32
-459.553 53.6001 639.975 103 110 106
-109.227 64.7944 956.453 245 237 226
-153.458 76.3699 958.157 206 197 197
-153.458 76.3699 958.157 206 197 197
-278.619 95.859 1007.05 70 68 45
35.2649 99.7115 978.687 220 225 215
-26.6192 86.2689 841.507 22 42 53
21.3675 92.6068 870.61 234 237 231
15.7519 88.3572 817.102 202 201 190
-188.233 124.531 831.079 216 248 245
74.4785 160.97 930.397 21 19 13
129.969 174.626 982.2 204 164 157
-131.515 177.211 793.579 117 111 101
-144.549 194.834 816.728 240 243 232
88.4023 245.441 955.055 54 27 13
25.3519 257.563 897.905 167 130 114
25.3519 257.563 897.905 167 130 114
36.0075 279.002 935.47 35 8 0
48.7869 313.751 940.694 85 98 106
-159.111 352.948 995.104 215 213 206
138.492 371.407 1036.05 97 49 41
-44.2133 325.011 850.11 51 46 41
96.7286 505.337 1071.43 168 178 167
-347.358 -79.9715 1556.16 47 40 27
-373.863 -68.7634 1477.4 162 117 101
-485.279 -27.099 1415.14 44 33 23
-517.358 -19.5271 1441.42 51 36 26
-334.972 -21.5017 1564.39 165 207 200
-322.618 35.5292 1497.54 54 23 14
91.9116 36.0702 915.962 21 28 19
-43.3798 40.2255 986.281 105 98 92
-183.254 62.7593 1024.68 114 91 81
-150.104 82.5673 925.402 81 50 52
-231.214 103.19 906.807 58 58 58
-326.205 145.226 1225.96 92 92 84
-145.843 108.116 866.95 74 106 101
-166.064 122.743 844.856 208 245 236
-105.71 183.269 813.832 67 70 74
-147.775 184.301 805.209 248 249 232
47.068 211.888 913.706 149 102 69
-111.947 190.968 802.107 35 29 24
-97.7683 195.791 817.292 40 41 42
-107.652 223.265 858.416 189 162 152
-90.2108 235.995 838.949 209 207 201
-161.302 278.52 949.559 210 210 203
54.0206 281.954 926.715 46 58 80
54.0206 281.954 926.715 46 58 80
-29.0165 280.916 878.267 197 194 184
179.777 344.12 1042.54 65 38 30
127.712 339.417 1020.73 128 151 146
-106.241 313.748 858.111 255 255 249
-22.7037 321.811 875.271 254 250 247
-82.2892 337.09 862.166 147 134 128
68.679 383.335 966.366 151 98 90
104.367 492.516 1074.38 46 40 33
84.6447 473.595 999.837 180 188 173
-25.0372 94.0704 -340.912 112 104 90
-405.329 -129.285 1583.24 69 96 93
-544.474 -104.413 1561.08 143 143 139
-335.877 -91.0411 1477.96 127 132 116
-318.211 -66.594 1540.24 62 48 41
-432.899 -57.8584 1478.36 29 20 7
-453.976 -36.7948 1444.67 185 157 141
-517.957 -9.63879 1402.45 179 159 125
-39.3352 -8.84732 1106.19 72 65 56
-465.107 13.8129 1440.95 57 38 20
-20.9686 14.3209 1063.04 140 100 84
-109.691 19.0746 1085.03 222 232 232
-464.678 34.5102 1431.68 192 189 180
57.053 87.4411 886.621 151 113 84
-235.368 105.454 929.994 63 61 57
-450.806 219.074 1410.9 254 252 235
-211.411 136.622 896.35 84 89 81
135.293 183.077 985.722 35 18 11
-164.622 144.98 779.064 249 253 239
-96.6395 159.927 781.561 29 41 38
-62.8841 194.963 881.223 164 163 160
-469.673 477.687 1720.89 253 253 249
-80.9413 242.047 868.641 34 27 26
151.827 294.896 1024.8 166 119 98
151.827 294.896 1024.8 166 119 98
10.9673 278.697 909.864 223 215 215
58.9404 290.399 924.415 133 180 174
58.9404 290.399 924.415 133 180 174
66.4878 305.045 941.898 35 63 74
121 367.279 979.294 190 153 130
112.897 514.905 1061.86 71 95 97
-27.3426 -68.5164 338.693 189 186 174
-355.199 -75.1845 1525.81 54 45 37
-474.425 -32.8634 1438.36 53 43 25
-131.011 90.0699 886.492 148 198 189
104.323 249.055 961.505 191 167 150
-137.621 219.931 810.38 251 252 244
-131.859 240.375 823.401 242 249 238
-32.4664 319.063 880.438 48 41 33
-79.3269 380.592 902.465 52 46 47
-387.941 -122.18 796.486 178 190 183
46.5896 95.9671 897.89 36 40 35
-22.4085 227.517 882.522 157 80 53
166.811 319.7 1029.63 87 45 30
126.755 355.382 1002.93 106 65 65
-139.416 196.854 -632.732 86 86 82
-393.156 -66.3579 1471.15 76 57 48
-293.521 44.9595 1567.52 62 48 39
109.31 316.986 980.029 86 73 72
-97.4164 93.3191 -362.65 72 66 59
-418.613 -6.46157 1472.2 182 180 167
89.8668 216.521 967.392 77 49 41
43.2937 254.1 931.178 62 41 31
82.7351 266.853 956.882 66 51 52
160.633 368.799 1036.44 190 152 136
-352.425 -83.0825 1587.49 47 40 27
-370.017 48.1096 1507.07 208 182 167
141.295 251.482 995.983 62 50 49
-320.546 -170.626 1054.3 105 107 85
121.985 194.151 974.884 70 47 38
43.5864 208.364 920.995 190 146 118
71.3353 253.492 952.112 65 49 42
71.3353 253.492 952.112 65 49 42
-109.974 235.568 820.4 57 49 49
23.699 28.1382 -220.961 86 81 62
-127.706 156.665 795.005 49 42 42
142.79 304.722 1003.62 115 82 77
-43.489 30.1641 -120.2 159 158 155
-103.99 91.7965 1130.06 175 172 166
136.269 123.524 938.011 187 173 155
-86.2194 272.016 833.735 61 59 55
-16.8333 178.444 826.706 60 53 47
