131.058 119.52 -565.927 167 164 159
-233.141 -65.9339 457.42 101 97 79
-66.0926 -120.008 1143.68 134 126 130
-27.2563 -116.543 1121.16 84 81 80
-468.673 -95.3867 1469.51 118 140 139
-534.5 1.41188 1232.47 28 18 5
-413.092 33.1698 1465.52 13 13 12
-374.22 27.3862 858.951 144 121 106
-514.783 45.3997 1239.28 41 25 11
-507.031 45.9437 1199.65 137 110 83
-530.293 88.8195 1276.75 76 44 30
-104.336 108.856 1141.74 208 198 159
-450.706 165.182 1435.38 23 4 0
-449.657 175.198 1453.83 202 172 157
-744.076 177.482 1444.27 180 169 157
-450.045 187.592 1472.34 77 41 32
-449.527 198.836 1500.65 196 178 170
-644.514 256.276 1816.91 45 33 25
-293.874 207.924 1024.94 114 74 47
-65.2006 -59.5046 206.159 147 146 134
6.39005 16.8021 -71.9261 98 100 94
-175.71 -58.5862 282.747 112 115 107
-177.615 -52.5211 299.01 103 111 107
-188.331 -53.8034 325.681 107 112 107
-204.262 -59.7809 386.206 98 94 74
-41.6867 -172.834 1268.81 76 61 54
-195.755 -47.7574 357.218 91 98 90
-144.908 -31.7988 251.248 102 107 95
382.247 108.58 -874.376 168 171 162
33.9458 -81.757 1025.58 81 73 59
-731.057 -40.6212 1281.29 255 253 238
-731.057 -40.6212 1281.29 255 253 238
-588.874 -3.9232 1305.28 116 67 28
-713.039 5.81761 1267.91 255 254 235
-63.1733 11.8516 1038.46 114 103 85
-411.406 31.9161 898.237 165 146 133
-582.287 41.2774 1264.82 255 249 240
325.833 56.5584 1290.48 74 55 40
-587.3 63.0341 1296.57 255 237 219
-568.383 78.2352 1276.18 255 250 232
-548.563 109.471 1431.78 114 110 100
127.509 84.8141 1037.76 252 252 242
-95.4778 104.3 1152.26 140 108 92
-516.83 133.455 1301.43 91 63 44
-51.4608 116.93 1132.4 255 255 232
324.154 137.15 1274 77 56 50
159.965 122.121 1062.16 195 209 174
-490.88 168.606 1358.44 155 150 141
-490.88 168.606 1358.44 155 150 141
-464.682 224.095 1363.75 221 210 206
-464.682 224.095 1363.75 221 210 206
-440.168 264.306 1327.04 96 63 46
-23.6155 35.7054 -87.0638 159 162 155
-229.633 -116.54 477.651 54 51 45
87.824 51.4383 -234.342 101 102 95
-22.1143 -127.761 1205.46 51 36 36
-524.931 -81.5689 1281.87 181 156 135
-524.931 -81.5689 1281.87 181 156 135
-155.902 -40.4518 1066.52 58 52 47
-775.371 -37.9474 1266.73 255 254 237
-550.358 -35.6358 1345.72 61 49 35
-551.346 -7.58078 1350.42 177 165 151
-535.852 -3.0507 1354.67 52 37 35
-700.501 4.40579 1287.91 229 156 133
-357.469 18.5461 1290.74 20 22 20
114.785 33.7227 1026.08 120 138 122
94.9912 31.0659 916.441 121 141 125
-783.413 73.7414 1397.28 255 251 249
-580.63 102.956 1326.14 251 251 241
24.1265 97.1557 1082.27 166 143 118
30.2638 107.244 993.633 245 222 202
152.249 157.848 1058.86 249 251 246
152.249 157.848 1058.86 249 251 246
-708.24 215.654 1407.81 255 253 255
-704.378 237.11 1505.89 252 250 254
-107.937 8.78258 1080.87 146 143 127
-668.763 19.6066 1234.78 252 249 255
-604.409 96.3677 1241.97 147 89 70
-651.774 118.359 1324.23 254 250 238
140.324 107.127 1071.8 255 255 252
-589.745 146.605 1377.07 221 187 166
-679.407 156.488 1404.1 252 253 254
20.7535 119.953 1066.02 221 152 135
-574.507 217.957 1423.53 215 174 165
27.1627 28.0375 -157.168 96 86 74
-143.471 -34.5831 251.521 172 177 170
78.4412 -101.227 1038.3 93 88 89
-624.553 -101.07 1336.16 57 85 90
-609.515 47.6644 1241.3 251 246 243
-43.4485 77.6241 1106.97 144 126 103
-602.371 154.564 1355.82 251 251 252
79.2065 118.237 1041.47 196 194 151
215.577 141.597 1118.1 169 137 117
215.577 141.597 1118.1 169 137 117
-30.2502 -58.4206 1047.55 68 57 54
-588.229 -61.5251 1329.57 52 42 31
-588.229 -61.5251 1329.57 52 42 31
-443.165 9.46304 1416.24 33 21 16
-784.537 56.2956 1389.09 253 253 252
60.9905 58.1976 -233.276 146 154 148
-604.119 -41.1505 1236.81 235 225 203
-475.21 -64.6328 1502.55 61 55 57
-485.872 -7.46608 1447.29 183 160 147
-485.872 -7.46608 1447.29 183 160 147
-439.048 168.8 1483.31 186 151 135
46.2698 135.249 1103.51 253 253 248
41.3939 129.693 -414.09 159 167 163
-490.892 -143.1 1455.05 36 35 24
30.364 -22.0336 975.165 117 100 97
293.595 38.6229 1266.99 92 69 62
-576.303 121.256 1358.13 250 245 228
151.128 111.42 1044.22 252 253 243
-553.332 -38.2072 1267.13 59 49 38
-81.9734 -40.2781 1058.21 233 235 236
-81.9734 -40.2781 1058.21 233 235 236
-633.11 10.4346 1234.47 252 248 243
-532.317 171.819 1235.08 248 248 228
