-83.9714 -282.93 1213.87 29 23 25
410.235 -240.783 1775.69 233 220 210
-134.932 -23.5381 324.204 65 60 50
525.676 -100.763 1625.7 245 242 215
68.8849 4.26078 1244.5 255 248 221
20.9393 26.1619 1175.21 255 246 228
34.7832 41.1565 1223.73 255 245 227
574.113 79.9533 1819.96 186 189 165
-198.603 67.6691 1160.76 48 10 1
108.623 91.4087 1312.53 254 244 231
-68.6998 152.826 1111.79 170 163 164
381.951 264.177 1803.87 32 48 46
69.1237 218.017 1282.46 166 137 117
465.287 343.012 1842.6 205 233 253
-184.189 235.632 1247.48 171 120 102
-184.189 235.632 1247.48 171 120 102
-110.248 302.402 1281.77 116 98 82
-38.7854 304.333 1180.35 254 251 253
30.3915 330.481 1251.78 254 254 242
54.0836 345.055 1294.19 248 253 237
-198.609 513.122 1549.39 172 158 140
-93.5154 427.209 1233.83 112 86 62
30.8476 372.074 1049.54 27 32 30
-123.554 537.646 1499.81 233 229 218
-6.39493 447.772 1175.26 60 57 57
-25.014 537.722 1097.72 68 96 87
-483.971 -235.202 1182.21 170 165 154
-1086.73 -442.351 2347.6 124 119 103
431.573 -254.356 1738.36 206 210 211
574.851 -224.742 1773.14 97 96 85
458.252 -196.346 1632.99 39 27 22
540.737 -55.7047 1736.44 255 252 242
501.952 -22.9117 1750.18 255 240 241
470.808 -10.3958 1728.93 239 242 242
470.808 -10.3958 1728.93 239 242 242
114.562 49.5746 1314.88 176 146 128
-7.04387 41.7659 1022.95 215 123 105
-227.355 59.8358 1143.86 83 33 15
105.726 72.9379 1312.01 249 216 204
105.726 72.9379 1312.01 249 216 204
-59.0848 69.0765 1094.97 248 253 242
114.236 110.475 1327.43 255 250 233
373.216 156.28 1853.4 133 143 120
-118.57 101.043 1133.44 157 130 126
-118.57 101.043 1133.44 157 130 126
54.9554 127.782 1236.82 255 232 206
427.538 194.731 1623.18 242 254 253
124.531 183.983 1412.86 213 175 159
-85.9154 177.374 1135.42 227 199 183
435.095 311.737 1868.6 172 201 196
-66.3946 193.416 1143.18 83 65 54
-56.1037 200.696 1124.41 255 255 228
-56.1037 200.696 1124.41 255 255 228
-51.9688 221.543 1163.23 255 248 237
-51.9688 221.543 1163.23 255 248 237
483.37 403.629 1923.74 160 188 183
-112.019 264.396 1226 135 116 94
-107.028 297.498 1298.83 40 26 13
-107.028 297.498 1298.83 40 26 13
80.4359 298.914 1304.59 255 251 251
30.2646 329.067 1247.62 244 242 225
9.17918 372.598 1250.21 254 249 245
-176.134 438.996 1400.49 145 98 78
-3.65941 436.43 1216.32 139 118 96
-130.555 -545.07 2348.35 45 34 32
-650.614 -231.524 1303.58 138 134 121
205.057 -246.726 1588.65 123 61 22
541.049 -265.893 1805.64 191 226 225
81.3301 33.2641 -299.138 135 111 82
483.133 -136.485 1643.51 104 79 69
-5.78181 9.64685 -162.481 151 145 120
-256.867 11.642 1172.75 92 75 50
-47.1886 22.1871 1133.4 225 214 188
-47.1886 22.1871 1133.4 225 214 188
481.578 70.6416 1672.06 131 119 94
-35.7729 101.309 1136.47 160 121 116
509.931 164.465 1730.81 137 117 106
67.4797 161.799 1260.81 255 252 238
586.626 289.934 2139.79 132 169 170
-61.1861 162.657 1122.14 253 253 252
502.767 300.427 1797.2 175 202 200
412.917 315.663 1847.12 92 115 112
500.844 395.048 1868.1 168 194 190
37.5394 314.097 1269.73 225 176 170
-29.1772 346.21 1196.65 252 252 253
-31.7703 376.417 1220.32 253 251 253
-171.824 481.39 1426.66 162 153 134
-171.824 481.39 1426.66 162 153 134
-167.991 531.412 1527.45 7 3 1
527.992 3.23465 1728.75 150 121 108
517.897 34.477 1721 246 241 229
-164.865 45.4517 1162.45 78 40 28
595.435 122.787 1841.25 155 136 112
595.435 122.787 1841.25 155 136 112
-21.5958 111.197 1168.12 253 254 249
-21.5115 113.526 1217.47 253 254 249
32.9372 122.869 937.554 247 242 229
510.504 299.177 1892.02 241 252 249
100.77 230.112 1311.61 254 255 255
100.77 230.112 1311.61 254 255 255
548.652 356.956 2019.43 238 255 248
399.068 391.274 1869.99 60 77 70
14.0127 311.748 1212.84 129 89 86
11.9358 428.553 1249.74 86 71 61
11.9358 428.553 1249.74 86 71 61
-267.52 -160.706 1077.44 51 35 16
-786.798 -92.554 1143.73 130 142 137
-166.775 -42.2101 1341.75 114 84 69
-166.775 -42.2101 1341.75 114 84 69
-75.4781 33.8278 1080.15 202 187 167
-1.13783 49.3266 1150.61 232 145 121
-1.13783 49.3266 1150.61 232 145 121
-156.078 69.572 1160.46 53 39 34
458.208 212.144 1735.98 209 229 223
-106.274 169.93 1138.3 73 50 31
131.14 200.983 1304.07 250 250 237
-29.3814 204.347 1162.79 241 198 166
100.921 230.723 1313.88 254 255 255
4.71963 255.851 1199.13 139 80 74
4.71963 255.851 1199.13 139 80 74
26.3711 265.565 1227.42 246 255 255
115.609 330.925 1378.43 255 252 254
-37.4972 284.788 1165.24 251 254 254
-153.564 373.191 1414.77 148 88 59
-46.7792 340.412 1154.26 102 72 69
-25.3642 435.672 1194.61 39 30 28
-305.978 -127.849 871.346 72 77 72
-448.599 -165.154 1200.29 67 74 68
-601.561 -106.801 943.412 72 75 70
38.9308 -48.998 1212.83 72 113 122
-253.018 22.8453 1175.12 120 87 69
-161.198 40.1979 1160.22 94 69 52
-5.18694 99.1889 1180.14 230 146 117
366.098 251.122 1791.44 94 108 109
-146.082 253.072 1193.66 149 105 79
-146.082 253.072 1193.66 149 105 79
-15.311 417.159 1226.32 255 253 253
-89.9124 -249.955 1539.62 51 40 29
393.623 -234.415 1743.11 203 187 179
570.964 -233.941 1846.53 104 103 98
-665.265 -95.419 1020.15 125 139 131
-57.2309 145.196 1116.31 255 249 251
-57.2309 145.196 1116.31 255 249 251
-155.924 184.816 1172.82 163 93 61
-68.2589 -50.9858 1278.57 64 94 101
-68.2589 -50.9858 1278.57 64 94 101
38.6311 11.9333 1186.42 245 236 210
-72.3944 283.019 1140.87 75 36 25
-775.655 -85.2357 1074.87 78 68 56
-775.655 -85.2357 1074.87 78 68 56
-1.88109 -31.77 1213.8 83 115 123
401.302 383.636 2049.3 72 64 56
-395.553 -188.931 1035.73 132 136 131
-111.301 70.6976 1121.96 61 42 29
-100.007 197.555 1162.03 79 57 41
-397.89 -245.951 1022.13 26 18 14
255.555 -134.629 1757.87 64 50 35
56.9941 520.83 1329.35 77 77 72
512.299 -19.9253 1644.85 207 197 197
436.493 130.641 1734 49 42 36
323.092 50.7805 1587.26 71 89 54
