225.708 -97.8568 1963.88 64 75 41
404.814 -82.8768 1793.77 151 146 125
29.5957 -0.5297 1301.47 255 250 224
185.07 53.6315 1665.2 148 136 108
307.751 180.896 1712.43 89 80 72
312.614 445.888 1953.87 159 188 183
35.1004 301.303 1231.26 214 205 198
-97.7694 309.825 1172.58 152 136 123
-165.123 362.691 1210.57 51 15 11
-93.8864 456.856 1249.83 36 26 10
-174.075 565.245 1442.55 7 5 2
70.1807 570.212 1366.54 58 56 48
62.2266 582.29 1347.29 39 37 29
652.083 -210.789 1002.35 86 84 86
635.488 -276.284 1404.23 96 93 91
-329.541 -79.5238 538.841 41 47 43
-973.997 -181.786 1522.68 58 58 49
-1301.99 -171.189 1816.42 66 65 51
197.305 -127.47 1673.51 161 169 152
315.324 -63.8071 1726.76 59 36 33
399.534 181.36 1837.55 177 161 129
376.57 202.705 1825.36 143 124 98
45.7777 193.314 1245.11 125 99 90
58.1955 210.3 1302.07 254 252 237
-49.961 206.605 1100.86 95 67 57
-102.194 319.151 1170.2 50 40 35
-711.646 -218.403 988.733 105 100 89
-728.747 -209.327 1024.68 78 81 76
-767.781 -187.999 1175.73 161 158 146
-476.094 -117.577 819.954 35 43 37
327.054 -89.3759 1660.71 107 85 71
95.9014 225.363 1303.84 255 253 241
-71.0169 191.874 1087.77 202 167 153
55.903 237.935 1262.33 203 182 164
215.923 347.527 1781.5 138 156 154
332.57 367.394 1881.52 243 255 247
-183.367 255.958 1163.93 170 112 82
320.059 422.318 1838.89 171 194 191
-108.446 333.103 1308.86 52 32 30
97.0793 342.822 1328.74 234 191 168
-108.555 370.233 1353.25 42 19 6
12.0652 331.553 1194.21 119 102 93
-9.35201 347.154 1186.77 227 150 123
-24.0719 382.02 1149.5 250 253 251
7.88508 447.609 1217.05 89 78 63
7.88508 447.609 1217.05 89 78 63
-10.69 464.266 1153.83 255 246 235
-202.347 -10.7428 1299.68 89 77 81
-202.347 -10.7428 1299.68 89 77 81
-10.2997 73.5213 1131.28 246 255 255
335.885 269.679 1903.95 233 244 241
75.6826 252.563 1314.49 254 252 243
-100.041 319.72 1118.46 139 127 122
-22.8029 328.5 1128.8 252 253 255
0.732561 381.274 1191.33 252 249 250
-21.9604 454.146 1154.97 19 9 5
13.8126 108.148 1159.68 255 248 255
317.187 220.045 1727.35 67 51 41
18.9702 156.341 1184.68 251 240 226
66.5294 209.233 1291.24 255 252 255
348.454 306.248 1824.89 249 252 250
-17.2685 217.313 1130.25 250 217 185
-27.8383 303.173 1137.43 254 252 250
-38.4844 349.657 1087.07 83 47 49
64.5667 479.563 1315.87 83 77 80
411.493 72.5656 1869.43 255 254 255
-13.0605 435.445 1196.57 250 253 251
358.546 -166.04 1701.21 164 157 148
-97.9753 -27.2108 1269.61 60 99 111
-97.9753 -27.2108 1269.61 60 99 111
-88.5408 130.428 1081.2 181 130 103
-88.5408 130.428 1081.2 181 130 103
-41.9128 162.057 1080.43 251 255 253
-137.118 323.544 1100.97 163 114 98
-13.6957 372.846 1152.49 255 251 255
-524.221 -142.268 980.616 111 115 109
-635.226 -133.901 1158.39 66 64 57
-157.438 214.944 1145.14 167 101 66
-38.6301 -288.731 1755.55 181 174 163
-10.2825 -7.79959 1156.2 48 97 110
-97.3719 23.4222 1092.27 173 139 119
407.288 101.463 1884.08 208 208 190
153.878 320.72 1518.23 86 79 67
-67.1495 308.415 1129.52 101 51 43
-127.745 348.561 1157.56 156 94 62
-246.616 121.174 1180.54 72 48 32
367.718 14.6487 1679.86 255 255 247
14.9991 82.9765 1195.45 253 255 255
