-464.477 -477.664 1656.88 86 90 92
-525.006 -367.021 1578.17 151 137 124
-525.006 -367.021 1578.17 151 137 124
521.242 -247.127 1435.39 30 7 3
425.709 -200.789 1362.91 217 214 206
-755.809 -164.724 1192.78 95 102 101
535.861 -196.948 1457.23 108 95 73
630.243 -207.062 1537.93 242 246 231
-764.892 -155.643 1169.89 87 104 97
570.516 -153.982 1477.24 147 132 110
520.074 -147.138 1461.28 251 239 214
428.765 -112.222 1423.45 41 16 7
472.031 -105.796 1431.2 109 99 95
421.742 -88.2511 1385.19 87 51 48
492.109 -92.3544 1440.68 134 122 91
-829.209 -78.073 1358.73 155 154 136
509.766 -72.0355 1470.52 164 125 112
407.008 -43.7864 1366.8 118 97 89
382.287 -31.0924 1541.33 121 121 97
612.214 32.1588 1601.91 197 198 165
104.009 126.707 1198.92 255 242 219
533.558 287.036 1707.73 189 231 239
533.558 287.036 1707.73 189 231 239
498.374 284.796 1612.92 42 75 87
4.09376 287.401 1158.14 243 251 233
-32.7875 318.791 1077.12 96 88 76
-16.9225 367.699 1186.24 253 249 247
-117.42 479.557 1425.6 158 153 146
-76.7895 374.965 1065.88 15 11 10
-636.717 -505.585 1486.4 78 86 79
-848.985 -397.688 1296.6 128 138 130
-848.985 -397.688 1296.6 128 138 130
-215.046 -257.252 1184.59 151 154 152
469.865 -263.21 1484.09 90 63 53
565.992 -201.686 1419.05 89 90 80
376.78 -209.07 1514.41 152 155 144
-731.994 -120.211 1114.4 56 73 64
660.463 -169.568 1635.75 134 142 123
434.838 -104.606 1424.54 178 158 151
-686.993 -61.7334 1189.05 163 153 129
660.671 -53.2254 1574.99 143 144 138
489.801 -46.1944 1506.48 250 249 245
489.801 -46.1944 1506.48 250 249 245
464.387 -21.4248 1506.39 48 26 30
409.951 -6.82694 1516.73 54 30 18
474.899 2.93291 1499.72 52 27 16
-159.316 20.7712 1038.01 45 26 10
-38.5774 25.2071 1060.08 208 120 101
-178.097 37.3582 1074.78 61 39 26
626.984 54.6545 1569.93 244 243 222
89.5624 44.5114 1187.62 255 234 213
-58.886 58.5116 1046.64 255 252 250
-58.886 58.5116 1046.64 255 252 250
96.9317 79.2476 1210.28 255 248 226
64.8545 132.008 1172.38 185 161 140
-103.913 137.663 1010.99 46 26 13
48.3224 158.274 1171.45 121 109 96
490.488 246.589 1673.12 161 190 184
-100.366 160.209 1055.41 74 62 53
476.311 267.457 1753.04 126 145 141
8.34538 196.584 1147.14 230 187 180
16.4499 202.781 1146.81 255 252 240
-207.793 222.64 1189.24 75 56 43
-61.9667 264.092 1100.13 141 108 100
-46.7679 310.444 1098.26 254 252 252
-38.8662 345.826 1115.76 255 251 242
-141.919 449.244 1357.06 15 11 6
-141.919 449.244 1357.06 15 11 6
-202.028 -140.946 818.457 147 110 80
-30.3619 -15.5814 47.2307 148 119 86
-583.529 -385.366 2340.78 141 115 91
-564.297 -191.622 1277.24 141 150 145
-890.955 -221.126 1525.5 74 82 75
-681.752 -188.086 1382.14 131 145 135
445.576 -166.811 1393.29 130 123 108
617.327 -146.679 1490.98 252 252 244
-1009.8 -114.679 1773.32 67 53 27
665 -107.345 1657.64 252 255 249
1.99225 -54.8852 1106.36 90 95 100
512.748 -71.2588 1464.81 171 134 123
556.622 -77.7461 1590.36 171 134 123
502.371 -57.6297 1461.75 255 252 251
-74.4876 44.8076 1037.76 253 255 251
-96.7393 47.9044 1038.07 247 248 242
103.297 63.6315 1201.56 200 146 117
582.048 96.8271 1547.47 152 138 112
-76.6751 68.7974 1045.5 233 252 246
467.237 192.706 1665.03 147 176 171
454.577 184.283 1435.92 91 129 145
589.569 261.445 1635.78 160 170 178
-90.6591 191.824 1041.45 138 107 93
442.978 310.025 1629.95 57 71 67
143.319 275.52 1277.66 255 238 207
-89.9331 244.511 1088.36 30 8 7
88.2205 343.129 1243.39 177 161 126
-40.1478 391.75 1099.29 239 227 207
-60.8233 398.071 1103.31 143 128 111
-955.451 -467.401 1477.68 40 45 34
-955.451 -467.401 1477.68 40 45 34
-601.64 -273.601 1027.85 59 59 52
-967.138 -376.784 1710.77 140 150 140
-623.417 -117.822 860.932 155 173 163
-754.996 -209.891 1533.13 126 136 127
443.547 -129.059 1418.73 38 22 13
-776.567 -55.5575 1238.3 35 45 37
38.954 -27.9866 1109.57 91 37 22
475.016 -16.339 1447.73 252 249 251
-72.9752 79.4592 1060.1 186 97 104
-72.9752 79.4592 1060.1 186 97 104
577.927 134.228 1593.75 253 254 247
-91.8142 89.8397 1039.68 139 96 92
477.335 136.009 1483.87 54 41 31
433.485 303.628 1598.34 57 71 67
-151.771 377.811 1270.02 86 58 43
102.373 382.591 1268.95 81 79 77
-15.5586 375.975 1152.96 83 75 74
-730.637 -387.035 1196.82 53 64 54
-928.305 -383.137 1532.7 132 143 135
-220.744 -295.831 1331.84 66 66 61
468.977 -136.028 1425.32 240 238 237
-1351.7 -123.804 2172.58 199 206 203
-1351.7 -123.804 2172.58 199 206 203
-1007.97 -68.7142 1347.54 56 32 21
390.165 -20.0588 1537.55 122 121 110
-31.8561 28.1657 1069.91 232 145 117
655.308 42.6715 1581.97 158 165 130
-51.6095 34.0613 1067.12 246 255 254
-51.6095 34.0613 1067.12 246 255 254
18.0375 84.8861 1130.71 138 91 81
93.1395 88.7193 1200.56 250 244 237
14.8769 136.397 1119.6 251 229 212
-172.694 151.15 1134.99 140 91 56
-7.70963 148.5 1120.41 252 239 222
-153.652 205.34 1097.54 118 84 64
-153.652 205.34 1097.54 118 84 64
-24.4411 223.313 1126.37 146 90 81
-39.7999 240.239 1132.26 250 250 248
-44.4207 254.911 1108.38 152 113 98
-63.9641 285.317 1118.41 249 249 249
-75.8777 299.539 1088.25 98 76 78
-29.5429 310.083 1106.98 249 253 254
-831.593 -347.296 1474.54 74 80 73
-750.311 -272.409 1219.51 71 70 61
-109.51 -219.478 1071.54 66 47 32
-358.411 -400.544 1996 71 73 70
600.333 -256.078 1464.18 164 182 157
589.486 -54.7215 1587.1 142 110 98
-114.226 15.6838 1011.71 202 181 149
-102.596 75.8699 1026.63 252 252 252
65.8829 151.752 1175.67 252 254 254
36.9178 154.301 1156.01 147 124 105
524.802 285.437 1680.12 192 234 243
-71.1581 253.14 1106.14 234 236 235
-855.076 -412.372 1386.57 115 134 124
-822.23 -352.102 1328.43 52 52 46
-873.218 -363.765 1468.14 127 141 135
159.245 -403.37 1854.1 53 46 35
-101.72 -198.284 964.628 58 44 31
-668.078 -233.873 1220.28 87 89 77
-35.3566 74.7051 1076.72 217 132 106
102.908 93.7829 1203.03 254 235 213
-91.5694 118.427 1042.28 254 252 253
-705.13 -197.56 1258.77 125 137 130
-529.863 -115.318 925.847 91 72 59
73.4101 -60.8911 1159.98 225 187 159
-241.351 54.6758 1186.37 80 56 45
523.273 161.205 1508.68 241 253 253
-121.335 160.917 1075.63 77 53 40
-121.335 160.917 1075.63 77 53 40
-7.15279 350.524 1151 71 54 50
-317.867 -346.289 1466.8 138 137 133
296.9 -175.199 1511.73 68 63 61
-193.073 -33.1771 1147.22 161 131 101
346.374 55.8536 1601.8 39 34 29
401.675 362.694 1682.91 208 207 200
409.556 -170.15 1410.37 54 46 44
13.6298 20.0011 1094.19 255 234 218
-145.313 208.557 1093.24 123 86 67
