-407.38 -715.084 2520.79 16 20 15
-155.913 -96.04 496.3 148 149 134
-302.1 -114.714 719.271 68 72 56
5430.33 864.382 -9880.8 94 90 69
-424.961 -14.6151 1065.69 188 183 176
-549.695 30.3646 1122.89 255 249 237
-352.949 62.7652 1400.44 131 106 99
-432.775 82.4216 1166.77 137 117 90
-395.708 88.4013 1179.25 116 111 104
-418.065 107.167 1182.21 35 30 12
-301.533 192.949 1419.7 31 11 5
252.147 135.641 937.786 134 149 129
251.881 150.615 936.702 245 254 249
-326.097 218.684 1282.79 41 8 0
-326.193 232.991 1303.08 217 184 167
-308.953 243.062 1262.88 207 181 167
-364.548 236.872 1214.77 34 10 4
111.856 198.026 1002.9 129 108 94
62.5122 248.349 1050.31 108 106 91
-274.147 347.557 1353.62 10 14 13
-326.487 324.16 1231.66 75 40 34
-327.725 322.987 1209.06 151 114 102
-291.701 341.304 1288.11 111 72 45
-488.573 322.024 1201.58 254 253 234
-215.72 376.779 1337.9 33 26 21
315.54 336.683 1076.05 233 255 234
-335.786 509.191 1373.64 140 144 139
395.114 440.049 1175.97 165 188 209
300.333 435.622 1127.18 240 253 250
319.748 513.256 1188.39 168 203 198
410.692 558.088 1279.15 119 144 148
-467.74 -197.584 1092.61 144 149 141
-426.202 -175.924 997.206 139 146 137
-676.248 -87.5104 1129.44 103 110 103
-379.988 26.351 1221.42 25 21 19
-657.028 49.293 1131.79 250 244 229
-563.617 80.6368 1134.03 191 136 115
-420.302 101.696 1112.86 225 193 180
-350.707 144.413 1076.58 99 89 82
-293.981 199.442 1368.36 156 118 99
-250.502 207.794 1337.31 65 43 36
167.821 150.01 968.252 255 249 237
66.6702 167.5 955.379 255 253 254
-397.043 251.632 1235.65 253 252 232
285.085 193.225 941.112 231 235 218
285.085 193.225 941.112 231 235 218
-368.797 290.787 1228.64 254 243 215
-255 318.087 1328.23 15 15 12
-315.946 290.646 1161.35 65 39 34
324.046 281.801 1064.19 128 160 132
255.79 268.627 988.75 254 253 242
-415.249 384.038 1326.58 255 254 243
-320.972 380.049 1279.53 129 114 100
-313.938 387.444 1245.38 45 40 36
-450.512 536.105 1388.21 236 242 238
-269.175 579.89 1438.33 123 149 144
-427.99 8.7887 1161.79 149 127 100
-427.99 8.7887 1161.79 149 127 100
-399.183 33.2196 1164.3 143 128 110
-589.483 40.6122 1121.78 242 240 223
-492.254 47.669 1073.22 69 13 2
-407.469 58.5 1162.67 159 149 132
-396.564 62.934 1170.52 51 33 23
308.242 54.7462 964.575 154 146 132
-556.86 70.5049 1108.28 251 217 197
-290.985 86.5604 1268 29 21 19
-579.929 83.3963 1114.49 254 246 236
-601.689 138.112 1232.2 197 144 133
280.687 119.856 905.679 179 202 169
-542.805 167.764 1210.37 251 237 220
90.775 145.727 977.826 224 214 213
90.775 145.727 977.826 224 214 213
90.775 145.727 977.826 224 214 213
123.901 161.441 969.515 232 216 201
123.901 161.441 969.515 232 216 201
-349.664 224.835 1227.52 62 54 44
-585.308 297.148 1267.55 251 248 246
-523.922 291.973 1237.77 254 251 254
176.011 278.826 1059.61 165 151 120
-311.064 353.339 1254.35 172 162 147
-520.78 369.372 1251.69 253 251 253
-471.907 407.493 1353.22 222 234 203
-245.124 557.633 1532.15 52 51 40
366.706 554.879 1227.81 255 254 255
-350.973 36.0528 1263.87 162 138 108
-645.244 106.373 1172.4 251 255 253
143.333 90.5174 933.459 161 132 119
-591.933 116.936 1170.61 189 130 135
101.23 112.673 939.995 160 132 107
-287.827 187.93 1262.58 52 35 26
-497.264 191.044 1201.36 255 253 235
122.397 160.385 961.957 232 216 201
138.376 218.818 997.763 214 202 168
246.232 266.474 992.142 208 199 166
405.91 433.073 1191.5 73 113 118
383.608 447.347 1163.7 54 79 120
200.961 -122.464 973.347 61 102 97
-694.381 -52.7166 1263.71 175 183 176
225.239 -0.985175 857.998 123 156 118
208.436 2.52903 864.443 119 153 122
208.436 2.52903 864.443 119 153 122
204.779 90.1717 911.412 255 254 230
55.1418 158.684 1011.48 111 100 109
192.473 227.613 1022.78 192 184 172
-323.631 349.889 1228.95 130 78 38
-417.883 368.812 1291.87 252 251 247
-417.883 368.812 1291.87 252 251 247
-511.79 385.55 1277.47 104 99 94
-511.79 385.55 1277.47 104 99 94
-240.228 452.742 1337.15 74 106 95
310.977 397.844 1098.77 211 238 234
187.637 104.318 887.469 191 181 136
138.288 179.409 991.685 137 117 100
-520.232 264.41 1190.6 253 255 255
359.643 419.587 1136.36 170 204 201
-577.352 -186.652 1165.97 147 155 150
-554.993 -160.642 1058.38 72 68 53
-390.178 10.8137 1210.35 148 139 125
121.982 132.817 971.257 231 208 194
61.6244 206.053 1060.45 190 181 172
-383.246 242.044 1178.75 250 251 242
-400.909 320.73 1179.37 255 253 254
-248.883 -64.6129 464.973 141 152 146
-622.908 92.1297 1151.71 231 230 222
-622.908 92.1297 1151.71 231 230 222
164.39 124.601 951.811 245 248 240
164.39 124.601 951.811 245 248 240
-159.594 -113.553 503.179 158 164 159
258.4 93.4368 910.196 227 237 213
-415.543 26.8406 1100.25 54 41 31
-218.92 150.51 1210.35 186 179 164
249.408 380.461 1080.82 223 246 248
-477.904 -147.713 1073.93 145 153 147
-400.222 484.802 1349.09 89 93 87
-498.76 83.8144 1092.36 235 223 215
189.849 -200.886 1137.71 155 152 136
-364.776 141.944 1284.19 53 45 38
223.184 185.285 993.048 252 255 251
-263.099 394.737 1264.75 58 60 56
-263.099 394.737 1264.75 58 60 56
