-193.396 -71.0452 1521.77 100 93 76
72.8517 1.60225 1111.33 69 30 16
-50.6832 37.5388 1090.03 254 255 245
-50.6832 37.5388 1090.03 254 255 245
174.764 36.763 971.181 50 53 48
165.964 42.871 924.084 197 205 201
13.0087 48.9501 1019.03 173 136 126
-10.8087 54.4131 1011.55 240 221 202
120.203 70.8957 896.264 81 70 62
-21.6213 82.9696 922.007 62 54 55
-86.6176 86.0695 950.61 198 224 218
-16.9212 99.7407 856.554 154 202 206
-132.479 115.835 966.562 79 94 89
-99.8731 131.66 852.863 169 194 199
152.909 172.551 951.958 42 31 27
-14.8141 226.92 928.324 35 28 34
87.947 226.809 923.868 114 25 5
87.947 226.809 923.868 114 25 5
139.803 238.99 941.029 120 105 93
139.803 238.99 941.029 120 105 93
-36.9006 242.186 929.053 223 214 217
28.7153 283.04 925.475 246 243 230
52.931 294.317 927.661 15 15 7
-37.1134 302.466 888.96 111 102 99
7.8909 335.336 922.988 45 32 34
-9.0927 338.692 914.004 196 169 162
206.029 393.655 1011.99 185 163 149
283.119 431.701 1059.62 77 61 54
76.8944 425.71 985.071 128 89 78
257.665 486.309 1119.29 32 9 2
235.538 420.753 975.216 216 206 186
262.606 506.381 1146.45 245 244 236
159.663 512.131 1076.48 156 162 155
-128.519 -207.694 1692.59 182 162 140
-220.926 -140.594 1595.98 71 96 94
-112.527 -128.625 1506.48 34 12 5
-62.0974 -130.251 1577.25 28 25 22
-186.34 -95.3671 1493.63 188 151 128
-55.571 -15.3245 1606.57 44 20 11
-32.4232 62.4703 996.197 151 110 84
-108.192 83.7075 1001.74 124 142 124
115.978 89.3197 914.927 194 194 180
104.943 94.0573 913.556 204 214 193
-108.907 100.58 948.384 191 218 211
-47.876 163.37 875.839 20 37 38
84.7973 178.022 919.167 52 30 24
-67.7176 166.008 854.115 226 219 219
-56.3476 181.921 892.43 56 58 54
-47.5481 192.841 884.212 28 34 37
119.599 222.015 950.101 142 89 68
138.889 234.774 955.459 53 16 10
126.258 280.001 987.075 79 55 52
230.514 302.079 995.87 178 123 101
60.2361 347.39 972.186 249 245 244
115.216 354.54 980.145 192 213 214
158.462 390.522 991.335 170 101 74
177.983 510.335 1086.49 151 161 150
-100.602 -188.522 1637.65 78 89 88
53.5245 30.4511 1017.97 197 158 142
130.096 95.188 900.757 144 117 92
130.096 95.188 900.757 144 117 92
191.257 98.2472 941.771 16 5 0
172.634 169.239 953.418 133 93 75
-26.4563 235.921 916.292 37 21 20
-26.4563 235.921 916.292 37 21 20
194.174 283.421 1006.23 42 26 24
39.3453 295.482 926.84 180 169 161
106.486 312.829 955.701 163 187 184
218.216 329.438 1001.03 52 54 52
-46.1063 304.523 915.627 44 33 30
115.52 357.003 960.502 46 29 31
-211.059 -95.7112 1525.51 60 39 35
-28.8958 53.9606 1023.86 202 195 196
172.998 46.9907 916.74 19 15 5
-118.98 64.6678 1056.94 64 67 60
-79.7723 93.886 947.625 114 136 133
-46.8282 191.886 856.55 65 61 65
182.888 260.593 973.492 179 152 134
203.668 287.532 991.383 101 137 142
-45.9925 305.096 918.225 44 33 30
-241.464 -79.4596 1502.15 60 47 38
103.976 -18.0903 1127.18 52 49 42
-12.8015 -8.13958 1521.13 46 28 23
119.106 103.093 912.956 33 32 30
188.752 179.914 970.662 57 37 32
39.1945 228.415 920.916 138 66 46
39.1945 228.415 920.916 138 66 46
-123.601 -121.572 1536.13 60 44 39
272.277 323.308 1032.5 191 193 180
246.664 327.094 1002.16 59 26 25
-45.2426 305.647 925.408 66 52 48
-150.295 -67.8213 1554.08 174 165 151
-150.295 -67.8213 1554.08 174 165 151
17.1876 45.1666 921.134 208 194 177
17.1876 45.1666 921.134 208 194 177
-78.8982 184.556 861.364 72 58 53
158.775 277.716 978.213 49 45 42
96.2019 -11.6413 1123.29 79 90 90
-131.832 88.3002 1008.15 63 61 60
-61.7961 235.404 905.497 59 54 51
-3.72905 324.137 935.979 179 138 128
-3.72905 324.137 935.979 179 138 128
249.223 387.865 1048.36 181 142 124
249.223 387.865 1048.36 181 142 124
275.569 423.069 1050.57 57 40 36
-54.3688 -219.27 1576.89 189 188 185
-58.8516 -126.153 1484.68 60 59 46
206.649 206.911 978.162 53 36 33
113.16 213.673 934.597 188 140 114
113.16 213.673 934.597 188 140 114
-52.9455 -186.232 1320.42 188 188 185
-85.13 108.497 956.476 172 209 202
-26.0023 128.764 884.96 37 32 30
-77.4447 145.832 839.282 50 44 39
-6.24367 60.6775 897.204 224 169 153
210.923 129.928 916.687 166 153 140
-35.0317 275.823 916.095 55 54 53
215.201 299.096 969.659 55 37 27
127.278 331.279 993.698 103 120 125
49.5453 185.923 894.444 61 57 53
