253.043 -166.136 1649.6 78 71 62
274.311 27.3544 1790.42 136 118 111
68.2664 18.7534 683.552 228 203 190
68.2664 18.7534 683.552 228 203 190
-28.744 113.154 1078.81 246 252 255
-101.213 114.828 1027.81 26 6 1
-24.5996 300.421 1122.8 255 247 240
-39.8349 445.566 1042.35 144 146 136
230.257 -38.5619 1705.01 247 230 230
207.93 76.3513 1709.78 159 141 123
207.93 76.3513 1709.78 159 141 123
257.857 198.882 1732.83 141 121 102
-100.662 123.109 1019.11 160 138 132
-103.64 166.503 1044.93 56 19 5
26.1134 198.626 1221.15 141 117 103
26.1134 198.626 1221.15 141 117 103
51.7055 227.492 1276.96 190 155 152
-59.9899 195.76 1071.26 34 5 3
68.2237 198.444 1101.71 118 142 141
-51.1187 215.406 1077.5 65 51 41
-41.78 225.051 1074.93 249 223 213
-41.78 225.051 1074.93 249 223 213
-31.4084 243.971 1091.23 166 129 100
-31.4084 243.971 1091.23 166 129 100
-184.549 258.012 1125.97 51 6 2
-182.668 281.614 1133.57 39 0 0
1.44411 339.538 1187.58 104 83 76
1.44411 339.538 1187.58 104 83 76
-28.4991 402.601 1133.01 49 31 22
-89.9006 432.194 1156.87 90 78 62
220.181 -144.692 1677.01 155 149 132
105.293 -111.867 1627.07 146 146 132
143.831 115.69 1573.9 127 93 75
-19.6415 130.398 1094.86 255 250 241
-19.6415 130.398 1094.86 255 250 241
9.72886 142.127 923.271 164 124 112
46.2329 254.556 1274.22 255 253 240
6.99571 281.448 1159.64 255 254 243
-27.0843 337.851 1119.69 249 251 254
-27.9657 380.911 1104.85 253 250 241
201.163 -123.194 1620.41 40 30 21
209.911 209.512 1579.72 57 40 23
-13.801 291.38 1124.09 255 254 247
-52.1563 306.092 1102 83 24 21
-31.239 299.811 1070.25 253 253 254
-81.0695 404.039 1116.52 24 14 5
-200.581 454.682 1218.29 132 82 63
-45.3071 120.097 1044.11 253 253 244
95.8507 342.858 1459.16 74 86 88
-107.372 341.731 1124.26 124 115 109
-71.6033 128.581 1034.24 188 134 112
-19.8576 432.904 1153.52 252 251 248
-163.648 224.645 1108.97 156 86 51
-101.702 36.6005 1079.82 160 134 108
-84.9143 104.788 1161.43 61 32 26
-82.6275 94.3004 1054.29 56 31 28
-137.219 361.282 1130.55 152 80 47
-63.1389 424.383 1123.33 42 36 32
170.959 -84.4877 1627.68 42 35 30
-96.131 222.39 1087.56 69 55 40
1.28086 78.5672 1162.48 255 240 214
137.36 129.131 1401.51 91 67 50
137.36 129.131 1401.51 91 67 50
-181.308 196.252 1072.84 98 47 34
