-712.349 -348.551 1068.68 165 169 158
51.7978 -372.925 1302.49 18 7 4
51.7978 -372.925 1302.49 18 7 4
-229.771 -185.351 779.682 154 152 148
523.363 -257.328 1547.15 173 175 168
608.152 -258.197 1592.54 201 220 200
625.724 -253.607 1612.35 141 155 137
-881.893 -127.173 1327.75 46 66 56
-1254.82 -226.441 2621.24 58 53 32
448.08 -127.775 1580.25 45 21 9
-169.768 -49.6971 331.224 75 71 54
615.749 -103.891 1678.04 216 209 210
615.749 -103.891 1678.04 216 209 210
-702.726 -74.9701 1146.63 144 130 110
-209.842 -26.304 316.459 172 164 142
-824.749 -62.1575 1256.5 66 57 35
542.666 -20.8142 1601.94 255 244 229
618.945 30.2246 1714.51 176 179 151
98.1746 74.7728 1315.88 255 244 222
-154.979 67.9805 1121.16 138 114 106
-154.979 67.9805 1121.16 138 114 106
536.959 143.983 1679.3 115 102 83
-54.9212 95.9159 1157.52 168 94 81
-54.9212 95.9159 1157.52 168 94 81
521.832 152.373 1718.2 42 27 19
107.886 130.117 1324.71 255 245 217
107.886 130.117 1324.71 255 245 217
527.294 222.308 1745 51 81 98
-59.1172 152.514 1175.65 138 69 49
-124.399 149.043 1152.16 169 145 123
-124.399 149.043 1152.16 169 145 123
-107.164 164.393 1158.11 83 58 55
547.682 305.88 1863.76 176 202 234
547.682 305.88 1863.76 176 202 234
17.1165 292.68 1230.37 114 115 91
17.1165 292.68 1230.37 114 115 91
-162.262 359.349 1336.31 163 106 87
-170.294 339.397 1195.41 90 58 39
-1064.93 -764.119 2251.26 66 72 67
-596.716 -311.432 927.658 137 146 139
-271.625 -276.12 838.44 112 107 98
-93.8471 -76.0833 284.785 19 9 6
-92.0096 -80.4479 367.519 121 122 107
247.122 215.94 -1225.52 149 122 94
237.515 124.247 -789.171 61 67 64
-414.529 -111.341 779.627 142 148 143
462.349 -185.426 1537.31 135 131 111
-783.236 -137.768 1251.3 55 59 50
-905.855 -141.549 1303.57 60 76 67
-974.859 -139.337 1401.44 50 62 57
-868.609 -103.202 1260.3 47 57 50
507.202 -104.997 1574.09 130 134 102
-345.228 -27.2746 450.502 131 137 128
540.029 -53.6096 1633.55 159 139 136
540.029 -53.6096 1633.55 159 139 136
82.0133 18.3711 1226.8 255 251 235
97.7536 29.3167 1288.7 190 128 101
382.225 46.6353 1626.37 111 111 93
29.8709 33.5298 1207.49 255 244 233
-37.3489 34.6208 1153.36 220 155 116
102.649 56.9765 1284.28 193 149 106
-62.5339 51.6363 1119.23 255 254 246
-62.5339 51.6363 1119.23 255 254 246
75.6512 137.154 1272.03 255 250 233
544.048 210.575 1776.2 230 252 255
606.246 277.237 1832.06 245 254 254
-113.506 177.696 1139.97 193 148 125
462.308 305.661 1862.15 114 124 118
-22.5762 238.432 1233.19 132 84 74
149.38 266.561 1371.39 190 160 134
-52.1163 232.711 1142.08 252 253 246
-28.5922 258.091 1237.88 247 251 251
-52.7013 260.387 1212.13 184 130 121
-52.6432 351.886 1192.73 97 68 48
-65.1428 378.653 1267.66 255 248 240
-24.1759 415.165 1237.85 252 248 239
-312.148 -349.599 1330.41 165 159 152
-369.583 -110.196 522.532 129 143 133
565.717 -321.283 1687.78 101 125 130
80.8847 69.9677 -431.946 148 117 84
-630.718 -185.405 1097.47 67 68 59
-782.476 -413.663 2620.97 127 103 72
217.52 102.477 -712.965 151 126 101
-517.527 -179.518 1310.7 144 124 101
626.259 -159.005 1607.94 233 237 231
-1298.69 -148.553 2094.53 126 119 99
583.34 -103.493 1557.05 254 254 243
-769.346 -80.5516 1237.72 62 53 37
497.421 -64.6145 1536.04 252 244 243
40.1125 -39.9264 1221.99 120 49 33
494.589 -24.3111 1592.65 253 251 251
469.129 -15.1105 1620.41 166 149 145
469.129 -15.1105 1620.41 166 149 145
-86.6855 -9.08269 1125.19 225 199 185
595.259 43.4598 1681.44 255 255 233
595.259 43.4598 1681.44 255 255 233
623.155 49.3223 1652.4 249 251 224
-101.122 39.8709 1105.08 245 251 251
-101.705 132.833 1131.8 254 253 253
-113.48 143.277 1132.96 90 47 27
-79.6085 200.91 1198.75 140 114 75
576.105 352.369 1856.56 131 160 159
-95.2091 246.349 1149.71 50 19 14
-73.5086 225.196 1035.41 237 235 234
90.6405 360.026 1353.39 174 164 128
-23.7404 335.537 1234.13 250 251 248
-66.5521 328.592 1177.83 249 255 255
-44.2455 417.783 1207.38 248 242 231
-410.406 -168.969 557.222 148 152 144
-410.406 -168.969 557.222 148 152 144
713.348 -662.786 2346.81 159 154 141
-673.798 -275.965 1010.93 22 26 20
-388.994 -441.763 1690.58 165 159 152
-511.326 -208.85 808.256 131 146 137
398.451 -287.455 1662.74 121 76 65
381.424 -237.028 1579.84 25 12 9
628.621 -209.882 1674.66 96 94 79
513.279 -178.142 1531.64 89 70 59
-573.743 -39.9258 839.289 46 52 35
2.9787 35.9111 1213.02 253 255 255
501.141 144.046 1651.24 59 39 29
-116.776 95.65 1110.75 80 23 14
569.877 243.229 1814.74 240 253 250
-69.2656 232.005 1169.48 161 87 59
-16.392 284.201 1237.57 117 91 82
-17.641 389.271 1235.09 74 63 59
-17.641 389.271 1235.09 74 63 59
-707.996 -275.157 1069.49 146 153 144
-340.944 -164.589 893.35 47 36 29
-739.441 -197.244 1175.11 139 145 134
497.755 -155.633 1602.15 254 254 251
556.438 -11.1276 1623.03 239 222 210
700.274 40.9519 1787.31 164 167 142
-54.8962 25.2872 1129.83 251 254 255
-54.8962 25.2872 1129.83 251 254 255
654.414 75.1957 1760.72 146 135 106
-59.3116 79.0376 1149.64 253 255 255
24.5605 115.096 1240.5 168 117 90
24.5605 115.096 1240.5 168 117 90
82.2412 198.261 1288.72 254 253 253
-26.819 228.344 1214.34 159 103 89
-26.819 228.344 1214.34 159 103 89
-67.9046 290.963 1190.04 253 254 254
-657.237 -258.341 1064.24 70 75 64
-484.928 -165.713 974.972 65 69 59
466.965 152.378 -1035.55 133 143 136
-120.245 5.67449 1085.72 203 182 154
-143.859 81.1717 1138.98 161 113 90
93.4885 249.994 1362.37 252 255 253
-75.4709 258.705 1183.24 247 248 249
-605.209 -285.818 905.055 116 137 125
-812.759 -329.204 1214.96 38 40 33
-591.399 -234.042 905.708 128 141 133
-585.172 -192.526 978.566 96 97 91
-614.968 -172.383 946.481 83 90 79
104.139 90.5475 1300.97 235 233 207
-151.082 301.345 1280.55 130 90 63
-518.292 -136.317 839.328 124 139 131
-649.652 -155.046 1134.86 82 68 55
71.8243 -73.899 1252.51 221 191 158
-50.1102 323.817 1194.23 254 248 250
369.771 -251.01 1409.63 186 175 173
418.905 -55.0912 1563.83 57 46 38
-132.134 163.166 1165.48 70 55 34
-251.893 -225.043 949.883 134 135 130
-700.926 -100.552 1223.33 92 83 61
-700.926 -100.552 1223.33 92 83 61
422.01 -189.58 1546.11 55 49 44
-182.938 242.973 1370.33 131 96 78
472.248 10.741 1942.23 71 74 50
20.3643 126.97 1335.45 106 76 56
