-774.256 -238.294 1566.08 50 49 34
-986.796 -300.408 2031.91 56 53 33
-986.796 -300.408 2031.91 56 53 33
199.686 -120.391 949.713 134 166 177
-470.698 -103.769 1331.68 170 163 151
-490.147 -94.4581 1284.04 113 138 141
-475.124 -72.3972 1205.03 59 79 83
-530.156 -61.0651 1266.92 127 142 143
-420.495 -43.7839 1256.32 146 128 107
-498.785 -35.8068 1284.46 64 43 24
-449.108 -32.8992 1341.03 96 74 52
-512.646 -18.8167 1160.03 165 160 156
-512.646 -18.8167 1160.03 165 160 156
-463.573 31.6429 1074.06 232 193 147
-466.931 76.9061 1297.92 114 111 107
206.944 66.2158 993.911 126 154 131
74.2783 97.7663 1002.92 211 214 177
157.799 106.845 1024.63 254 250 232
81.6842 107.13 982.34 255 240 230
-403.324 113.007 947.354 185 145 119
-470.862 158.746 1355.2 110 99 97
-387.619 192.109 1159.76 41 33 21
-470.941 246.759 1443.29 44 27 14
-637.798 257.582 1377.35 255 253 237
-583.589 248.882 1304.65 196 193 191
-334.735 308.081 1543.2 80 44 25
-626.854 287.595 1347.34 255 249 249
-626.854 287.595 1347.34 255 249 249
161.173 228.627 979.05 176 170 134
-355.103 483.127 1398.97 66 86 76
-318.499 598.091 1556.91 247 245 243
303.714 550.633 1409.97 224 247 249
216.499 -187.647 1106.19 146 195 180
-1100.9 -256.867 1780.89 110 119 112
-935.081 -188.137 1544.14 106 114 112
36.3316 -118.607 1110.84 249 229 226
109.548 -83.7758 950.477 60 35 39
116.788 -77.8437 940.23 240 252 245
-426.348 -69.8236 1278.64 112 93 75
-503.959 -42.4583 1174.14 55 76 75
209.403 -8.24494 896.761 253 255 245
77.6674 7.5696 970.06 107 89 70
-465.563 15.4995 1232.86 49 34 14
-54.3668 21.3961 996.734 84 80 68
-405.219 42.9064 1378.88 161 148 140
126.298 31.4176 974.784 116 97 81
-474.035 43.858 1135.83 114 63 17
-458.032 53.3279 1289.76 103 98 92
-34.8714 65.558 1029.36 254 252 251
-483.535 88.0007 1195.34 255 249 227
106.782 101.241 990.966 192 141 107
-12.9007 110.481 1078.03 193 196 160
36.1123 107.511 1020.09 255 249 224
36.1123 107.511 1020.09 255 249 224
117.674 110.996 1003.38 222 173 145
117.674 110.996 1003.38 222 173 145
263.956 118.45 994.479 207 221 194
-454.151 146.168 1195.54 255 249 240
93.9965 147.451 1052.63 98 77 66
230.915 136.623 975.772 136 145 121
268.053 138.464 990.158 250 255 235
262.891 163.778 996.466 154 173 141
80.6265 178.134 1069.6 120 84 79
80.6265 178.134 1069.6 120 84 79
-370.975 266.594 1435.63 127 106 98
-604.972 237.39 1251.21 255 248 238
-361.896 239.481 1179.35 176 181 168
-361.896 239.481 1179.35 176 181 168
-443.773 309.679 1486.76 197 195 187
-443.773 309.679 1486.76 197 195 187
124.605 242.013 1143.38 253 255 238
69.6809 262.345 1157.37 241 245 211
69.6809 262.345 1157.37 241 245 211
293.135 248.58 1081.11 255 255 251
-410.635 320.142 1321.35 245 225 224
180.723 359.724 1212.67 246 253 244
291.158 483.666 1264.11 238 255 253
-333.327 609.863 1561.07 241 244 242
-621.832 -316.942 1500.5 68 77 67
-1318.12 -321.162 2230.49 92 96 78
76.0803 -110.706 1029.11 228 203 190
123.774 -84.4146 935.148 66 80 79
170.799 -57.9388 918.096 250 253 239
-397.642 -19.5096 1411.42 27 30 32
-511.111 -2.26905 1163.5 107 83 56
188.812 4.46184 920.908 249 255 255
-366.93 72.8865 1470.88 13 13 15
-1.57549 54.0056 1035.23 254 246 240
-684.851 68.5156 1253.4 255 252 247
136.606 58.3047 975.897 124 101 83
202.909 107.207 991.263 101 102 89
118.308 234.763 1155.58 195 180 135
-673.066 297.415 1397.43 254 252 255
-673.066 297.415 1397.43 254 252 255
-316.966 326.001 1487.1 17 14 4
-308.861 376.062 1507.45 96 85 74
390.574 442.84 1282.2 71 105 114
-315.986 585.027 1586.19 116 134 127
391.77 511.076 1304.78 138 175 174
-444.836 -126.303 1417.06 94 72 55
230.241 -42.8295 932.745 155 153 146
-418.541 17.6641 1394.29 161 134 114
-761.261 32.0223 1270.08 227 223 203
-761.261 32.0223 1270.08 227 223 203
-764.504 94.9065 1338.64 254 252 252
-663.918 102.213 1256.64 178 138 121
-27.0994 90.0649 1077.01 249 242 247
111.023 108.528 1009.06 226 159 130
-505.903 154.499 1256.99 255 252 237
-673.715 191.691 1321.89 228 208 193
-673.715 191.691 1321.89 228 208 193
290.878 166.275 1069.39 235 235 225
-624.13 366.778 1392.41 253 252 251
-381.83 399.962 1388.49 57 56 53
414.85 438.249 1320.2 156 178 182
-315.55 583.445 1589.17 108 131 122
414.44 497.985 1306.37 122 129 133
176.82 -143.881 1039.36 45 93 96
145.563 -101.471 949.794 78 75 72
-1224.64 -146.692 2283.65 165 173 167
199.335 -10.8042 923.033 123 151 111
-382.834 38.1625 1450.7 34 23 18
-390.062 58.5937 1363.01 52 37 20
-384.868 72.2654 1452.79 156 153 150
-597.471 80.5298 1154.51 247 252 253
171.994 82.7237 956.249 250 252 242
18.3445 151.555 1079.44 109 98 103
7.64856 161.666 1040.29 253 255 255
154.811 263.51 1099.92 253 255 238
-449.715 337.148 1283.51 254 250 255
-449.715 337.148 1283.51 254 250 255
-391.51 355.546 1356.65 143 87 56
-592.681 390.101 1406.3 111 112 94
-592.681 390.101 1406.3 111 112 94
298.589 415.402 1212.91 213 236 232
-934.66 -321.365 1833.75 57 56 45
138.309 -77.9745 923.408 166 194 186
51.4935 -55.7795 930.869 55 49 49
-482.761 -8.51044 1173.13 61 48 33
-482.761 -8.51044 1173.13 61 48 33
-432.94 11.7681 1311.8 55 46 46
-635.565 87.4446 1235 241 247 248
46.1441 72.3642 1013.27 139 116 99
-552.032 133.41 1240.3 245 215 199
-437.453 262.14 1359.51 128 104 86
-629.941 277.003 1380.75 255 249 253
-557.715 344.615 1358.48 199 217 184
209.34 377.199 1242.94 222 242 236
348.255 432.278 1240.64 174 206 202
-445.491 -9.42583 1283.27 147 138 118
-478.124 57.5942 1113.69 243 209 178
22.5956 189.899 1075.3 187 180 176
-448.537 235.705 1277.06 248 251 244
-516.469 10.4811 1135.57 212 199 174
-418.928 42.2737 1358.12 174 147 131
-701.846 75.861 1249.15 212 215 212
-701.846 75.861 1249.15 212 215 212
132.136 117.884 1011.03 234 237 233
132.136 117.884 1011.03 234 237 233
-370.715 214.341 1404.4 173 135 117
-370.715 214.341 1404.4 173 135 117
344.112 489.545 1283.52 194 223 222
233.453 88.5829 977.505 252 254 245
122.912 165.656 1059.63 155 131 120
111.206 224.042 1127.06 199 186 146
-483.642 9.36571 1197.65 46 33 16
250.245 424.54 1271.35 223 248 244
-477.803 504.252 1503.55 84 94 87
138.5 -203.872 1077.38 155 150 138
-428.007 128.317 1386.29 63 52 43
190.587 173.502 1039.3 250 255 251
