286.543 -71.4225 1587.15 149 143 129
386.876 234.289 1780.31 245 239 224
372.308 234.396 1737.87 236 234 214
224.786 408.093 1945.31 44 59 57
308.621 407.415 1829.02 216 244 255
-89.8226 244.776 1065.91 244 241 220
-89.8226 244.776 1065.91 244 241 220
-221.35 283.103 1180.45 51 9 6
45.3286 457.678 1330.24 255 255 242
-259.842 569.917 1462.27 74 38 20
-26.1026 512.131 1232.77 18 29 21
43.1504 628.253 1370.68 253 253 246
-1225.01 -195.691 2437.79 106 121 120
314.735 -77.8206 1609.36 162 156 133
-158.47 19.4428 1261.45 30 64 74
351.12 44.4233 1770.83 254 246 244
385.215 46.6399 1795.04 144 125 127
181.591 45.2621 1572.89 71 89 50
46.379 30.4187 804.523 93 91 64
46.379 30.4187 804.523 93 91 64
1.48294 46.172 1187.55 105 51 34
-66.1912 58.4628 1071.23 246 229 205
-95.3314 118.794 1074.97 251 255 250
-64.0426 151.668 1099.91 252 255 248
-64.0426 151.668 1099.91 252 255 248
-157.612 155.468 1107.54 184 160 161
-122.286 228.14 1102.25 197 167 148
-100.596 236.397 1082.26 77 49 44
-59.6902 343.292 1176.16 164 148 140
177.941 -148.921 1674.61 130 98 90
-1374.5 -172.831 2740.95 136 110 84
305.03 -41.108 1628.95 255 252 247
284.594 -32.4172 1616.01 49 24 13
306.444 -20.1412 1664.56 250 240 239
-113.461 11.9824 1256.88 172 153 163
320.897 84.7345 1680.28 255 248 250
-77.6677 154.466 1120.75 196 143 140
-219.803 175.094 1106.51 157 95 61
-156.47 210.994 1136.39 49 19 5
-275.747 283.065 1151.89 49 24 13
346.331 467.672 1887.82 161 179 177
-70.5165 410.321 1139.72 253 249 249
-52.7858 507.538 1179.83 254 251 239
334.911 -23.4063 1688.95 145 128 110
362.285 101.348 1712.46 247 234 220
-24.276 69.8659 1160.34 255 237 216
-64.2814 160.458 1127.13 249 248 247
-65.0757 161.997 1154.45 249 248 247
314.647 247.097 1682.59 52 38 23
329.735 290.714 1825.74 236 250 243
67.9106 274.855 1384.25 251 251 231
38.1656 273.838 1277.17 251 251 247
-97.8588 334.753 1134.34 82 38 35
-33.0739 479.739 1216.08 97 78 71
-33.0739 479.739 1216.08 97 78 71
23.6862 238.72 1260.26 250 255 255
-67.9624 252.696 1134.3 240 208 179
-22.5079 318.321 1206.04 255 254 252
-76.0783 333.821 1126.4 255 253 245
-85.9704 403.242 1156.16 73 43 43
-1300.39 -228.814 2691.1 68 70 68
-1300.1 -190.969 2508.28 68 70 70
-196.124 123.634 1105.85 47 26 18
-33.7067 142.345 1175.51 248 251 247
-142.646 219.123 1086.04 73 56 40
363.807 -140.751 1709.62 122 116 101
-311.092 85.6361 1153.86 108 79 56
45.6206 167.454 1237.25 216 203 187
-220.047 172.245 1170.74 155 111 83
-139.72 163.158 1075.38 172 120 97
-201.388 244.404 1140.88 162 93 61
-58.1512 406.639 1157.82 247 242 234
-885.114 -254.989 1982.21 112 117 112
-132.854 9.46995 1187.34 47 87 92
-239.424 69.5071 1319.85 162 140 115
390.694 125.83 1783.48 207 205 174
-171.138 389.077 1191.03 161 112 79
-97.427 457.265 1175.42 44 39 37
249.522 -71.3856 1616.1 66 51 49
288.184 194.694 1705.24 57 46 36
329.701 319.19 1739.94 216 233 234
336.199 38.5316 1537.98 255 251 250
-315.105 11.5491 1393.82 142 132 114
139.356 95.6834 1189.23 79 91 64
