90.519 7.15078 -171.015 110 105 81
361.741 52.8444 1805.41 250 241 233
-233.497 34.6956 1138.86 76 51 36
407.469 205.777 1921.6 133 118 98
-132.405 178.539 1121.57 52 12 8
-130.152 254.485 1196.82 35 0 0
44.7544 263.453 1164.23 252 234 221
-95.4411 274.652 1140.73 176 129 103
-48.2629 297.068 1159.91 28 7 3
-4.30202 383.679 1204.01 148 100 76
-106.507 419.892 1094.79 158 145 134
65.6027 483.154 1241.74 35 36 35
82.9336 630.848 1354.07 173 195 186
76.2468 618.724 1319.58 173 201 188
-443.91 -136.461 748.026 51 54 50
-351.261 -90.6941 526.014 116 128 123
-397.923 -95.3616 617.343 23 35 28
-523.003 -108.48 838.439 25 31 26
-780.157 -123.451 1109.23 43 46 38
-97.8964 54.172 1054.84 63 38 25
435.007 157.726 1925.93 164 152 131
-137.256 129.625 1098.79 51 17 11
280.059 351.164 1906.28 163 191 185
105.607 242.929 1308.29 163 136 125
121.505 246.269 1314.74 255 252 237
270.774 356.193 1733.44 64 97 101
-126.598 274.965 1190.47 46 3 0
43.0587 481.986 1199.54 253 251 248
43.0587 481.986 1199.54 253 251 248
99.0805 603.687 1362.44 61 54 43
-455.599 -127.073 570.311 87 82 77
-455.599 -127.073 570.311 87 82 77
-542.865 -119.02 746.4 120 128 122
-512.641 -102.638 808.277 115 125 118
-147.432 90.9856 1131.67 51 6 0
-15.4029 195.66 1120.8 189 150 131
30.6642 392.2 1184.94 246 251 251
99.475 445.908 1330.24 155 153 127
29.5092 399.827 1167.47 67 34 30
-32.8423 417.11 1167.25 83 68 51
102.138 625.246 1375.3 232 236 228
-811.058 -187.816 1131.97 122 130 122
-533.349 -88.2121 759.109 113 123 119
241.412 -154.103 1746.97 18 18 16
62.5036 105.415 1138.68 255 251 255
70.5874 156.98 1207.31 240 216 197
71.3412 303.764 1209.12 251 255 253
125.294 340.819 1338.41 250 255 254
62.5997 409.113 1233.87 93 84 84
-138.429 439.329 1240.77 129 80 60
31.872 469.192 1193.85 38 18 15
67.4007 602.13 1304.83 46 46 45
5.59845 43.7262 1073.13 196 185 158
11.1527 109.788 1075.67 247 255 244
-70.4594 298.838 1189.87 50 30 19
-49.9713 330.839 1144.18 128 110 104
-628.792 -106.314 997.109 51 53 53
-177.39 65.0588 1105.42 142 89 61
168.48 230.884 1434.43 77 75 93
39.6155 436.17 1205.99 253 255 250
-105.648 457.775 1254.4 63 41 27
91.8704 27.7878 -179.685 106 116 110
-809.472 -118.055 1217.99 46 56 51
-101.363 285.827 1177.08 142 102 77
-101.363 285.827 1177.08 142 102 77
-96.7317 354.042 1200.83 158 100 76
-416.764 -107.34 692.682 87 95 89
-416.764 -107.34 692.682 87 95 89
-107.346 213.333 1146.67 156 91 48
-43.1021 19.7154 1041.11 150 122 101
119.353 -107.654 1730.62 52 44 25
-81.4146 363.267 1197.95 159 91 55
-498.883 -109.384 719.008 102 114 107
-39.8377 215.204 1126.03 72 47 33
-169.397 377.725 1263.64 53 39 23
-129.118 185.626 1154.56 151 99 77
