-530.889 -81.1119 841.398 149 159 154
361.361 -161.595 1778.14 151 144 136
312.614 -133.913 1625.29 70 60 45
199.396 -116.759 1732.96 186 190 172
310.781 59.7057 1757.03 174 146 146
-211.121 105.787 1149.49 47 1 0
34.8821 168.431 1280.09 255 251 229
197.647 304.271 1814.81 44 70 68
394.036 406.041 2003.11 178 182 177
250.444 323.77 1541.19 147 173 171
250.444 323.77 1541.19 147 173 171
-195.969 275.609 1238.8 68 26 17
-251.791 490.665 1331.48 70 42 17
-34.9528 471.11 1216.96 40 27 20
-136.413 470.048 1160.72 44 28 12
-138.419 462.796 1155.99 226 219 208
-260.52 -60.1326 439.964 35 41 36
-270.926 -46.3672 454.673 139 148 141
-270.926 -46.3672 454.673 139 148 141
-364.913 -44.3766 475.811 118 119 108
40.7271 28.3897 1263.24 153 66 38
16.3654 31.9123 1219.46 255 242 226
335.901 73.9298 1765.84 254 249 241
343.911 82.8651 1745.93 128 115 106
-52.2715 105.023 1145.88 255 252 254
-115.427 136.427 1131.05 183 160 155
43.9106 201.043 1283.32 255 252 239
39.5255 216.523 1300.56 146 127 111
-61.5115 231.382 1157.11 82 59 46
-61.5115 231.382 1157.11 82 59 46
-265.393 275.599 1257.56 101 67 56
307.008 464.675 1956.32 176 195 192
-117.951 405.278 1194.01 130 120 83
302.196 -98.804 479.413 108 108 104
-248.245 -70.6686 333.309 64 67 63
-151.562 -41.7061 211.626 157 158 143
314.42 -197.284 1761.67 112 132 120
354.612 -188.913 1794.81 204 227 223
-82.237 -11.5432 1300.25 184 172 175
-82.237 -11.5432 1300.25 184 172 175
-133.16 -3.30576 1348.08 64 99 107
-310.644 55.0554 1254.96 94 69 48
-37.7247 60.0392 1072.09 200 142 128
437.421 127.441 1959.88 255 252 255
276.739 308.294 1909.43 104 139 134
276.739 308.294 1909.43 104 139 134
230.329 293.649 1760.07 154 183 178
-54.9983 191.626 1089.23 250 254 249
-83.0355 214.64 1144.13 212 178 165
339.428 396.396 1939.56 244 255 254
233.651 464.439 1931.6 58 80 75
-33.391 305.379 1181.48 164 130 104
-59.3575 330.561 1194.83 79 46 39
-129.118 354.469 1185.95 102 59 26
-67.6229 377.939 1142.31 150 101 78
-34.4647 389.533 1131.84 254 251 246
-88.9717 443.114 1239.38 41 26 24
-0.483532 477.584 1255.43 101 88 73
-0.483532 477.584 1255.43 101 88 73
9.16983 481.747 1239.53 254 250 244
-19.0094 504.411 1215.07 254 254 243
812.375 -307.963 1364.98 172 173 169
262.365 -118.414 1509.96 49 32 26
262.365 -118.414 1509.96 49 32 26
-674.022 -70.8837 1097.26 135 114 83
-216.05 1.49192 1343.75 112 78 64
-22.4746 145.679 1180.85 252 253 254
95.0868 257.682 1395.64 255 250 241
-8.63299 413.765 1247.11 252 251 250
60.4234 509.743 1366.74 88 86 81
485.629 -173.459 906.878 132 132 130
76.0669 -56.3891 1809.24 109 103 88
76.0669 -56.3891 1809.24 109 103 88
-190.765 85.9801 1183.59 184 157 146
6.03612 126.642 1215.15 246 245 255
-57.2571 130.22 1106.83 247 250 252
320.626 240.639 1758.5 49 36 27
12.8304 179.976 1263.21 244 226 201
330.942 285.361 1896.2 244 255 253
60.0076 232.169 1341.16 250 248 248
382.048 359.608 2014.63 245 255 251
-132.154 313.96 1192.35 60 38 26
11.2236 320.271 1213.76 252 255 255
-50.1486 394.118 1184.08 64 29 18
2.08712 430.525 1250.23 93 88 85
76.6023 -56.8985 1809.14 96 87 73
76.6023 -56.8985 1809.14 96 87 73
429.546 6.40616 1967.98 250 250 242
429.546 6.40616 1967.98 250 250 242
-155.796 101.866 1108.44 46 31 20
247.573 -176.573 1846.22 188 174 155
379.654 -159.08 1815.76 121 115 105
18.9815 -36.141 1037.89 178 162 146
-100.799 148.228 1121.97 175 127 100
247.837 188.827 1407.23 65 51 47
-158.099 288.674 1147.9 147 95 73
-22.8529 404.374 1206.17 219 214 214
-267.325 -65.3071 481.572 108 122 110
-259.39 -114.226 1035.17 48 44 40
-177.625 34.5345 1159.85 171 144 115
-169.314 228.645 1163.05 159 96 57
-20.2906 5.49779 1222.15 45 86 89
-110.466 38.5453 1134.72 174 136 116
413.715 125.833 1944.27 218 216 189
159.968 355.853 1616.02 82 72 64
-103.108 227.563 1118.27 67 58 42
-144.56 388.285 1242.35 169 106 78
-372.112 -71.2864 586.36 121 133 126
263.447 -87.9079 1686.73 71 53 51
263.447 -87.9079 1686.73 71 53 51
-105.395 98.1628 1079.93 60 34 27
-264.517 136.305 1228.41 75 50 29
-222.606 388.026 1260 80 62 53
177.714 122.221 1353.22 73 44 26
177.714 122.221 1353.22 73 44 26
