60.4421 -528.677 1541.1 131 137 133
-368.949 -943.302 3135.79 130 130 126
-32.2674 -485.909 1663.09 193 178 153
-27.8386 -688.878 2407.78 58 49 23
-596.427 -948.527 3521.08 61 62 55
408.511 -260.296 1165.37 205 185 175
359.662 -253.551 1241.64 169 163 157
1161.79 -291.604 1697.38 6 8 4
1161.79 -291.604 1697.38 6 8 4
412.127 -162.286 967.6 132 127 123
505.974 -162.3 1044.96 165 153 144
505.974 -162.3 1044.96 165 153 144
514.438 -140.407 1023.98 142 133 130
448.064 -137.17 1034.77 57 63 47
525.022 -115.991 1055.78 151 131 114
-241.874 -116.76 1288.93 128 123 126
-205.819 -69.0371 1029.12 127 131 132
455.02 -64.2871 1070.01 197 185 160
-252.988 -58.641 1023.25 153 144 140
399.143 -10.2597 1085.38 81 51 46
499.486 27.4641 1068.6 249 236 228
-275.668 39.4262 974.137 178 88 62
-208.261 89.3614 1093.97 110 54 28
503.729 130.96 1148 160 152 130
589.367 157.156 1168.11 240 251 246
-202.42 142.539 1052.69 232 218 201
-207.501 166.719 1051.19 255 244 232
-77.8812 224.512 1096.16 156 99 70
486.837 291.099 1275.91 144 174 183
-83.8956 299.402 1186.97 254 210 184
-265.325 297.863 1096.25 255 251 232
-93.1595 334.348 1223.76 247 246 218
629.035 349.456 1263.32 245 252 251
-219.394 308.692 1096.26 131 153 117
-22.3521 347.823 1208.32 232 217 202
-312.086 316.995 1090.9 244 244 242
-93.3469 327.854 1008.42 44 51 54
-299.726 -597.215 1735.2 55 64 58
-704.822 -902.711 2761.56 86 87 81
-794.561 -840.947 2587.73 49 52 37
-514.787 -821.925 3129.87 216 220 218
-514.787 -821.925 3129.87 216 220 218
384.43 -236.86 1093.08 53 31 21
514.291 -166.87 1033.35 63 48 44
552.657 -169.749 1085.96 187 180 174
541.3 -168.083 1096.84 175 169 160
352.035 -125.142 994.617 128 123 108
443.278 -130.645 1038.1 139 146 133
382.631 -96.7122 1056.77 96 75 72
632.477 -67.5033 1079.16 214 239 220
366.748 -67.0814 1079.8 156 135 130
497.514 -59.7747 1092.22 169 165 134
639.472 -50.0697 1088.37 199 224 204
639.472 -50.0697 1088.37 199 224 204
488.545 22.8001 1111.57 92 67 66
541.484 27.2777 1145.96 240 216 202
394.136 27.4155 1132.04 132 116 109
535.789 32.046 1118.02 87 66 53
-178.103 30.8272 1060.59 231 208 188
-255.524 32.5629 998.321 255 233 220
-255.524 32.5629 998.321 255 233 220
527.711 49.6307 1143.65 254 247 229
527.711 49.6307 1143.65 254 247 229
-165.155 48.8454 1075.01 68 18 13
-165.155 48.8454 1075.01 68 18 13
-140.252 53.3146 1035.14 185 81 58
-159.043 63.6918 1069.63 49 24 8
-159.043 63.6918 1069.63 49 24 8
-154.221 78.0881 1072.43 51 16 5
-149.435 93.1839 1077.53 56 16 5
-149.435 93.1839 1077.53 56 16 5
-180.658 141.436 1028.75 247 236 214
547.042 201.282 1245.19 138 172 161
-104.297 201.332 1024.29 65 47 38
-108.219 263.321 1209.51 70 46 35
-301.647 348.747 1132.27 81 40 32
-283.22 448.696 1257.5 27 30 30
-2196.54 -770.913 2947.43 88 85 81
398.201 -289.993 1193.94 46 47 37
389.865 -188.288 1026.38 121 122 99
586.917 -176.248 1007.03 88 122 96
626.033 -131.406 1025.91 172 190 166
395.345 -102.493 1051.17 253 251 253
471.516 -99.4888 1056.06 208 201 180
471.516 -99.4888 1056.06 208 201 180
624.816 -97.6549 1059.3 248 255 238
624.816 -97.6549 1059.3 248 255 238
496.703 -59.8476 1090.39 169 165 134
606.001 -44.3506 1092.11 252 253 245
494.884 -9.92318 1078.57 73 54 47
48.6688 -12.4917 -374.341 246 227 214
-113.061 23.7068 1043.29 151 85 54
549.183 36.0899 1121.31 255 251 241
-290.259 32.1232 973.057 193 88 69
-169.947 33.3644 1069.31 68 16 12
-191.676 46.714 1019.93 187 138 122
-191.676 46.714 1019.93 187 138 122
-117.886 52.1719 1040.14 128 71 51
-340.757 59.4585 962.577 122 128 121
-340.757 59.4585 962.577 122 128 121
427.645 85.2055 1128.2 67 64 52
-110.225 80.3815 1059.09 156 81 44
-383.345 83.2231 1020.36 255 250 240
-142.424 107.381 1064.97 46 12 5
-142.424 107.381 1064.97 46 12 5
-135.523 120.151 1047.87 54 18 5
-135.523 120.151 1047.87 54 18 5
-117.034 141.913 1087.94 200 113 82
-87.2019 161.822 1198.01 190 117 76
-109.914 157.596 1099.19 187 112 71
-109.914 157.596 1099.19 187 112 71
-339.051 179.286 1009.31 228 227 214
559.415 253.324 1378.4 18 51 59
-337.729 208.752 1053.2 150 140 100
-233.059 274.104 1101.17 167 112 103
-263.75 325.69 1117.91 250 244 234
-736.168 -821.801 3084.02 61 28 14
331.067 -223.751 1117.77 150 146 145
648.109 -196.076 1080.5 96 123 87
391.063 -76.7784 1087.92 196 180 183
398.486 -52.5557 1100.76 254 250 246
523.226 -52.1425 1077.8 188 115 92
523.226 -52.1425 1077.8 188 115 92
-247.51 -42.684 997.668 23 27 21
-231.798 -23.0279 1002.18 195 121 86
449.455 -25.7703 1069.73 131 72 58
-263.976 31.5868 977.269 193 106 73
-377.484 51.5463 969.143 79 57 50
534.932 240.53 1322.03 33 62 83
-249.522 210.475 1064.29 150 80 76
-249.522 210.475 1064.29 150 80 76
-120.396 293.539 881.771 253 252 250
-697.872 -1631.28 4885.91 125 131 126
-792.828 -796.969 2459.73 138 148 141
627.663 -203.292 1028.34 189 198 178
627.663 -203.292 1028.34 189 198 178
585.502 -86.3951 1061.23 251 249 233
667.985 -61.7253 1115.19 114 140 113
540.839 -56.6893 1075.4 245 254 253
-374.346 14.3179 931.888 195 171 139
418.433 28.9199 1121.62 227 222 224
418.433 28.9199 1121.62 227 222 224
539.587 49.9724 1153.32 249 246 227
-369.951 76.8654 980.545 234 218 213
-369.951 76.8654 980.545 234 218 213
697.003 146.4 1298.43 103 100 82
-232.062 187.345 1093.89 253 247 239
-207.829 225.938 1066.82 246 240 234
-319.891 224.484 1054.31 134 58 52
527.292 342.619 1433.04 86 97 86
-255.283 270.419 1073.8 105 74 63
-250.659 371.692 1115.89 65 59 58
573.959 -68.9995 1074.47 154 160 125
573.959 -68.9995 1074.47 154 160 125
495.824 -27.478 1084.88 212 186 178
-298.613 37.9527 939.606 239 235 229
-221.869 95.9348 1051.7 135 87 74
-255.792 118.6 1007.35 218 192 170
-294.127 129.621 1004.47 228 188 149
-158.604 161.823 1037.3 234 234 215
-266.647 195.705 1037.97 242 222 201
-268.882 224.536 1062.6 191 134 127
596.055 310.004 1303.4 171 206 205
596.055 310.004 1303.4 171 206 205
-273.326 304.704 1063.56 232 227 222
-646.512 -872.917 2821.32 126 136 129
-174.971 -79.329 1043.18 50 77 88
589.275 -39.7839 1070.94 234 232 228
-195.387 166.455 1066.01 113 96 84
623.122 -91.6119 1052.52 213 227 209
374.26 -41.7983 1133.57 84 56 43
-291.978 84.8509 1016.92 203 106 84
-348.247 113.01 992.807 252 254 255
-348.247 113.01 992.807 252 254 255
-348.247 113.01 992.807 252 254 255
-210.615 327.776 1128.6 156 179 131
-639.761 -863.797 3321.37 79 57 36
-233.602 -4.48269 1018.63 198 144 120
524.318 2.79927 1099.13 137 113 106
581.971 -200.719 974.128 117 149 112
660.456 32.1521 1124.22 140 152 149
581.866 29.0288 1101.89 253 255 251
581.866 29.0288 1101.89 253 255 251
583.159 227.551 1258.68 193 226 216
-222.185 -90.642 1092.34 105 112 109
-560.941 -579.277 2262.08 74 54 36
370.719 -156.4 1154.62 55 50 43
-145.85 275.321 1151.96 205 205 205
493.321 140.393 1388.9 61 57 49
