-51.4129 21.6406 -130.92 122 119 116
282.045 -45.8839 1674.33 45 19 11
331.366 -26.11 1702.47 158 144 112
357.086 -6.41041 1795.66 184 142 126
-190.255 142.91 1164.72 71 13 1
303.067 330.555 1791.25 181 204 203
-17.1962 235.946 1145.64 255 239 213
-172.638 253.285 1181.97 62 26 13
336.451 440.251 1939.16 163 185 182
-51.3593 398.863 1245.26 167 111 96
-139.227 458.019 1182.27 175 172 154
-13.1088 544.107 1128.56 33 39 34
151.482 -130.241 1668.48 118 127 95
202.059 -46.6723 1841.81 122 127 98
312.671 50.3374 1718.86 93 68 65
331.478 53.1193 1733.49 240 227 222
-281.971 43.3206 1172.87 88 68 51
281.686 128.457 1920.43 138 109 79
-35.9072 87.0026 1076.16 255 253 250
-198.523 99.7707 1162.27 56 13 9
243.358 158.568 1684.52 129 106 87
324.311 187.013 1803.86 95 79 74
57.452 185.342 1270.95 254 251 234
-38.7884 182.145 1083.31 250 249 248
283.223 362.52 1962.16 183 211 205
83.4957 249.615 1327.84 254 255 242
-43.7785 210.182 1109.42 85 68 58
-183.799 267.325 1202.48 169 115 84
-241.282 348.829 1238.41 22 18 10
593.108 -202.56 935.573 99 105 100
353.858 -209.7 1784.69 200 222 219
321.101 -75.7749 1686.99 255 247 245
-70.3764 -23.695 1311.15 154 135 135
-23.2747 51.8968 1136.17 193 135 117
416.368 154.195 1868.04 169 159 137
43.4587 159.376 1227.78 183 135 111
275.676 316.464 2046.39 158 186 178
-52.9236 210.699 1199.26 95 36 34
83.8107 250.655 1332 254 255 242
-92.0305 304.813 1185.58 57 34 29
-96.7564 401.212 1254.23 58 38 23
-16.3356 394.16 1184.27 250 247 247
473.927 -187.759 909.078 127 131 128
218.259 -148.669 1713.91 24 24 21
-197.89 -8.84113 1299.37 76 61 63
-197.89 -8.84113 1299.37 76 61 63
1.29079 37.5106 1155.14 202 139 123
-163.294 69.6209 1085.63 185 170 161
406.966 127.794 1857.35 246 244 230
-7.31623 131.494 1152.66 252 254 247
-16.7172 284.799 1143.5 174 129 112
-0.590053 311.939 1240.45 255 247 240
-94.3165 328.334 1139.18 152 134 127
9.33909 390.356 1219.61 254 252 251
-72.7136 444.649 1280.34 51 34 29
71.7187 484.29 1327.91 77 74 70
17.6922 459.883 1253.47 102 82 68
-46.9441 51.3265 1080.45 246 219 195
21.0212 114.96 1220.13 255 251 253
-273.338 144.35 1200.72 53 25 12
317.456 213.172 1722.26 79 65 48
25.5004 161.248 1214.49 251 246 234
324.476 255.475 1845.76 245 255 255
391.97 335.585 2046.88 249 253 254
-20.7765 310.247 1160.88 255 250 255
-95.4062 335.573 1161.9 152 134 127
-32.0135 372.491 1156.24 81 57 50
20.1412 424.388 1273.62 100 89 83
39.8359 460.065 1256.38 254 254 246
71.5764 485.363 1329.79 77 74 70
420.951 -16.6213 1925.98 250 250 241
420.951 -16.6213 1925.98 250 250 241
375.246 64.9805 1732.72 254 253 255
-141.479 93.532 1117.99 52 36 28
-40.1787 117.471 1082.99 253 253 254
-4.71925 443.605 1220.28 253 249 253
-97.2254 -25.6363 1294.5 63 101 111
-82.9941 134.143 1085.5 186 131 111
-82.9941 134.143 1085.5 186 131 111
-5.54713 385.634 1190.84 240 236 237
-152.364 218.533 1152.55 164 96 53
-6.95654 -6.23431 1162.47 68 102 112
-94.6053 28.5041 1116.21 172 138 119
376.314 92.7109 1765.01 217 213 199
-59.7721 312.978 1138.32 100 55 42
106.033 -107.896 1795.11 73 55 42
-126.187 372.329 1225.64 176 118 80
261.335 -104.155 1654.22 64 50 43
-88.9224 87.8806 1066.31 60 36 27
-86.8983 218.249 1119.12 80 65 45
424.021 6.98099 1945.8 255 255 247
21.2599 88.6215 1251.14 255 253 251
