-635.673 -670.917 1982.14 158 158 139
654.839 -346.848 1290.38 37 51 51
-441.473 -666.719 2499.96 61 69 62
525.866 -371.467 1444.59 251 231 214
-709.215 -442.777 1747.39 26 36 35
-2945.28 -1752.74 7753.14 57 62 57
674.604 -302.512 1355.41 74 60 53
-411.707 -207.491 1012.49 69 77 73
636.695 -244.57 1222.51 55 58 46
-445.866 -199.994 1006.87 54 51 35
-719.896 -278.209 1494.38 108 81 61
-792.487 -347.679 2008.16 228 230 226
-848.677 -442.677 2586.35 182 173 149
-1122.35 -363.787 2222.51 112 98 81
539.62 -207.082 1307.92 160 161 161
656.226 -156.629 1322.34 193 193 178
-45.1116 -121.52 1111.47 146 150 155
-45.1116 -121.52 1111.47 146 150 155
474.68 -147.805 1508.72 28 29 15
457.811 -134.346 1477.72 85 90 71
-66.7103 -85.5436 1065.02 28 7 2
610.625 -93.5708 1387.61 236 221 213
618.755 -87.4705 1387.8 58 45 31
618.755 -87.4705 1387.8 58 45 31
596.294 -87.7673 1422 255 242 248
688.444 -84.4767 1429.2 254 251 242
-141.297 -56.0385 1007.79 126 98 77
603.034 -22.9026 1353.5 251 255 252
564.854 42.9585 1446.24 79 69 63
-90.6752 58.2503 1159.91 253 238 216
-90.6752 58.2503 1159.91 253 238 216
-160.973 131.803 1040.61 253 244 225
-160.973 131.803 1040.61 253 244 225
-129.682 166.402 1175.3 244 205 181
-98.6032 176.792 1144.46 255 247 238
-648.378 -380.263 1528.75 49 66 59
-653.649 -331.344 1386.8 29 47 42
-653.649 -331.344 1386.8 29 47 42
-453.39 -353.116 1527.22 135 135 128
-685.473 -451.049 2176.64 46 54 48
558.071 -244.82 1281.73 151 155 135
534.02 -243.056 1279.2 123 126 115
506.362 -239.582 1291.41 133 137 119
659.634 -160.584 1385.42 252 242 235
-174.119 -141.319 1213.49 77 58 47
539.55 -129.263 1243.81 141 97 74
633.914 -139.232 1389.46 255 246 239
626.295 -113.697 1372.26 251 220 212
654.825 -87.4912 1441.49 255 253 237
-3.77151 -62.2986 1082.99 242 200 177
863.634 -70.1911 1571.81 100 103 91
659.914 -55.7501 1438.45 190 185 140
798.229 -12.3281 1535.7 248 250 229
-143.043 -3.19184 1043.8 129 79 85
52.1107 14.8545 1111.3 255 251 238
751.443 49.8916 1545.76 250 253 241
581.663 112.872 1668.99 61 71 71
638.492 134.807 1526.59 230 254 255
638.492 134.807 1526.59 230 254 255
638.492 134.807 1526.59 230 254 255
707.969 158.456 1624.17 227 253 253
783.011 189.391 1651.97 166 179 176
730.039 205.87 1576.29 70 93 103
736.763 221.602 1575.25 246 255 253
-119.992 206.295 1153.31 253 255 248
-85.305 204.933 1121.42 252 253 254
-114.898 213.775 1138.77 120 84 76
-114.898 213.775 1138.77 120 84 76
-114.898 213.775 1138.77 120 84 76
114.698 244.859 1290.88 228 143 100
3.02116 215.375 1099.05 128 125 112
-141.88 227.589 1131.38 253 255 255
-108.996 271.049 1164.95 152 56 47
-74.9352 285.426 1164.67 255 249 240
-122.131 297.834 1146.22 41 29 20
-111.044 309.8 1164.38 104 72 53
-111.044 309.8 1164.38 104 72 53
-122.255 319.717 1178.63 255 252 235
-122.255 319.717 1178.63 255 252 235
-73.5074 374.771 1223.82 253 252 246
-327.206 -308.535 1040 147 142 129
-1298.33 -621.295 2248.22 139 157 148
-325.675 -418.03 1550.25 147 148 139
-756.668 -340.096 1279.76 54 66 59
-712.31 -303.973 1305.95 118 126 120
-1155.91 -470.411 2043.24 46 52 39
-985.282 -406.343 2068.89 26 24 23
647.79 -232.875 1292.46 180 168 145
594.257 -218.533 1319.87 234 225 197
708.822 -192.586 1319.62 233 249 223
651.06 -195.726 1348.08 165 142 116
520.815 -160.925 1310.56 253 247 242
528.805 -107.109 1319.88 231 227 229
528.805 -107.109 1319.88 231 227 229
579.386 -83.2313 1513.26 143 128 118
-190.168 -38.8988 981.797 98 78 59
637.705 -35.1706 1419.23 250 253 255
-130.975 41.4706 1070.15 255 240 233
577.512 84.2233 1441.54 47 38 32
648.609 133.176 1757.23 128 156 149
566.39 129.506 1585.88 43 61 68
-41.2621 134.66 1187.48 252 255 242
-155.151 140.559 1037.1 251 253 234
-47.6515 158.512 1154.35 218 171 165
-45.8952 227.909 1154.16 203 146 137
-120.163 239.561 1143.79 255 253 243
-101.01 374.54 1185.86 214 205 180
469.8 -356.511 1391.51 89 62 55
679.436 -257.874 1301.88 69 73 65
470.537 -185.867 1165.21 254 251 252
670.352 -181.898 1374.51 251 254 247
770.679 -183.827 1484.65 251 254 242
555.206 -120.985 1296.88 232 229 228
-110.987 -79.0054 1070.14 104 78 58
-12.5997 -75.1 1092.89 74 32 19
-242.879 -57.2882 1064.73 170 145 123
515.66 -58.6119 1316.46 37 23 14
534.898 42.6117 1137.94 248 254 247
696.031 83.6495 1549.14 247 255 250
-42.6259 138.12 1178 254 254 243
-31.5096 158.016 1212.06 245 193 187
-69.8107 339.523 1180.8 55 48 46
-106.93 362.705 1195.65 70 64 52
226.672 -586.178 1780.88 55 38 22
-465.233 -468.445 1530.48 98 88 77
446.203 -303.68 1350.2 7 4 3
506.007 -200.663 1314.37 31 15 10
679.599 -17.5694 1427.68 254 253 241
-54.7347 -1.08597 1095.64 247 244 246
-131.08 45.5993 1075.94 255 249 241
30.489 134.974 1188.11 200 165 128
30.489 134.974 1188.11 200 165 128
-134.2 190.315 1111.02 138 39 35
-129.996 248.234 1140.29 241 239 239
-35.0747 319.587 1221.99 157 172 137
74.9669 -664.253 2048.21 82 81 80
-429.778 -395.445 1315.72 92 92 79
-724.074 -349.916 1391.34 133 144 136
438.575 -326.654 1388.36 161 162 166
610.304 -298.784 1290.73 82 65 58
521.042 -201.258 1279.93 249 254 254
635.569 -208.574 1430.77 112 94 82
-9.75969 -130.411 1115.8 59 84 101
658.155 -72.885 1425.19 230 216 198
658.155 -72.885 1425.19 230 216 198
-121.502 -6.14307 1012.59 244 255 243
53.1326 42.2115 1131.43 237 224 217
-26.6621 74.5327 1120.12 130 91 69
-76.2527 73.6568 1088.33 244 219 198
-109.819 87.9401 1076.94 235 194 161
-87.6147 158.273 1119 250 226 210
-85.428 185.869 1137.82 137 85 67
-85.428 185.869 1137.82 137 85 67
-140.689 216.899 1139.63 175 177 169
-466.047 -449.246 1385.93 133 142 138
-466.047 -449.246 1385.93 133 142 138
-689.367 -308.991 1424.6 117 130 121
822.553 -23.596 1524.2 145 163 131
-202.619 14.6575 1035.08 92 68 49
102.091 127.918 1244.1 253 249 236
-448.424 -388.996 1416.08 135 144 138
681.128 -328.192 1266.23 146 185 154
-75.1505 12.1718 1079.67 244 253 243
-75.1505 12.1718 1079.67 244 253 243
-169.43 80.8731 1063.89 252 250 251
-169.43 80.8731 1063.89 252 250 251
-24.0554 286.766 1207.42 170 186 141
-59.8258 319.694 1194.65 80 70 63
-777.646 -354.364 1374.78 76 85 76
-777.646 -354.364 1374.78 76 85 76
655.503 -320.685 1307.2 79 72 75
-584.461 -222.99 1353.66 79 61 42
28.7799 -108.456 1092.33 229 192 156
120.988 76.715 1222.34 153 143 125
393.896 -286.51 1453.91 57 48 36
763.993 -161.306 1510.15 252 252 249
476.806 -27.6324 1602.96 52 48 38
692.418 118.556 1535.39 222 244 241
-96.9601 639.465 1507.56 189 189 182
-43.2974 -25.9858 1082.76 235 199 184
688.909 -125.266 1414.45 227 221 211
