690.015 -264.331 1002.06 215 223 216
431.342 -254.62 1735.81 118 104 102
-225.489 -77.1742 557.1 55 50 39
453.917 -124.319 1579.25 238 218 206
524.603 -97.777 1680.16 174 170 139
396.017 -72.491 1587.49 109 84 77
447.495 -77.545 1688.37 255 243 231
400.834 -22.5748 1645.69 131 107 102
347.623 13.5594 1746.91 142 146 129
-200.251 58.637 1179.6 48 5 3
-6.86531 107.419 1158.99 175 114 77
393.87 357.7 1995.21 123 127 122
393.87 357.7 1995.21 123 127 122
467.215 335.695 1810.62 244 255 254
-110.236 253.267 1230.69 148 125 110
-110.236 253.267 1230.69 148 125 110
76.864 287.766 1304.33 249 251 247
59.2296 297.024 1286.01 253 252 239
-28.3854 371.874 1178.14 232 218 197
-28.3854 371.874 1178.14 232 218 197
-125.019 413.95 1219.83 185 170 160
4.99896 459.464 1268.64 17 23 18
1072.45 -391.602 1565.68 188 189 185
-417.4 -146.223 780.258 126 119 107
522.105 -264.402 1714.78 178 207 211
539.738 -259.299 1720.46 90 94 96
439.765 -202.671 1593.15 67 46 40
439.765 -202.671 1593.15 67 46 40
217.089 -184.175 1743.59 29 27 17
419.41 -151.251 1596.02 149 138 125
431.839 -139.432 1596.86 84 66 57
-32.5047 -27.4656 1201.76 87 58 45
442.476 -39.1517 1687.51 138 101 91
-162.425 36.1791 1126.55 82 37 24
103.818 60.5282 1302.65 255 239 212
566.526 84.8104 1771.73 252 254 226
-25.2897 69.3186 1127.48 255 254 242
-38.9922 79.2008 1121.56 249 255 253
536.691 129.217 1764.56 164 142 112
-115.741 87.8353 1113.52 162 137 138
-115.741 87.8353 1113.52 162 137 138
52.2336 112.217 1203.1 252 242 217
91.901 159.927 1289.2 255 252 247
-85.1194 163.047 1127.78 197 168 154
-65.9828 177.345 1130.26 70 53 41
-170.161 201.615 1179.83 74 24 8
-188.656 234.181 1305.6 161 116 86
-82.3407 194.394 1060.92 94 47 29
-106.549 275.164 1261.88 55 26 25
-106.549 275.164 1261.88 55 26 25
-49.4523 261.735 1167.76 250 255 245
84.1393 309.347 1324.01 250 248 239
-29.1595 283.954 1156.54 144 104 111
-29.1595 283.954 1156.54 144 104 111
-79.7264 393.262 1281.67 40 26 14
90.4306 533.179 1352.29 52 50 42
-99.7085 -343.069 1434.4 29 12 5
-369.487 -221.267 1450.5 53 32 18
-436.252 -62.4417 572.499 53 57 50
62.3339 -19.0681 1232.89 106 53 36
456.491 5.72814 1687.81 255 251 249
456.491 5.72814 1687.81 255 251 249
-57.4911 56.932 1097.11 247 255 255
592.848 109.455 1868.9 162 142 122
592.848 109.455 1868.9 162 142 122
511.032 152.66 1771.16 131 118 94
-72.2658 110.491 1093.98 107 25 9
-72.2658 110.491 1093.98 107 25 9
378.89 282.59 1752.43 96 117 120
-110.14 315.191 1281.36 147 134 120
-29.6486 332.878 1198.61 249 254 252
-31.9335 347.685 1170.52 249 252 247
-12.6024 451.123 1238.46 248 235 220
142.724 -213.357 914.635 152 146 137
496.95 -157.101 1803.92 95 70 63
-164.044 -54.9002 1313.17 100 68 61
-164.044 -54.9002 1313.17 100 68 61
28.653 6.69972 1184.5 255 236 218
493.651 20.4993 1676.42 219 205 193
590.286 109.294 1862.76 163 141 123
-31.0611 70.6883 1112.33 255 251 252
-36.8291 107.903 1140.85 255 251 254
441.856 170.41 1689.1 50 36 28
20.1233 230.703 1130.55 249 254 252
-33.2254 250.457 1159.9 159 117 96
-8.27853 264.693 1220.03 252 250 254
-31.4927 302.33 1161.29 253 251 255
-16.1061 32.5404 -154.593 113 116 98
-586.665 -71.9632 817.082 130 140 133
-153.536 56.0563 1137.35 46 28 18
441.625 198.571 1727.8 213 228 224
-9.03276 143.975 1174.75 255 218 193
-106.801 157.34 1148.55 68 47 26
-28.0244 187.905 1143.53 242 200 167
4.63369 245.504 1207.21 160 104 91
4.63369 245.504 1207.21 160 104 91
-47.2156 332.76 1172.58 93 64 56
-26.0054 419.991 1188.9 58 43 32
-87.7926 -252.384 1057.15 32 18 10
2.16123 -32.0424 1192.91 124 115 125
-5.27248 86.3076 1173.15 218 149 120
-63.8099 87.0466 1094.76 255 250 253
118.311 121.48 1332.97 246 221 194
-144.982 234.442 1173.49 143 87 63
24.8599 268.751 1224.5 248 254 255
24.8599 268.751 1224.5 248 254 255
-98.8494 -226.22 1349.62 54 45 34
368.513 -236.902 1675.4 185 168 156
517.291 -228.724 1694.7 113 104 102
503.374 -61.5222 1628.81 241 244 236
18.5768 68.4185 1197.13 251 255 249
18.5768 68.4185 1197.13 251 255 249
-152.523 169.056 1142.23 158 88 54
-70.4455 -64.8558 1313.86 53 101 101
-70.4455 -64.8558 1313.86 53 101 101
-73.5851 279.01 1175.32 96 47 35
226.359 -340.981 1568.31 180 173 161
-126.32 320.606 1242.13 150 88 57
-55.9114 380.749 1184.46 62 51 44
-336.007 -156.97 831.478 127 133 128
-99.2871 182.363 1144.04 77 61 40
374.159 -153.186 1598.58 68 57 53
244.484 -144.315 1739.07 49 44 30
440.287 119.559 1781.98 54 43 41
51.5239 499.156 1308.66 75 74 71
639.655 -651.629 3221.55 180 181 167
307.368 36.9303 1556.9 83 87 57
307.368 36.9303 1556.9 83 87 57
