203.6 -108.545 939.08 97 73 62
322.079 -82.1539 799.69 180 176 171
127.856 -98.5083 999.019 127 114 121
120.844 -53.7874 895.357 163 157 138
-391.606 -46.5747 1049.02 158 170 167
266.899 -9.90222 868.387 54 46 48
-471.247 27.3125 991.235 249 239 214
-319.318 47.2726 1143.71 43 23 15
-334.036 42.9191 959.553 116 68 24
-362.201 50.5636 887.864 68 31 18
-362.201 50.5636 887.864 68 31 18
-447.733 56.5065 980.957 228 186 174
-281.552 82.4494 1167.79 43 31 12
-383.929 84.8932 1019.01 165 107 98
-383.929 84.8932 1019.01 165 107 98
285.436 83.143 908.987 148 144 108
206.24 83.8399 926.554 199 196 152
229.272 83.1055 889.673 164 98 72
269.255 83.6411 888.642 247 247 219
322.317 84.2127 868.592 156 178 151
155.526 90.7265 944.035 184 160 136
210.271 120.208 936.103 252 232 222
259.408 126.652 941.785 235 213 192
-235.924 210.491 1313.2 203 189 171
-401.856 181.29 1102.6 254 245 233
-273.969 191.321 1008.01 140 128 118
357.824 173.203 901.501 212 225 212
-366.438 224.851 996.615 206 206 200
-366.438 224.851 996.615 206 206 200
-266.417 300.391 1095.97 90 62 43
-316.174 307.174 1073.86 255 235 212
-441.623 344.357 1171.63 227 243 214
-285.216 385.98 1180.38 242 238 225
362.838 354.833 1072.93 231 249 248
340.23 398.05 1081.39 221 240 242
341.215 421.167 1095.98 228 250 252
301.586 457.24 1135.55 198 235 234
-233.05 551.876 1295.04 227 227 222
-298.419 622.896 1393.88 115 162 148
106.684 -601.007 2064.31 249 250 241
106.684 -601.007 2064.31 249 250 241
-1277.59 -362.831 2218.76 71 79 73
261.214 -92.8346 877.663 160 194 197
261.214 -92.8346 877.663 160 194 197
280.555 -66.1073 850.314 30 51 47
-424.853 -74.5439 1101.74 73 78 66
280.324 -44.9422 840.664 234 245 240
-318.234 -39.0675 1059.76 136 111 91
-318.234 -39.0675 1059.76 136 111 91
-311.602 -30.7422 1091.74 145 122 102
323.78 3.39814 864.205 81 106 98
-275.815 49.5138 1193.05 44 34 27
-321.673 49.2739 1047.74 63 50 41
-369.614 53.1704 925.761 255 226 198
-559.532 64.547 987.075 252 252 239
-334.716 67.5463 971.708 255 249 235
357.184 71.5058 886.762 171 183 160
-338.318 84.3313 1000.22 251 243 219
377.396 84.3633 922.369 245 254 235
-363.648 88.4931 987.175 244 232 221
-363.648 88.4931 987.175 244 232 221
367.02 112.402 940.364 235 240 235
367.02 112.402 940.364 235 240 235
-267.887 191.851 1242.82 41 21 10
-315.743 186.062 1052.55 251 244 220
251.086 169.774 928.803 255 252 241
352.265 172.787 926.001 108 124 107
-293.755 209.484 1123.81 52 40 33
-429.263 275.15 1191.14 211 211 207
311.572 251.125 1049.99 255 254 230
-516.436 267.575 1133.57 255 250 250
333.94 239.593 970.555 255 255 234
338.504 242.972 963.698 172 176 160
-513.222 284.136 1138.52 254 254 252
-241.009 326.777 1270 17 14 8
222.377 282.991 1047.91 151 128 111
-287.4 300.688 1096.96 247 225 214
243.534 333.785 1082.53 85 117 121
253.092 341.762 1065.86 190 227 232
-255.735 350.322 1088.48 71 61 51
374.818 400.269 1109.23 109 134 145
330.342 414.76 1108.86 215 241 240
369.74 462.108 1154.15 237 255 255
187.044 -549.864 1769.82 73 69 64
-329.017 -42.9003 1060.54 64 55 43
-331.745 -10.0341 1028.13 54 41 31
-335.855 -4.18572 1009.81 143 126 101
-341.44 0.364284 995.689 53 35 19
-297.278 26.667 1141.44 178 152 136
-566.263 34.9639 951.803 231 226 203
-324.634 42.9393 1026.28 163 151 143
-489.992 65.859 1008.07 208 130 112
163.322 84.471 929.966 122 91 56
402.256 88.3742 958.004 140 143 128
-425.814 91.3421 988.354 251 254 250
-367.144 108.702 1024.17 254 247 244
329.557 111.753 947.125 254 253 252
188.139 126.037 972.528 213 198 204
219.016 140.036 962.014 246 227 221
-382.932 170.092 1043.15 235 213 192
140.972 207.822 1003.55 74 69 54
234.725 208.596 996.622 245 244 228
-231.665 298.03 1219.85 179 169 155
191.736 296.609 1055.64 141 132 118
-270.395 350.778 1190.12 161 160 150
345.878 324.878 1086.56 168 179 174
358.677 352.342 1080.41 71 93 114
-523.548 387.755 1206.11 254 254 249
278.192 426.798 1152.93 107 134 142
-310.66 566.573 1428.17 112 150 137
387.397 472.281 1167.23 150 166 159
387.397 472.281 1167.23 150 166 159
373.312 484.914 1116.67 254 255 254
-40.571 -589.912 1981.25 94 50 40
270.871 -123.647 914.301 51 82 87
270.871 -123.647 914.301 51 82 87
115.137 -130.569 1035.99 93 92 77
115.137 -130.569 1035.99 93 92 77
257.153 -112.424 900.157 193 168 157
-337.583 -18.8241 1013.64 59 50 34
267.923 -9.66747 856.716 69 63 66
99.2882 36.0836 928.158 98 82 82
215.286 97.3917 997.191 153 112 77
355.526 92.2527 922.621 234 237 227
173.975 105.943 940.122 156 90 78
169.471 118.899 976.835 253 254 249
134.463 124.804 974.82 194 193 192
396.482 136.163 958.742 230 233 204
271.7 181.134 989.647 255 254 247
155.766 242.207 1061.75 88 86 82
325.905 238.542 979.729 193 183 140
-389.019 353.947 1145.03 172 194 156
399.353 394.104 1113.45 176 206 210
-195.704 -747.995 2201.34 113 102 88
-195.704 -747.995 2201.34 113 102 88
215.188 -110.041 939.958 200 176 159
215.188 -110.041 939.958 200 176 159
95.5922 -76.1311 959.299 63 59 51
164.2 -56.6616 871.246 33 25 23
337.504 3.07195 859.727 115 132 107
-524.373 67.676 1006.63 252 249 255
140.279 156.203 1003.13 222 227 224
259.671 194.228 1009.06 254 252 234
272.361 196.109 976.726 182 172 159
-530.687 336.026 1186.42 253 250 252
-486.265 340.082 1089.74 254 253 252
363.738 370.7 1085.22 195 221 218
363.738 370.7 1085.22 195 221 218
272.771 -80.5618 850.663 147 185 185
272.771 -80.5618 850.663 147 185 185
-332.942 -92.4782 1116.54 149 136 116
200.404 -63.1028 886.731 46 42 39
-307.922 19.6881 1100.28 55 48 46
289.718 83.634 902.95 161 158 118
-512.127 98.6713 1017 194 135 117
370.825 179.145 904.191 103 98 91
-298.232 240.725 1102 112 81 57
-284.181 321.512 1151.53 132 94 73
-482.468 380.292 1171.75 83 79 65
-1220.33 -360.627 2122.94 89 96 90
-1288.1 -139.324 2023.78 80 74 59
-315.278 -0.0833947 1071.35 145 139 122
-315.278 -0.0833947 1071.35 145 139 122
-298.414 48.0539 1130.44 166 144 122
182.306 61.0978 917.459 105 80 70
-484.147 90.8768 1016.13 254 253 249
218.1 109.971 947.542 214 192 173
-562.36 127.129 1039.34 250 253 253
-442.703 336.058 1132.57 186 204 172
359.428 315.098 1058.04 162 192 185
-655.743 -621.715 2155.99 98 102 97
-1856.08 -373.188 2651.65 71 71 55
-360.74 59.8688 993.212 231 206 176
259.482 97.6088 926.741 239 233 228
-488.686 111.546 987.029 197 122 98
-247.436 243.082 1289.35 64 59 56
-325.62 232.248 1101.63 255 251 250
45.266 -534.319 1837.15 94 69 45
299.058 -47.725 844.986 153 181 156
-372.173 12.2498 966.599 250 228 190
344.452 67.8415 883.504 234 240 226
-231.414 178.443 1319.87 173 168 147
-334.172 154.171 1023.79 245 186 147
242.207 142.556 946.95 138 108 103
-557.803 -519.639 1712.55 91 95 89
378.872 189.628 945.777 86 90 85
325.314 377.823 1144.04 196 224 226
-731.031 -459.683 1922.3 26 26 21
306.12 171.178 953.382 255 254 253
306.12 171.178 953.382 255 254 253
-294.375 127.231 1121.16 74 59 49
-390.886 298.867 1185.45 252 254 253
