505.763 -253.912 1731.81 153 150 138
505.763 -253.912 1731.81 153 150 138
460.603 -142.186 1598.01 239 212 197
90.8963 -86.023 1270.92 158 130 99
304.921 -107.484 1710.77 34 19 5
464.998 -94.3279 1661.91 144 128 93
250.84 -45.3555 1829.35 92 88 70
486.313 -39.1369 1707.69 176 150 145
111.634 35.2843 1282.55 177 132 104
111.634 35.2843 1282.55 177 132 104
-63.3914 85.5934 1103.22 251 253 244
-81.5274 113.082 1127.49 120 98 92
70.89 149.542 1234.67 247 246 237
-62.078 314.931 1173.01 146 100 81
-21.4697 394.851 1330.58 71 43 22
-19.3365 346.171 1162.39 71 43 22
-143.79 481.871 1447.41 11 1 0
413.733 -275.273 1684.83 169 190 189
508.875 -274.499 1669.55 175 209 207
548.842 -282.03 1742.78 82 96 87
423.333 -237.945 1612.43 81 89 81
426.528 -212.626 1544.45 51 40 38
323.174 -205.221 1675.96 188 190 164
430.488 -55.2904 1644.09 118 83 83
461.118 -53.6688 1649.57 254 251 242
40.7249 -36.0168 1162.88 201 152 123
100.798 3.5135 1282.67 255 247 227
497.053 36.2865 1714.09 243 239 213
464.813 38.3369 1658.47 150 132 111
545.932 64.1771 1714.11 254 255 230
432.414 115.254 1694.84 90 76 69
493.849 149.539 1718.72 233 230 218
68.6473 135.132 1271.04 255 255 241
-81.3231 147.859 1115.22 201 173 159
47.0568 197.884 1257.76 232 213 208
44.0248 212.082 1248.67 255 250 249
-100.484 215.218 1109.84 120 103 80
-20.76 277.944 1163.33 255 251 247
-20.76 277.944 1163.33 255 251 247
-30.6375 338.925 1197.28 253 254 253
107.296 425.978 1345.22 96 92 89
477.353 -292.893 1726.68 109 126 124
477.353 -292.893 1726.68 109 126 124
474.934 -194.525 1564.98 186 176 169
559.786 -191.939 1762.92 112 111 97
478.946 -93.2111 1623.98 192 161 127
-38.7372 7.1972 1091.27 174 116 98
511.34 131.923 1773.08 137 118 95
378.645 208.491 1768.71 160 192 187
489.949 295.607 1885.22 243 255 253
478.573 357.554 1857.55 163 191 188
107.925 407.303 1311.97 233 232 221
328.429 -211.757 1617.14 7 5 3
448.311 -140.439 1660.94 251 254 255
508.729 -49.1421 1705.92 148 124 109
514.793 -31.1374 1720.62 132 116 93
493.137 4.17881 1681.96 234 223 202
564.891 87.2517 1795.77 156 148 122
-29.0534 57.6487 1105.09 255 247 253
387.304 360.575 1904.39 73 80 77
-30.3038 233.971 1154.09 170 77 63
-30.3038 233.971 1154.09 170 77 63
10.6372 388.179 1216.96 88 73 65
26.8817 389.72 1196.74 249 243 232
7.22365 -46.2276 1183.97 2 20 31
-69.4279 8.94307 1068.05 209 191 170
444.07 180.754 1740.51 236 247 246
85.3927 156.586 1273.06 253 254 255
-99.8086 138.693 1093.27 68 48 33
102.09 205.868 1338.68 254 252 255
5.85765 224.189 1181.5 147 106 109
5.85765 224.189 1181.5 147 106 109
111.907 294.069 1357.51 253 254 255
-35.1641 252.893 1144 255 252 255
-29.8849 290.211 1177.22 251 255 252
-45.3326 318.414 1173.38 82 53 52
-1.1399 74.1685 1184.14 213 139 114
361.187 222.371 1834.42 82 107 108
367.702 -251.365 1664.44 187 172 170
19.4594 52.5569 1175.43 251 255 251
19.4594 52.5569 1175.43 251 255 251
-52.6596 117.181 1098.77 249 255 250
-52.6596 117.181 1098.77 249 255 250
-70.3886 255.032 1132.7 93 53 44
-15.8287 322.627 1175.87 255 248 248
0.757371 -56.7625 1205.21 71 103 102
-55.0285 370.641 1204.06 77 61 57
-104.629 44.0303 1105.17 61 37 26
-95.8988 166.827 1135.77 79 56 42
359.991 -163.267 1538.99 64 52 49
52.1461 485.773 1320.03 74 73 72
443.918 -47.9051 1469.68 168 156 141
-53.4357 527.628 1391.36 46 45 42
302.559 20.1778 1536.91 74 86 54
302.559 20.1778 1536.91 74 86 54
