-123.088 -52.4939 247.784 44 41 27
169.199 -175.112 1044.87 159 208 195
-5.53122 -167.537 1125.76 100 82 61
-422.002 -105.654 835.787 189 192 190
-39.9524 -92.7998 992.296 55 53 51
58.8735 -74.2183 896.204 237 237 233
-559.612 -58.8587 1216.86 166 169 160
-620.046 -33.4923 1179.54 254 250 243
-433.631 -11.8183 1287.82 242 215 202
21.2233 2.16673 860.9 255 254 235
-514.124 6.66955 1208.59 178 142 128
-477.641 9.61687 1289.56 141 127 120
-645.314 14.0851 1218.27 200 136 121
-526.034 15.6915 1200.54 249 224 174
132.915 8.8647 860.243 122 137 115
-529.302 19.1001 1285.97 18 6 2
-516.73 24.4453 1165.99 184 156 131
-397.721 31.8406 1372.49 25 14 3
-475.203 43.2192 1116.12 255 243 225
-510.8 64.2581 1296.06 32 27 12
-6.81145 48.878 946.049 255 255 242
-517.571 77.5731 1357.42 95 84 74
-499.759 86.9819 1192.23 164 130 122
-350.634 124.01 1454.82 164 142 122
-504.76 110.857 1318.6 170 151 135
66.2059 76.9294 917.503 253 243 223
66.2059 76.9294 917.503 253 243 223
-452.174 107.312 1131.26 255 247 233
-0.628668 103.962 1018.84 254 252 231
-380.449 210.599 1371.47 149 126 110
-327.6 228.988 1471.62 77 49 36
317.893 199.707 1123.94 64 52 31
14.366 176.187 1001.68 135 105 88
-584.471 243.719 1304.3 242 242 229
-455.776 244.136 1268.28 255 236 211
-447.141 252.378 1310.01 255 249 229
-588.589 267.952 1339.61 244 241 224
-610.254 272.52 1326.57 109 106 88
-367.15 297.708 1396.08 250 249 238
217.76 224.06 985.131 101 96 82
209.148 254.807 998.233 250 251 250
-392.805 443.078 1447.33 56 76 68
-333.021 505.866 1518.05 126 127 129
220.441 475.75 1190.05 249 255 252
-489.624 -153.091 909.178 108 116 109
224.957 -142.378 991.02 122 105 92
-655.37 -174.631 1260.33 168 169 157
66.4707 -79.0069 896.969 52 62 55
53.0991 -78.6019 906.769 41 51 47
29.0273 -75.8816 907.36 36 98 88
-507.723 -47.4015 1166.23 54 40 30
-679.654 -27.729 1224.77 255 251 239
-534.043 -11.6203 1068.48 45 30 8
246.075 -12.1673 1027.98 179 136 112
-372.667 -2.7283 1287.21 149 119 102
102.881 -4.85622 861.258 125 152 120
293.543 11.639 1123.04 156 134 112
-472.9 31.193 1220.57 45 30 21
-486.93 33.0744 1152.1 111 72 46
-428.097 56.326 1101.77 93 89 79
-72.6885 57.0266 995.677 253 245 245
-352.63 122.73 1417.9 35 10 3
50.3965 91.7657 975.099 246 215 196
-21.7987 99.2674 992.58 255 250 225
59.9091 114.019 1029.65 230 201 180
59.9091 114.019 1029.65 230 201 180
-688.342 159.083 1347.5 253 253 238
-473.263 158.061 1271.12 67 40 16
-619.377 207.65 1262.55 255 252 254
-619.377 207.65 1262.55 255 252 254
188.329 166.84 952.943 166 176 134
-325.725 249.208 1366.4 164 147 128
-354.431 -126.014 637.768 95 95 83
132.372 -47.981 834.924 20 9 2
158.497 -44.5603 885.154 65 48 34
-486.465 -48.2245 1182.01 189 163 131
-486.465 -48.2245 1182.01 189 163 131
-483.409 0.332341 1227.81 172 160 145
-474.74 5.47186 1246.8 53 39 30
-658.276 11.2519 1186.09 254 253 242
-55.6897 75.3267 995.787 194 192 163
-622.803 140.95 1380.13 255 249 233
-15.2797 109.307 992.244 192 123 105
-414.639 189.788 1624.66 65 29 22
-307.759 192.636 1468.03 49 39 33
30.5321 137.983 1003.53 124 93 83
-326.264 224.49 1477.8 77 43 32
27.0517 173.87 1022.85 255 244 230
-334.955 270.165 1468.12 22 19 20
42.7939 205.813 1028.91 199 191 156
-26.7581 238.119 1096.98 105 102 94
-447.759 304.244 1358.3 254 237 219
77.8456 275.964 1128.04 166 155 123
220.406 260.134 1003.86 119 124 101
-491.446 -121.825 1010.22 173 181 173
-66.2614 -81.9434 1022.41 149 128 88
-103.292 -50.5206 953.68 39 44 36
-71.3483 3.06442 946.23 148 140 120
-699.02 68.7387 1336.09 197 141 127
232.395 81.0085 995.831 136 115 104
-591.248 109.549 1258.36 73 60 41
-512.203 141.845 1237.32 201 175 157
54.5988 122.726 1007 251 251 245
76.9646 263.655 1040.31 153 141 115
286.259 444.911 1193.01 53 74 111
55.0523 -120.19 991.9 211 188 172
92.1876 -96.3926 925.702 87 90 85
-482.005 -64.0821 1179.23 48 47 32
249.86 -33.5038 1037.19 169 134 109
125.323 -4.34329 857.505 135 156 122
-386.458 28.8349 1393.87 172 176 161
-547.773 45.6607 1192.79 182 139 128
-568.941 55.2769 1199.55 254 247 234
96.959 98.1826 922.267 201 198 142
-533.892 152.655 1244.15 253 253 250
-533.892 152.655 1244.15 253 253 250
-40.8864 141.804 1071.18 151 136 132
-472.413 193.83 1208.94 226 174 160
-405.311 294.335 1293.59 146 93 59
85.9643 253.53 1056.9 253 255 245
-390.097 436.897 1453.34 84 96 92
223.661 405.284 1167.59 214 234 228
81.0102 -72.731 887.135 162 198 187
-3.52196 -56.6837 902.502 66 56 46
-517.219 -48.5579 1209.76 57 39 34
133.988 -19.4625 863.172 176 174 166
-2.50024 27.5308 931.866 120 99 89
-658.426 64.0893 1249.87 198 149 137
-12.8869 65.0107 981.986 149 124 110
-12.8869 65.0107 981.986 149 124 110
-564.477 85.4836 1226.57 244 216 199
25.0838 117.462 984.825 248 224 212
-454.8 245.059 1182.08 254 253 255
-454.8 245.059 1182.08 254 253 255
-399.421 337.278 1357.2 54 56 49
76.1217 -161.767 1102.48 89 72 67
-556.934 -31.369 1179.97 231 207 190
-544.19 21.2093 1221.89 226 186 151
-483.96 120.041 1209.35 239 213 186
-451.853 180.096 1211.01 249 251 254
89.7568 150.123 987.788 255 253 255
-408.846 -49.8126 1345.59 59 50 45
-424.405 1.44612 1316.92 176 147 135
-424.405 1.44612 1316.92 176 147 135
-384.914 165.635 1370.29 187 147 130
-384.914 165.635 1370.29 187 147 130
67.3428 113.463 973.66 252 251 249
-614.831 210.412 1363.6 253 251 253
-394.746 228.2 1369.05 73 56 55
191.802 -172.186 1054.59 103 170 170
-443.751 -125.84 1364.4 42 38 28
51.3471 -28.5418 842.84 105 99 94
160.282 90.351 923.336 252 252 243
52.0614 150.914 970.533 150 129 112
40.0908 204.229 1040.23 195 189 166
-504.185 -28.3614 1197.1 49 33 25
173.91 403.901 1203.58 241 255 253
-484.448 425.821 1453.19 86 94 88
197.933 -79.6255 977.178 131 131 119
-499.797 181.296 1212.07 250 247 232
112.695 156.117 927.249 252 255 251
-405.218 74.6651 1241.93 51 46 45
266.733 218.053 968.128 146 134 118
