-392.151 -616.396 1784.39 230 236 231
-294.017 -526.583 1534.24 44 50 46
-319.939 -422.056 1279.6 40 47 46
-266.29 -303.81 1177.92 207 213 210
-332.761 -504.514 2031.2 166 157 133
-389.117 -511.018 2099.74 182 167 155
404.731 -251.292 1204.57 254 246 249
411.226 -169.316 1052.53 138 131 114
475.943 -141.303 1085.81 141 118 104
462.084 -138.975 1105.33 148 152 136
610.633 -131.011 1132.89 157 161 151
420.316 -72.4002 1132.74 59 45 46
476.885 -70.4313 1151.39 189 179 156
361.417 -62.982 1264.43 44 44 24
373.687 -37.1371 1120.62 159 116 105
636.679 -18.6482 1172.36 24 32 28
-181.044 19.4335 1010.86 255 246 232
530.272 24.9386 1166.68 247 225 216
-198.501 54.8639 1021.76 204 159 145
-220.558 62.6833 999.211 251 242 233
561.864 78.9859 1222.65 247 247 219
677.685 96.1682 1219.76 103 137 104
-110.265 134.3 1031.28 174 102 68
648.069 229.604 1333.38 220 240 239
-177.002 241.666 1093.28 253 243 233
-325.366 232.765 1030.37 249 248 237
646.161 315.076 1394.24 190 215 227
634.281 359.352 1335.5 241 250 249
-272.415 301.19 1117.27 249 242 226
-92.9209 357.328 1135.4 11 18 20
-294.282 -342.537 1048.61 45 50 46
-226.725 -362.189 1371.15 104 85 59
350.402 -237.376 1122.81 194 195 199
-450.83 -82.1313 561.4 15 15 12
-860.702 -139.962 1123.44 10 10 1
-224.903 -130.639 1142.07 125 132 140
640.855 -123.666 1131.22 217 250 218
381.515 -112.396 1098.76 112 97 91
402.69 -105.967 1133.53 117 99 90
494.24 -71.4387 1133.99 101 89 66
430.857 -45.9913 1107.65 155 142 116
-237.096 -37.7335 957.884 46 31 16
-264.827 -34.4357 990.614 31 22 9
-241.459 -30.4149 988.397 38 26 18
-241.459 -30.4149 988.397 38 26 18
-216.911 -18.7349 928.233 255 215 199
-186.333 8.20578 991.392 255 249 229
512.483 20.5686 1203.25 79 52 49
-131.822 22.1139 1040.79 164 100 77
-131.822 22.1139 1040.79 164 100 77
-210.817 40.3698 1009.37 198 139 106
-111.819 44.4803 1015.16 121 66 48
-135.23 46.3085 1023.68 181 79 30
-362.348 51.8242 971.379 87 67 58
-362.348 51.8242 971.379 87 67 58
431.141 75.8489 1194.67 151 143 124
656.918 83.7109 1291.57 251 253 245
-231.013 67.187 1012.93 253 251 248
528.119 86.6249 1213.45 127 133 123
492.666 109.603 1248.58 198 199 175
492.666 109.603 1248.58 198 199 175
-145.505 124.909 1171.16 41 8 2
525.96 145.804 1261.54 79 73 59
-195.531 126.685 1035.36 65 25 11
628.29 180.35 1340.22 248 254 253
538.919 228.065 1556.44 143 151 147
-114.82 169.577 1047.99 47 17 7
-111.135 229.525 1159.96 38 23 9
-105.432 248.856 1164.13 45 29 16
656.58 340.969 1411.45 237 251 250
-91.972 275.334 1127.09 55 34 21
-309.746 310.778 1076.46 250 252 249
-261.263 350.29 1101.75 237 236 233
-261.263 350.29 1101.75 237 236 233
-30.1723 -396.893 1147.87 160 161 153
-30.1723 -396.893 1147.87 160 161 153
-400.79 -351.335 1081.3 55 59 50
452.178 -277.286 1231.03 200 180 160
411.201 -200.354 1101.13 143 127 100
631.676 -158.938 1111.49 226 244 233
644.525 -141.786 1135.91 223 233 213
660.968 -105.946 1159.86 249 255 237
660.968 -105.946 1159.86 249 255 237
417.378 -97.3107 1081.77 252 247 247
456.827 -54.1032 1135.86 100 86 54
488.35 -52.9338 1128.06 128 96 75
455.023 -37.9999 1157.48 98 66 44
-313.785 -16.6394 1010.81 209 181 154
522.497 29.1613 1209.11 244 229 221
-138.477 26.8612 1015.22 167 90 73
573.74 35.2451 1212.93 253 248 248
-203.354 48.5321 1015.58 253 243 234
-313.386 55.562 978.72 227 242 226
-117.243 69.4582 1049.61 232 209 196
-310.138 76.2531 984.33 255 248 232
-111.27 130.624 1059.21 199 111 64
480.472 173.167 1236.56 132 132 121
-270.646 233.188 1087.54 121 66 68
542.89 320.882 1455.54 22 57 70
-224.424 254.493 1039.17 202 147 150
-268.376 324.459 1127.63 255 252 240
-108.211 401.985 1302.12 254 251 241
-105.936 362.174 1161.82 251 251 252
-450.154 -402.95 1540.66 74 36 27
643.848 -240.426 1120.88 117 140 112
631.041 -194.353 1093.49 103 136 104
-218.002 -30.4988 972.605 185 114 81
458.688 -19.4045 1155.02 254 253 252
447.037 -19.4175 1178.65 103 80 66
-296.985 -2.30746 818.138 197 174 151
-296.985 -2.30746 818.138 197 174 151
-263.355 25.3503 989.391 187 101 69
-375.34 44.5241 969.964 103 69 57
-375.34 44.5241 969.964 103 69 57
-263.4 78.3953 1000.23 175 87 68
-64.9697 179.289 1110.27 255 253 230
522.63 238.956 1354.34 39 73 82
522.63 238.956 1354.34 39 73 82
634.538 376.853 1442.17 191 225 218
-171.761 431.058 1303.23 249 254 248
-300.44 395.831 1157.66 87 77 67
582.382 -243.369 1020.63 36 64 84
591.024 -75.8095 1145.3 144 143 113
591.024 -75.8095 1145.3 144 143 113
573.442 -62.9536 1176.2 250 254 255
-237.805 -50.4247 978.682 31 27 22
386.375 -13.6773 1285.6 87 82 67
-241.61 0.154543 1002.54 243 188 164
-241.61 0.154543 1002.54 243 188 164
423.576 25.8231 1168.49 243 243 245
423.576 25.8231 1168.49 243 243 245
-228.289 43.5064 991.494 240 229 222
-316.833 216.815 1038.75 131 64 48
-309.599 268.019 1050.82 232 231 238
-255.761 367.941 1112.03 52 48 48
-468.396 -394.336 1219.17 135 147 140
-219.227 -66.3881 297.891 81 92 85
554.464 -144.362 1117.83 92 82 84
-323.281 4.04183 1021.07 171 108 87
-214.451 87.7861 1032.57 95 50 45
-214.451 87.7861 1032.57 95 50 45
-207.419 119.735 1051.26 78 31 20
-292.385 123.244 1001.77 221 179 140
-157.251 156.29 1042.21 251 247 234
-242.106 181.395 1048.81 224 224 213
-242.106 181.395 1048.81 224 224 213
-265.275 215.755 1043.83 183 139 127
-278.411 308.469 1088.18 232 231 229
-278.411 308.469 1088.18 232 231 229
496.565 -185.207 1060.19 74 61 61
-174.594 -89.4104 1066.53 44 79 96
-197.394 54.5784 994.677 226 192 181
-197.337 162.742 1089.96 113 91 84
-128.566 238.655 1127.2 252 255 255
-177.075 -442.849 1367.44 98 73 57
-492.628 -164.777 732.559 68 82 74
667.064 -102.213 1166.96 233 241 225
397.215 60.0331 1162.76 56 42 33
-296.193 78.2541 1041.76 203 104 85
-345.789 106.604 988.253 249 254 252
-345.789 106.604 988.253 249 254 252
-345.789 106.604 988.253 249 254 252
-178.004 -486.511 1724.84 178 157 132
-178.004 -486.511 1724.84 178 157 132
-265.479 -264.4 1036.41 74 60 38
-254.539 54.6831 1006.6 247 227 220
704.6 101.316 1262.92 111 141 108
591.579 29.9887 1163.47 255 255 254
591.579 29.9887 1163.47 255 255 254
11.9178 535.7 1440.87 182 182 173
-297.94 -93.497 393.633 66 74 69
-231.087 -102.452 1149.08 91 97 99
-158.792 281.637 1212.47 207 206 210
488.993 131.445 1453.49 60 52 46
