285.114 -193.517 1965.31 179 178 155
224.681 11.2508 1823.57 167 128 106
196.382 205.401 1824.97 86 74 64
-129.431 179.19 1098.81 44 13 7
-181.488 196.315 1059.12 181 102 68
-81.5717 203.472 1086.52 26 8 0
190.13 384.126 1978.5 164 193 189
-99.5386 221.769 1099.58 59 34 14
-215.304 276.778 1179.85 46 8 5
-37.9392 281.178 1153.95 255 243 239
-205.089 340.993 1181.6 53 4 1
334.971 -204.884 1119.92 47 46 42
251.285 -202.859 1916.01 160 187 183
268.36 -70.1778 1911.57 154 135 106
208.847 -37.1579 1798.85 236 224 218
-189.839 -8.08185 1285.06 119 119 120
-322.201 60.0612 1130.51 78 61 45
-40.0337 95.3779 1156.55 255 250 252
-129.498 138.974 1112.35 168 149 141
-72.83 232.259 1134.91 80 67 56
-72.83 232.259 1134.91 80 67 56
-41.4749 310.582 1163.09 253 250 234
-139.04 361.47 1235.02 50 32 31
-10.5756 363.344 1243.4 197 206 180
-197.163 381.137 1170.11 61 32 20
-82.1072 372.46 1101.19 140 95 70
-38.2339 503.322 1195.19 235 228 210
454.417 -220.648 1189.11 105 105 98
-181.521 -35.5581 209.977 35 40 35
-250.025 -36.1018 307.125 28 36 30
217.495 -164.151 1983.66 134 133 117
-129.443 -7.7416 1290.94 126 115 114
-46.355 113.696 1111.42 255 252 249
-7.74267 138.198 1235.97 202 154 134
-94.1503 212.391 1106.02 201 165 155
-12.5973 310.129 1254.87 253 253 252
-73.493 324.279 1150.32 92 34 30
-48.1503 389.205 1116.03 254 252 250
6.27997 465.298 1328.04 162 164 133
-50.0896 417.341 1158.25 65 33 24
-24.1194 465.523 1215.02 97 80 68
97.6982 -131.398 1755.06 13 12 8
-48.0402 483.945 1172.03 50 35 31
-320.353 -40.6042 396.276 102 116 108
-196.612 86.0177 1074.42 150 134 124
-67.5448 129.662 1080.29 247 249 247
-51.729 308.003 1083.91 252 250 249
-291.069 -28.2607 354.843 44 54 49
-269.772 91.7223 1137.15 147 99 79
-167.284 103.163 1056.63 34 26 17
-152.524 319.936 1172.74 57 37 32
-42.0556 453.009 1195.78 250 251 246
-156.439 -9.39405 1276.66 47 84 96
199.59 381.021 1979.72 195 221 217
-119.225 -22.9138 137.622 83 94 86
-264.933 -31.0243 330.326 41 45 43
-187.301 232.051 1119.57 153 86 51
-127.277 42.6645 1119.9 159 131 110
-22.1274 -82.6937 1712.03 54 39 27
-164.205 384.881 1181.82 148 92 59
296.267 27.1806 2094.78 251 255 244
-121.205 236.793 1132.89 73 60 39
63.3578 -228.536 1674.44 177 175 161
-21.447 85.9391 1213.96 242 196 180
-273.847 138.738 1110.29 61 37 21
