-108.343 -562.833 1712.93 56 62 59
231.682 -103.423 1048.25 90 35 16
-382.938 19.5085 1069.72 162 156 140
334.429 19.5891 1066.3 65 47 43
-513.894 56.671 994.544 67 53 35
158.92 80.206 1017.17 181 165 145
-518.052 118.948 997.188 251 228 211
-434.389 118.839 988.456 247 224 211
-417.044 153.955 1001.76 52 17 12
-417.044 153.955 1001.76 52 17 12
-342.393 150.361 822.153 255 245 232
-587.159 188.517 1021.8 101 64 58
-409.906 189.741 1008.66 250 238 216
-398.298 215.752 1041.61 255 244 226
-313.193 261.807 1070.76 133 122 114
-595.534 256.346 1036.3 119 101 75
-372.72 265.831 1031.89 255 233 219
-593.151 283.615 1053.99 185 165 142
-327.903 307.108 1091.76 255 248 224
-329.347 373.193 1102.33 255 229 207
377.259 457.315 1234.33 54 80 89
283.565 466.775 1242.12 32 61 70
-517.543 408.463 1073.73 219 214 209
-571.636 423.225 1111.47 247 244 237
-347.077 559.639 1180.01 110 124 116
-184.024 -323.554 1037 85 88 83
-29.396 -94.6569 369.793 91 92 90
-174.794 -310.281 1238.13 74 51 33
-291.537 -363.792 1493.24 142 114 93
-284.204 -116.553 568.451 25 27 22
233.313 -105.333 1015.43 130 83 69
258.837 -114.965 1136.69 130 83 69
101.016 -104.071 1156.7 198 192 191
312.337 -57.634 965.094 231 242 227
-1014.52 -67.3386 1394.77 26 29 23
273.745 -9.61474 1004.67 185 183 155
356.879 16.5704 1000.35 105 108 95
381.419 41.3783 1027.13 234 244 240
381.419 41.3783 1027.13 234 244 240
-382.849 41.2794 995.284 147 130 106
214.984 49.9453 1031.59 244 233 208
-520.931 65.5888 979.927 245 240 232
-492.338 64.8096 940.993 76 59 45
260.925 94.0457 1026.82 167 112 89
-610.469 129.475 990.513 150 148 153
-588.976 128.203 970.351 250 253 251
-588.976 128.203 970.351 250 253 251
-398.178 187.062 1013.67 255 229 209
-320.398 252.691 1269.11 44 20 9
-433.182 241.015 1051.58 86 73 58
367.615 255.663 1090.43 252 251 240
399.549 277.048 1154.13 168 169 156
300.811 274.942 1140.71 250 255 237
-290.048 402.346 1304.5 6 4 1
-443.176 335.773 1080.54 255 252 245
-450.621 351.532 1089.64 204 205 191
-497.622 354.27 1077.35 158 139 123
-485.325 364.413 1101.56 207 182 169
-356.724 388.484 1124.34 247 223 203
-504.017 399.225 1115.64 226 230 206
-354.788 396.262 1086.99 254 255 232
386.644 481.119 1268.1 210 235 247
-287.873 420.158 1096.5 255 253 233
331.792 520.435 1286.09 202 227 223
63.022 -221.757 678.738 165 166 161
280.972 -130.414 1083.79 208 191 178
171.738 -107.408 1104.95 72 27 14
171.738 -107.408 1104.95 72 27 14
212.639 -84.0876 1007.98 170 189 182
-893.823 -72.5064 1183.75 137 150 139
-495.941 16.2495 1070.36 50 90 94
-386.74 22.0608 1048.2 57 55 45
-373.272 37.5614 1018.1 146 128 115
-497.999 59.5253 976.618 251 244 228
392.318 73.4326 1021.76 180 198 164
226.328 78.0069 1020.15 194 192 156
179.539 98.5082 1030.8 120 91 62
187.774 107.729 1040.24 233 225 197
187.774 107.729 1040.24 233 225 197
-317.546 96.7363 818.834 166 121 97
-597.726 120.656 979.082 246 252 248
-578.961 115.484 892.442 60 62 53
201.08 139.714 1051.53 210 205 203
247.535 146.917 1088.64 92 59 58
146.671 145.916 1068.81 206 201 204
243.854 156.96 1080 255 241 231
223.124 176.158 1068.7 88 51 41
223.124 176.158 1068.7 88 51 41
231.759 182.373 1063.96 255 246 241
277.871 188.979 1078.74 108 81 71
155.771 248.053 1136.33 91 71 63
301.477 241.992 1036.17 255 254 246
372.96 355.006 1211.07 159 178 171
-522.761 309.645 1044.92 127 96 90
-532.962 324.598 1055.44 250 252 252
-532.962 324.598 1055.44 250 252 252
269.832 392.957 1251.8 75 105 126
-309.082 358.603 1092.12 235 219 205
-496.551 365.652 1071.66 217 215 195
293.247 -109.684 999.821 51 44 43
97.2873 -96.3946 1118.33 171 164 165
-379.645 -19.6448 1194.62 52 44 33
-432.924 27.5509 1011.52 54 69 84
125.437 40.0023 1006.97 254 253 250
125.437 40.0023 1006.97 254 253 250
147.982 72.5385 1015.43 83 70 70
269.254 74.1459 1031.74 131 108 88
-457.637 79.1154 983.742 86 40 29
262.504 99.5559 1027.41 195 125 110
262.504 99.5559 1027.41 195 125 110
-501.198 96.7017 968.581 248 218 201
-501.198 96.7017 968.581 248 218 201
350.322 112.834 1040.08 249 251 249
-532.292 119.649 994.7 207 140 118
180.135 131.725 1050.19 255 249 245
-548.706 159.001 949.738 251 253 244
179.541 294.112 1245.47 80 75 73
-506.426 287.965 1034.73 134 109 104
-546.411 315.277 1057.65 252 253 254
-570.915 319.259 1058.1 253 252 253
426.761 513.172 1282.41 208 240 235
-370.662 457.284 1131.23 254 253 250
-277.243 -364.023 1168.78 158 166 160
87.0916 -69.977 1044.53 54 47 32
181.632 -61.1511 991.139 32 29 25
377.634 -32.9693 1004.4 126 152 120
-656.703 94.4188 995.049 213 206 184
-656.703 94.4188 995.049 213 206 184
250.62 173.735 1081.47 93 67 67
146.72 175.246 1070.6 255 253 255
173.796 211.106 1064.61 159 162 136
-573.686 297.323 1042.15 148 95 81
-573.686 297.323 1042.15 148 95 81
-291.594 391.006 1324.36 150 150 133
-574.293 354.331 1077.43 247 254 255
-110.448 -172.464 528.653 163 170 164
109.887 62.6988 -303.391 31 31 29
315.168 -179.087 1191.71 134 190 185
353.712 -97.5597 957.418 53 111 139
307.651 -98.3611 1003.02 158 203 195
307.651 -98.3611 1003.02 158 203 195
-365.455 68.5131 1141.45 63 51 49
189.531 182.521 1056.07 117 97 88
189.531 182.521 1056.07 117 97 88
-449.354 170.213 946.146 112 68 58
-449.354 170.213 946.146 112 68 58
-325.958 274.526 1171.21 77 60 57
-546.463 312.185 1086.21 158 119 114
-446.813 486.327 -1531.87 151 130 104
-366.523 26.9306 1273.71 152 152 138
-366.072 55.1835 1201.96 76 68 67
-366.072 55.1835 1201.96 76 68 67
206.106 70.8893 1042.63 107 70 60
332.246 109.298 996.213 251 253 249
241.596 122.889 1059.83 220 193 178
-16.0957 -159.526 525.132 121 92 76
-208.726 -103.827 414.489 97 104 97
295.637 105.079 1065.43 253 248 244
-508.471 141.617 969.804 253 254 251
-341.461 280.902 1069.37 253 247 231
337.758 295.485 1108.65 103 89 75
337.758 295.485 1108.65 103 89 75
-467.075 399.418 1082.92 173 196 158
-140.397 -268.467 1107.56 92 73 47
-386.313 -12.3971 1165.77 105 94 86
-409.497 53.0482 984.274 230 193 153
-497.84 85.7936 990.12 231 192 179
-398.986 108.266 1013.99 231 204 183
266.906 157.365 1060.13 125 99 91
-689.483 -174.634 1119.79 144 161 152
-421.116 -207.869 828.413 86 94 88
-305.608 317.089 1186.16 71 47 40
340.869 406.984 1244.36 206 231 232
-452.792 -143.081 796.672 23 22 21
343.192 189.79 1091.55 252 255 251
343.192 189.79 1091.55 252 255 251
204.811 308.575 1117.35 99 87 82
204.811 308.575 1117.35 99 87 82
-387.659 346.431 1077.09 251 254 254
-552.594 250.505 1157.84 240 221 198
