740.406 -237.608 1431.75 133 132 126
373.702 -190.828 1740.21 92 81 74
-463.684 -44.0673 715.553 106 91 67
-463.684 -44.0673 715.553 106 91 67
209.061 -5.21779 1558.84 126 99 97
209.061 -5.21779 1558.84 126 99 97
209.061 -5.21779 1558.84 126 99 97
318.612 43.4367 1782.94 160 138 135
318.612 43.4367 1782.94 160 138 135
-276.683 41.2892 1136.67 78 63 44
-254.244 64.3806 1118.78 157 115 94
-276.864 88.0727 1147.7 25 4 0
-196.307 94.8119 1131.32 44 1 0
317.458 187.071 1775.9 92 79 75
-182.733 158.278 1115.76 43 0 0
329 362.267 1937.92 192 217 213
329 362.267 1937.92 192 217 213
48.5719 246.381 1248.9 252 248 237
-88.2508 270.684 1120.37 46 11 2
-54.9189 377.767 1174.07 163 114 100
9.75178 468.479 1207.43 254 250 235
22.06 466.735 1209.37 31 37 38
5.11884 489.101 1208.11 39 45 43
-22.3611 551.834 1120.96 150 190 172
726.112 -237.764 1131.29 87 89 85
721.044 -319.445 1611.46 57 56 53
-73.4425 -22.4411 1306.59 150 147 145
-73.4425 -22.4411 1306.59 150 147 145
335.209 57.216 1755.55 255 250 245
409.689 135.717 1911.07 255 255 229
-70.1539 110.588 1079.8 75 17 7
-11.2551 121.149 1074.54 255 240 236
373.718 201.845 1828.43 144 129 107
-187.977 138.755 1124.97 59 11 3
85.235 194.022 1304.44 219 191 178
-42.2537 183.318 1089.69 253 252 254
-172.623 217.27 804.349 28 19 15
-16.1314 304.138 1162.06 255 250 253
-101.133 333.968 1211.06 60 39 35
-245.794 349.658 1239.76 38 38 33
-21.4018 395.863 1145.49 27 17 11
662.521 -249.641 1244.35 109 112 110
352.165 -76.9741 1835.62 255 255 243
206.142 -46.6451 1898.04 120 121 99
254.555 120.483 1763.86 145 110 79
427.137 163.095 1915.69 168 160 130
41.8283 163.907 1250.95 168 117 97
227.264 272.079 1731.61 152 180 175
53.6491 224.686 1312.02 151 126 110
-56.2112 206.051 1164.1 75 39 39
-68.6856 200.115 1113.43 205 168 156
78.2055 251.53 1309.96 244 255 251
350.075 391.831 2012.79 243 252 251
-176.66 253.677 1136 172 111 83
-91.6605 292.124 1133.26 51 35 34
-91.6605 292.124 1133.26 51 35 34
14.5738 335.689 1201.17 135 117 96
14.5738 335.689 1201.17 135 117 96
-21.4377 389.636 1162.76 255 249 253
-174.564 415.543 1171.56 143 76 55
24.2415 467.648 1241.78 255 252 244
218.7 -145.738 1713.07 27 21 14
-199.141 -8.23623 1287.22 81 71 66
-199.141 -8.23623 1287.22 81 71 66
10.8741 27.0657 1150.61 214 150 129
-150.413 66.5629 1095.06 70 32 20
-6.58761 78.1272 1158.67 242 254 251
-6.58761 78.1272 1158.67 242 254 251
-10.2995 130.962 1134.04 255 249 248
-10.2995 130.962 1134.04 255 249 248
34.344 228.492 1222.18 254 254 248
78.1095 254.082 1316.37 251 255 252
79.6353 211.128 987.436 86 66 59
7.42527 275.689 1173.48 125 94 88
7.42527 275.689 1173.48 125 94 88
24.0504 286.538 1207.68 253 255 250
-4.02588 297.779 1179.93 253 248 246
-44.1197 292.367 1088.02 98 42 36
-97.9547 323.344 1120.31 144 136 126
-19.9348 339.838 1153.73 252 253 255
15.6665 373.882 1201.68 112 103 87
3.65721 388.666 1204.96 248 248 248
-73.5124 411.222 1177.96 60 38 34
10.235 442.867 1194.44 102 81 74
-19.0032 459.946 1162.44 43 32 30
-42.7173 117.115 1078.51 254 252 250
298.397 208.061 1636.05 45 34 24
312.462 252.451 1790.22 244 253 250
364.442 324.88 1927.75 249 254 245
-116.999 293.369 1153.02 55 35 23
-36.7498 363.009 1120.08 84 59 56
414.6 -12.1442 1898.71 252 248 235
414.6 -12.1442 1898.71 252 248 235
-141.742 91.6601 1095.83 45 26 26
-10.3102 432.306 1180.09 254 253 255
-97.8989 -23.9212 1280.06 56 100 110
234.83 165.583 1332.44 58 48 48
-10.7871 374.672 1148.89 220 214 211
-154.729 215.298 1137.41 163 97 61
-8.95134 -4.40082 1168.96 65 106 115
-93.7186 27.3718 1071.68 165 134 109
-63.951 312.559 1130.94 105 58 50
108.772 -106.91 1827.01 80 62 47
-88.209 208.043 1069.82 75 58 43
-124.139 351.192 1150.72 166 111 81
265.328 -102.927 1676.13 59 44 40
-248.235 126.739 1199.32 76 49 37
-208.61 372.57 1236.57 70 49 44
375.176 14.2923 1727.55 254 254 252
179.356 -248.736 1653.92 192 192 187
17.7207 86.5806 1211.79 253 250 250
