-64.7131 -579.849 1678.31 161 147 135
-64.7131 -579.849 1678.31 161 147 135
82.6321 -363.906 1196.62 111 119 113
-343.339 -626.937 2573.55 82 87 86
-324.312 -290.156 1241.46 78 58 45
-807.196 -433.981 2057.4 168 172 171
413.609 -256.243 1292.6 74 37 27
376.294 -263.782 1348.08 182 154 148
534.541 -177.457 1222.61 63 48 39
399.536 -151.748 1157.45 121 105 97
-259.845 -107.837 1253.11 159 155 138
570.894 -100.902 1204.45 142 139 110
676.129 -92.2691 1296.68 228 231 208
434.579 -66.1707 1178.21 175 165 141
456.118 -66.5432 1182.88 214 197 175
389.771 -32.6722 1219.77 171 136 117
-216.972 -0.76257 981.283 122 79 53
537.416 29.0489 1259.7 114 94 85
543.405 31.0625 1250.43 255 251 249
-295.266 57.2044 968.531 241 245 223
-252.409 57.7014 966.413 255 251 241
399.73 122.007 1420.79 96 100 85
545.213 133.307 1341.44 140 131 104
596.446 159.867 1346.64 248 253 247
468.175 190.075 1308.17 75 72 52
646.217 231.082 1448.33 237 248 245
646.217 231.082 1448.33 237 248 245
-92.9736 279.133 1152.61 250 253 251
-133.894 276.884 1072.34 241 244 222
-263.925 369.326 1120.51 254 251 244
-764.777 -416.394 1496.1 59 72 67
-850.274 -465.096 1665.75 59 72 67
-705.924 -436.548 1777.3 47 55 50
587.56 -282.044 1296.13 31 65 75
560.69 -258.449 1245.3 161 194 203
473.714 -244.163 1244.43 80 42 31
622.245 -181.893 1225.88 214 237 221
622.245 -181.893 1225.88 214 237 221
370.233 -74.0373 1180.44 52 37 27
483.732 -72.9797 1180.41 195 183 154
384.657 -67.0789 1209.35 148 131 127
453.367 -40.8492 1193.19 254 250 223
507.139 -23.1815 1243.72 246 233 223
401.787 -18.4121 1205.49 68 44 33
401.787 -18.4121 1205.49 68 44 33
511.271 -1.16473 1253.24 242 217 208
-124.218 4.28282 1011.11 245 194 159
-61.53 31.5726 1075.94 159 87 63
-193.3 43.7263 1002.45 255 234 217
-216.892 58.2595 1013.93 255 245 223
-285.332 60.2859 965.814 87 88 73
-264.876 66.0764 989.234 118 86 71
-264.876 66.0764 989.234 118 86 71
585.321 93.6954 1315.42 253 254 235
-339.579 69.8594 996.06 156 143 135
-296.489 71.7932 950.382 72 42 31
-258.478 76.1182 1000.31 252 253 246
-70.0578 85.9086 1087.38 242 219 208
474.609 103.624 1273.05 206 208 178
-84.3651 129.497 1054.32 76 38 21
604.715 198.942 1378.96 140 161 160
-139.758 160.249 1072.58 86 39 26
440.404 225.43 1419.93 42 53 47
-131.903 187.976 1052.69 232 227 218
477.674 283.437 1482.54 70 87 87
512.277 282.057 1401.86 137 175 173
-5.60196 244.789 1138.08 247 227 209
515.194 327.299 1493.63 40 66 79
-122.967 275.952 1055.09 118 101 84
-213.831 312.796 1088.5 247 237 212
-211.426 336.775 1099.11 255 249 237
-87.8509 -509.051 1760.46 155 153 145
-229.329 -418.189 1575.59 160 164 156
-550.067 -265.155 1094.7 60 59 56
-606.224 -511.44 2691.27 184 166 139
603.974 -202.567 1162.15 248 253 237
483.477 -173.821 1231.1 90 70 65
357.172 -122.784 1106.79 30 21 10
408.876 -104.334 1173.89 255 252 249
692.267 -72.1348 1349.51 122 140 120
394.557 -63.048 1203.49 61 40 39
538.511 -56.6967 1244.47 212 142 123
518.813 -13.6805 1254.41 97 68 60
641.095 -14.8138 1267.13 230 237 212
-268.17 7.97506 1040.12 204 182 152
-282.922 13.6495 1027.62 208 182 154
-282.922 13.6495 1027.62 208 182 154
395.389 27.6668 1230.57 121 112 106
412.211 42.2772 1235.98 37 19 7
-89.5422 42.5177 1041.9 186 102 89
616.079 81.9822 1276.54 250 255 238
-283.471 73.9269 978.74 175 130 128
-283.471 73.9269 978.74 175 130 128
-65.5396 102.839 1093.25 253 245 245
-65.5396 102.839 1093.25 253 245 245
-255.175 96.625 999.758 255 241 218
-87.5906 112.292 1037.78 54 17 5
-87.5906 112.292 1037.78 54 17 5
592.977 155.139 1363.13 119 117 97
475.324 230.538 1327.25 19 59 87
646.192 273.562 1476.3 172 190 195
-284.078 193.703 1003.46 254 252 234
-713.92 -313.869 1724.21 63 28 21
529.159 -58.5315 1191.39 253 254 245
529.159 -58.5315 1191.39 253 254 245
403.807 -53.476 1194.55 252 240 238
-165.736 -12.7661 1010.42 200 129 105
-132.077 -6.46727 1001.11 72 34 33
517.699 14.0855 1253.61 117 84 79
606.255 80.5612 1257.9 250 255 238
-216.761 81.7879 1021.58 255 251 245
-209.082 97.1184 1011.34 175 99 79
-318.072 143.443 1013.88 135 139 129
587.372 296.335 1433.99 212 234 230
587.372 296.335 1433.99 212 234 230
474.936 342.634 1506.77 58 53 48
-36.14 -344.754 1142.05 120 119 110
-57.5188 -394.481 1331.26 26 14 6
-797.666 -433.374 1572.96 63 68 66
-797.666 -433.374 1572.96 63 68 66
-925.525 -522.8 2016.56 72 74 70
-815.444 -340.843 1567.08 82 78 66
-815.444 -340.843 1567.08 82 78 66
283.033 -203.59 1342.18 36 37 22
580.618 -76.2015 1243.21 164 165 137
580.618 -76.2015 1243.21 164 165 137
-181.577 18.1609 993.655 244 192 168
-176.287 62.0374 1018.27 247 240 234
627.028 126.732 1336.06 116 117 95
-102.91 201.89 1119.26 188 152 116
-172.475 195.354 1082.36 251 253 240
-262.205 236.917 1032.59 124 43 29
81.7762 -409.566 1367.39 75 74 68
-750.276 -353.453 1458.84 129 147 137
-225.53 48.2959 1002.12 204 121 94
-249.337 52.7134 995.864 237 232 223
-320.769 68.4864 984.425 94 60 49
-308.928 90.6195 978.268 242 215 208
-161.864 104.748 1039.46 130 74 64
-71.0949 113.01 1096.61 251 220 201
-152.876 135.21 1046.59 132 81 73
-152.876 135.21 1046.59 132 81 73
-152.876 135.21 1046.59 132 81 73
-152.876 135.21 1046.59 132 81 73
-236.373 143.417 1013.51 231 186 148
-462.042 -571.775 1768.16 139 147 141
-462.042 -571.775 1768.16 139 147 141
-462.042 -571.775 1768.16 139 147 141
735.235 -602.571 1912.17 48 44 31
-611.654 -362.684 1372.23 134 148 140
-678.507 -372.036 1648.99 124 132 126
-140.651 173.132 1058.79 153 129 107
-235.177 372.883 1088.72 235 214 202
-88.8129 -37.1695 1042.18 251 211 174
535.187 -1.2394 1258.9 137 113 102
413.356 67.4081 1267.59 43 38 32
-219.833 91.8463 967.254 192 106 83
-291.965 129.938 996.631 254 255 255
-291.965 129.938 996.631 254 255 255
-819.743 -453.289 1685.98 76 82 74
-819.743 -453.289 1685.98 76 82 74
-356.529 -323.465 1568.97 168 146 123
-356.529 -323.465 1568.97 168 146 123
619.792 -220.191 1214.04 140 168 132
-564.158 -265.478 1529.57 79 67 45
599.53 -216.882 1279.45 93 90 91
275.918 -173.922 1231.17 58 47 36
456.83 201.491 1625.54 143 130 117
-7.47278 153.387 1173.66 148 139 119
458.936 304.155 1525.59 85 76 68
-548.448 -344.812 1293.64 133 147 139
513.076 -176.935 1197.16 92 78 68
-769.731 -305.228 1809.2 68 50 42
301.296 -103.285 1097.8 84 83 70
594.637 -4.28672 1325.02 253 244 236
-121.62 302.098 1259.41 214 218 204
469.314 115.853 1534.69 79 75 67
-157.251 146.564 1028.17 164 126 104
