-341.7 -419.071 1650.56 166 159 154
619.661 -253.636 1407.25 210 220 204
514.143 -253.429 1482.78 98 55 54
488.102 -268.211 1612.38 196 157 143
-639.955 -135.035 1083.38 60 72 67
-609.427 -130.265 1042.37 112 124 117
-731.377 -142.937 1206.39 64 77 68
-1039.16 -240.02 2575.94 78 65 50
395.129 -124.621 1529.27 36 29 17
-750.348 -125.992 1652.22 87 87 70
478.106 -90.8494 1445.55 188 163 155
-1059.28 -102.418 1747.6 241 251 247
103.29 -68.5482 1167.2 230 209 193
404.371 -43.3305 1535.5 34 31 14
711.716 -46.3072 1596.66 236 250 235
711.716 -46.3072 1596.66 236 250 235
411.566 -33.9124 1587.99 105 108 85
-252.646 -12.0897 1182.16 79 63 47
711.848 -8.35839 1576 138 140 128
592.332 0.293655 1533.09 255 244 232
59.3723 64.3066 1169.56 255 234 222
110.983 74.7551 1197.9 254 244 214
692.466 121.897 1641.78 219 206 193
86.4727 150.256 1218.69 171 164 147
-134.522 141.599 1138.98 76 47 27
606.504 221.571 1704.54 93 115 134
594.954 230.766 1689.68 228 255 255
594.954 230.766 1689.68 228 255 255
673.329 302.159 1730.56 131 141 149
-7.75717 243.428 1125.34 137 84 67
151.694 295.528 1270.2 207 148 117
-6.27508 272.056 1161.37 183 178 173
69.4887 263.106 1092.57 243 241 220
-7.73643 315.599 1154.85 255 237 225
21.1985 329.349 1198.67 238 240 215
-128.164 346.333 1204.06 155 104 80
-107.455 454.633 1330.95 168 160 147
-39.7579 686.079 1485.04 67 79 74
-729.763 -647.635 1906.41 88 86 80
-863.964 -505.162 1583.31 136 144 137
672.526 -657.089 2061.83 200 191 170
-300.456 -516.154 1896.92 11 3 3
647.291 -252.975 1550.74 120 117 116
713.461 -252.185 1584.92 208 213 190
384.069 -203.596 1542.23 98 110 81
397.978 -191.178 1458.04 160 163 148
587.058 -175.597 1479.79 207 197 179
471.398 -149.769 1365.27 161 154 138
-944.254 -167.084 1709.45 42 53 50
-2487.57 -423.224 4238.27 46 65 55
-829.767 -144.401 1533.45 114 132 127
563.559 -133.658 1464.89 238 226 206
-872.091 -135.129 1545.22 67 73 69
-713.49 -103.086 1314.16 151 136 111
641.306 -110.08 1523.18 178 173 147
-960.329 -112.05 1604.33 66 73 69
680.463 -97.0338 1521.98 151 165 153
491.956 -77.59 1412.32 255 248 244
-5.4738 23.777 1111.41 246 188 168
660.745 54.5268 1531.42 253 255 242
117.385 48.3842 1201.45 179 109 94
-170.772 48.2053 1116.71 48 24 11
598.635 117.557 1541.76 190 177 152
29.5507 144.006 1159.67 255 245 230
56.569 154.344 1169.08 124 87 69
-76.2024 154.456 1075.76 117 61 56
-94.1658 149.403 1021.14 62 34 24
47.4663 173.703 1124.22 104 78 62
503.987 255.661 1598.74 159 187 185
-91.371 175.702 1086.15 72 62 54
483.724 259.525 1580.22 65 90 92
-70.3414 245.922 1077.82 238 238 229
20.5298 284.211 1161.45 208 158 149
-51.1098 283.781 1131.64 168 116 117
-34.2182 332.23 1134.15 254 254 252
-46.0888 335.924 1042.85 255 247 235
-798.992 -419.568 1312.93 55 68 60
-975.102 -545.367 1724.67 152 153 147
644.373 -426.021 2045.95 114 59 39
-535.602 -436.959 2595.49 138 110 76
-974.009 -180.891 1918.48 39 50 46
710.908 -139.998 1596.94 251 253 245
505.691 97.7591 -1201.38 159 147 124
-18.0406 13.1338 -168.062 154 139 117
658.201 -107.915 1481.21 249 251 238
650.399 -96.7895 1580.97 255 255 235
701.524 -87.7907 1626.01 254 255 250
-1196.25 -81.2499 2073.61 137 137 127
513.063 -29.3151 1458.78 232 229 234
571.261 2.38788 1516.83 128 93 87
-57.6776 5.34904 1082.93 227 203 182
604.183 17.2654 1523.89 254 254 240
604.183 17.2654 1523.89 254 254 240
-85.2838 57.4708 1039.08 244 254 252
637.306 118.546 1575.08 145 134 107
631.12 156.941 1618.29 251 252 249
-123.367 122.555 1088.18 163 113 92
523.282 200.471 1643.27 90 112 115
62.7757 145.601 1174.55 255 249 231
-95.5451 154.903 1053.27 62 34 24
-18.0474 237.819 1145.17 110 73 65
-79.603 255.883 1088.77 55 32 32
-50.6604 322.574 1140.08 252 253 253
-50.8861 330.663 1096.22 255 251 252
-131.332 376.824 1227.64 90 50 34
-15.5488 418.077 1154.57 243 230 218
-715.905 -320.554 1263.41 146 155 148
-859.632 -274.523 1612.14 136 142 135
419.894 -208.255 1476.41 7 3 2
-708.818 -220.307 1564.54 129 137 131
645.74 -173.898 1500.6 85 88 79
631.468 66.2962 1565.08 252 253 236
-85.8916 145.633 1057.33 252 252 255
595.207 352.143 1678.84 151 177 178
9.69237 402.777 1153.78 222 218 209
-759.611 -439.903 1351.86 50 56 51
-850.977 -451.437 1417.63 46 52 47
-850.977 -451.437 1417.63 46 52 47
601.69 -267.844 1496.96 180 209 210
507.588 -122.698 1426.16 249 254 254
-1103.88 -90.921 1580.59 52 31 24
47.7802 -61.7424 1103.61 67 89 101
440.583 -5.36449 1580.34 114 117 96
680.39 96.1755 1615.56 151 129 106
680.39 96.1755 1615.56 151 129 106
-122.054 92.5572 1036.45 157 116 90
-122.054 92.5572 1036.45 157 116 90
31.6623 152.373 1152.98 254 236 220
7.15728 164.653 1147.21 253 239 227
-61.4823 269.831 1121.92 234 234 232
-33.206 272.926 1124.81 206 151 151
-0.852461 288.713 1146.86 126 84 81
-52.7985 300.44 1127.05 249 251 251
-66.6061 328.802 1145.97 81 59 59
-839.025 -386.441 1614.29 76 76 68
-174.134 -223.11 1103.96 79 80 77
-694.863 -268.108 1382.67 99 103 90
557.725 -109.302 1479.87 120 104 92
557.725 -109.302 1479.87 120 104 92
700.647 -3.21383 1572.24 143 146 137
-245.278 0.961441 1197.04 100 77 63
-105.296 25.4391 1037.65 201 182 156
-30.5867 142.291 1109.46 245 200 171
82.0257 166.611 1180.42 255 251 253
53.0795 168.524 1166.43 167 135 122
140.603 178.535 1204.45 238 234 220
-858.824 -451.38 1506.4 120 139 128
-823.341 -384.936 1437.38 49 52 46
-165.32 -370.104 1520.11 121 122 112
215.5 -391.203 1803.71 56 46 38
-1015.09 -146.914 1421.81 108 131 115
-22.7761 86.6572 1100.06 223 139 110
125.975 110.035 1236.47 239 212 181
-753.308 -234.959 1459.58 128 140 133
93.4355 -50.6782 1171.23 231 193 165
3.66823 66.0897 1111.28 252 255 250
3.66823 66.0897 1111.28 252 255 250
458.349 -32.758 1470.93 60 44 40
32.5829 -1.40483 1161.55 255 222 205
624.464 200.768 1655.59 247 255 252
-256.443 -401.205 1362.67 36 21 16
-274.663 -361.403 1519.86 137 136 133
324.927 -161.448 1475.17 61 54 45
395.497 73.4375 1643.32 38 35 31
163.645 147.773 1036.32 153 144 128
404.02 362.442 1580.06 212 213 201
-162.478 71.1235 1095.6 81 64 51
-137.998 223.041 1141.33 131 101 86
33.4382 725.191 1811.76 59 57 59
33.4382 725.191 1811.76 59 57 59
554.235 47.6591 1918.87 75 74 52
