-200.411 -101.137 568.789 73 69 51
-228.202 -113.798 668.222 66 62 51
589.152 -244.641 1620.76 174 208 213
462.001 -67.2489 1557.79 196 172 164
548.106 -57.4756 1662.12 128 118 90
-387.039 -11.0341 571.098 99 86 55
-729.37 -7.34936 1016.08 30 33 17
-831.09 5.11256 1093.2 246 251 247
-483.699 2.95841 605.487 128 134 129
569.894 27.307 1648.05 251 235 217
-178.515 74.3859 1166.8 58 12 8
404.667 122.247 1713.04 33 23 16
60.3354 95.1248 1200.21 255 245 239
401.898 141.428 1695.36 14 19 7
-101.461 106.406 1106.51 180 153 144
3.55135 120.778 1157.92 255 247 221
3.55135 120.778 1157.92 255 247 221
515.985 173.884 1608.71 152 147 126
3.30282 153.731 1154.17 255 234 203
-140.19 208.036 1120.79 58 15 1
-92.947 280.682 1264.02 147 120 103
26.6941 264.401 1163.88 92 55 42
98.2174 292.233 1222.19 252 251 242
-81.2633 304.225 1205.47 74 49 40
-130.489 352 1291.5 70 40 27
134.623 391.606 1312.99 177 154 129
-153.468 469.127 1443.65 73 39 21
30.4412 408.681 1218.9 225 219 216
60.8719 426.8 1257.67 132 110 91
144.767 553.434 1388.42 44 37 35
154.75 556.013 1393.38 199 197 193
133.972 535.051 1327.54 31 33 28
130.279 578.754 1364.45 176 200 188
-9.44878 543.01 1104.56 62 86 80
-294.675 -154.033 529.285 131 140 134
-294.675 -154.033 529.285 131 140 134
271.626 -332.236 1321.78 221 204 193
14.1875 -298.866 1244.45 33 14 8
-15.6122 34.9068 -150.273 145 148 143
-15.6122 34.9068 -150.273 145 148 143
642.706 -110.169 1657.17 251 254 239
653.615 -105.002 1742.82 242 243 223
609.638 -68.6968 1685.1 255 253 230
-702.562 -39.3502 1089.99 40 40 34
554.629 -50.8852 1651.05 255 249 222
-1391.4 -37.4902 2093.05 147 134 113
583.088 -16.6524 1697.52 138 122 113
59.4944 -4.71222 1172.6 202 148 127
-616.911 4.64042 862.935 64 56 41
-157.615 49.427 1130.81 178 154 140
-157.615 49.427 1130.81 178 154 140
127.319 58.7539 1249.67 253 244 218
665.951 107.387 1756.03 249 250 229
-9.99219 90.686 1141.84 253 254 240
630.903 152.429 1745.38 157 138 114
453.416 164.256 1846.65 129 138 114
532.126 198.839 1690.38 23 16 7
-70.107 181.513 1115.78 217 186 181
490.857 322.064 1810.07 97 123 126
-79.4036 272.187 1158.67 58 35 27
106.703 300.588 1272.99 252 253 250
112.813 322.703 1283.06 255 253 245
-20.8873 241.891 892.022 255 248 255
19.2678 315.143 1195.14 246 230 227
145.603 411.361 1346.78 255 250 237
-55.5361 410.985 1268.99 53 36 25
-126.611 540.431 1524.54 12 7 6
-22.4882 591.86 1220.05 55 67 60
-399.731 -151.828 556.574 131 135 129
564.639 -235.222 1564.78 173 204 208
363.439 157.754 -1338.95 136 105 76
-449.884 -56.2515 598.367 41 54 48
36.0276 -39.0951 1232.07 142 139 141
549.347 -16.7085 1653.31 254 252 250
508.409 -5.65122 1610.76 231 230 226
84.7627 0.286345 1202.86 115 70 56
410.819 104.653 1685.57 119 122 102
-26.2375 64.4523 1016.62 255 255 243
-46.7648 75.8877 1088.22 255 254 254
600.912 192.692 1736.93 254 254 248
586.707 405.929 1849.11 133 161 160
26.2641 352.879 1155.24 253 252 247
-13.5524 375.791 1193.42 248 250 250
5.56325 455.029 1184.19 254 247 234
-117.226 -32.3841 122.013 132 142 136
-559.309 -157.448 775.198 151 162 154
-230.1 -94.1843 514.646 133 135 125
395.439 -179.988 1589.52 11 17 18
-432.671 -61.9414 718.561 131 140 135
554.882 -112.845 1615.67 199 175 148
455.276 -90.4002 1501.72 52 22 9
-857.213 -13.0674 1288.01 72 60 40
-4.68092 -4.72812 1162.44 99 82 71
-756.272 10.4762 1041.54 45 54 49
728.652 98.1238 1858.79 158 159 130
659.49 127.277 1762.61 155 139 116
659.49 127.277 1762.61 155 139 116
-18.3819 90.0164 1102.01 252 245 252
-5.82008 117.235 1146.7 253 252 249
531.974 219.7 1700.83 222 236 230
-46.8758 163.915 1083.12 253 252 250
-88.0969 174.448 1122.97 81 47 35
61.6468 218.648 1244.74 248 254 248
-15.9105 269.185 1155.73 161 96 71
48.584 444.581 1232.47 254 249 239
-405.273 -153.574 553.039 49 49 44
-405.273 -153.574 553.039 49 49 44
-442.46 -72.8843 634.132 143 150 143
600.779 -16.5729 1696.76 139 118 96
416.603 26.4978 1705.13 110 112 102
-4.08388 60.6934 1098.38 255 254 255
-4.08388 60.6934 1098.38 255 254 255
-141.19 76.2584 1179.08 56 34 27
63.7318 119 1207.71 168 101 84
63.1561 175.82 1227.03 247 236 217
39.1557 184.653 1181.04 251 248 229
166.844 212.807 1317.47 246 251 247
-13.6576 209.066 1141.25 246 206 174
-38.8934 265.414 1136.16 167 170 168
-28.8353 345.369 1143.12 100 71 68
19.6947 372.703 1223.79 249 254 255
34.1146 430.783 1226.86 89 66 67
-5.10565 435.663 1171.1 61 42 42
-273.487 -91.2498 336.465 41 52 44
-273.487 -91.2498 336.465 41 52 44
-241.436 -134.577 887.69 77 74 75
-229.947 -106.506 742.743 63 69 67
12.3591 105.859 1146.76 223 133 109
92.1821 126.919 1240.96 252 213 181
-120.28 248.04 1154.42 132 90 71
-126.76 447.208 1302.24 128 126 118
-133.204 469.765 1365.04 128 126 118
-436.89 -142.185 616.127 80 84 79
-54.1724 -28.0587 143.623 118 118 113
2.90964 -175.014 1031.91 51 42 30
-160.98 -101.507 607.728 71 70 67
440.582 -221.697 1635.78 195 177 172
36.347 86.7345 1179.51 250 255 255
36.347 86.7345 1179.51 250 255 255
-279.052 -61.0669 382.954 123 142 132
113.767 -32.2568 1251.48 216 175 134
-96.3344 321.268 1178.05 148 91 63
463.316 -5.52609 1671.45 60 51 42
-140.32 8.68812 1143.05 160 136 107
-192.77 199.78 1281.56 88 59 46
-81.775 203.598 1154.14 79 65 47
291.037 -122.197 1570.28 73 63 52
-969.806 -47.1215 1598.52 121 112 88
-969.806 -47.1215 1598.52 121 112 88
615.063 60.5504 1708.75 190 191 174
-93.8926 75.7566 1085.1 58 40 29
-283.327 -220.77 900.607 31 23 21
-136.192 106.823 1072.44 177 153 133
415.9 62.9786 1675.71 72 82 54
