-626.58 -151.228 1135.47 32 37 33
367.601 -181.697 1632.25 109 109 90
350.347 -48.4166 1720.32 161 140 117
-181.494 81.5799 1144.59 45 5 3
56.96 184.56 1249.58 255 248 241
-23.8454 173.691 1125.97 244 254 253
-162.075 243.968 1216.08 73 22 14
-196.341 535.584 1469.95 3 3 1
71.0167 614.968 1380.3 187 203 194
63.9119 599.622 1337.17 219 243 235
-448.482 -118.748 754.589 28 36 30
-322.626 -62.6189 523.958 29 41 34
-662.802 -81.6496 882.039 105 110 101
-662.802 -81.6496 882.039 105 110 101
-1205.29 -179.006 2061.16 129 107 83
322.681 -86.8172 1715.53 48 17 12
201.732 -63.2775 1731.75 115 123 93
392.338 -10.4161 1813.52 141 128 116
-21.3654 74.1424 1086.53 247 255 247
384.289 173.088 1812.52 148 135 113
-4.51401 108.801 1138.19 165 149 147
67.5787 181.817 1276.24 150 121 108
286.015 327.708 1902.66 186 212 207
12.5849 251.446 1160.2 253 247 232
35.9728 326.531 1240.94 118 98 78
35.9728 326.531 1240.94 118 98 78
-29.3648 392.938 1187.61 160 117 91
19.5126 473.452 1271.46 180 152 133
-984.221 -314.83 1357.74 96 95 83
620.946 -301.762 1402.79 81 80 79
-838.914 -212.598 1261.76 162 159 147
312.029 -233.037 1707.68 115 131 126
-598.489 -132.734 1030.6 141 150 144
220.827 -165.904 1654.17 13 16 9
431.259 131.842 1878.71 164 156 127
0.0534546 88.4038 1132.81 253 255 252
371.329 216.286 1915.07 40 28 22
-0.857826 381.954 1198.01 255 252 247
86.757 460.779 1316.14 61 67 64
86.757 460.779 1316.14 61 67 64
31.9923 439.286 1235.14 95 73 58
31.9923 439.286 1235.14 95 73 58
14.8684 478.181 1227.17 249 247 240
-592.229 -106.391 914.329 129 144 135
9.89833 59.6859 1162.46 245 245 240
34.7778 98.0766 1198.59 254 253 255
22.3488 110.092 1191.45 224 151 129
22.3488 110.092 1191.45 224 151 129
8.08732 116.752 1168.19 248 254 253
358.8 208.944 1857.13 40 28 22
100.592 243.007 1364.76 254 252 254
27.84 266.408 1208.83 154 118 106
17.0651 283.151 1202.26 247 255 252
24.3778 378.771 1233.7 255 253 255
2.55252 458.214 1204.48 32 13 3
-32.5163 36.0114 1077.2 229 205 186
44.2481 292.036 1226.87 253 253 254
44.2481 292.036 1226.87 253 253 254
-15.928 365.566 1183.47 89 56 54
88.2848 469.371 1337.86 54 60 57
88.2848 469.371 1337.86 54 60 57
-362.123 -67.3307 598.774 57 66 57
-127.72 78.4419 1124.39 59 37 30
-24.8792 103.664 1110.2 243 249 253
11.0525 426.582 1216.12 253 254 255
-82.74 -41.7423 1259.27 53 96 114
-69.5978 122.592 1114.99 184 140 112
-69.5978 122.592 1114.99 184 140 112
-21.3514 155.252 1122.55 249 251 253
-21.3514 155.252 1122.55 249 251 253
-482.553 -137.451 879.488 103 113 106
131.891 120.343 1338.89 55 46 38
-136.917 199.691 1142.55 163 102 66
-51.5707 -279.085 1563.14 179 176 160
8.31141 -21.6355 1188.31 66 109 124
-79.7372 12.1469 1095.91 170 137 113
442.424 76.3131 1990.5 208 208 196
148.069 269.621 1351.14 77 72 60
-45.219 295.105 1129.65 92 46 41
-111.579 360.242 1241.62 166 109 71
-31.4677 380.42 1080.04 39 28 25
-668.875 -158.98 1057.21 120 132 125
273.464 -125.529 1660.23 73 61 55
-229.732 111.763 1191.13 78 53 39
-73.1236 206.956 1142.39 83 62 45
174.518 -248.858 1513.78 192 191 188
-300.693 -51.8189 1581.73 148 139 117
216.391 100.745 1466.27 105 66 52
216.391 100.745 1466.27 105 66 52
