-93.3235 -161.088 1392.65 179 146 122
-114.319 -134.561 1488.99 113 94 75
-114.319 -134.561 1488.99 113 94 75
-32.5775 -55.958 1479.57 217 178 166
7.61104 16.1865 939.954 135 99 81
-77.1542 43.0528 918.233 32 28 26
122.069 66.1864 925.64 190 187 174
147.917 105.227 844.77 98 28 18
254.285 131.922 916.725 30 6 1
-157.168 339.217 1774.28 247 247 239
136.107 175.939 897.416 115 31 8
-29.8115 170.792 782.154 251 248 240
118.154 209.706 896.469 133 89 74
91.069 218.05 892.437 231 210 202
106.273 249.279 919.655 39 42 37
93.9501 234.283 856.258 35 32 22
93.9501 234.283 856.258 35 32 22
86.2233 260.708 894.376 71 56 47
45.6222 286.018 900.019 106 80 74
59.4888 284.47 891.419 46 41 37
45.5221 290.824 896.835 206 188 185
268.072 344.29 975.511 183 142 124
347.121 389.529 1064.46 185 172 158
312.489 360.286 977.755 200 185 169
225.35 417.75 1018.9 30 26 18
123.761 382.309 858.557 44 38 33
139.493 450.606 989.283 215 222 214
-370.743 -371.87 1686.85 161 160 156
-162.858 -198.634 1485.73 54 81 80
-162.858 -198.634 1485.73 54 81 80
-59.8907 -191.834 1477.21 114 111 88
-104.125 -169.896 1400.73 44 25 13
-52.6197 -168.89 1411.08 26 20 10
-123.452 -151.465 1310.15 51 36 30
-53.3123 -158.858 1417.31 115 106 97
-169.569 -132.988 1354.36 182 161 139
-28.4569 -109.461 1489.1 25 13 18
57.8096 -45.273 1046.59 235 248 240
71.3532 -34.2705 1018.87 170 65 49
-83.0355 37.6002 942.026 155 141 129
-5.59139 130.089 817.224 66 63 61
-12.7917 139.647 820.923 20 16 7
2.00985 143.341 823.423 26 32 42
141.033 153.412 880.049 119 56 33
-4.0766 158.436 821.257 184 160 146
8.29962 165.437 836.492 176 156 145
8.29962 165.437 836.492 176 156 145
9.6542 169.759 824.85 27 18 16
170.348 218.681 931.783 63 44 34
167.868 232.98 908.753 24 45 43
167.868 232.98 908.753 24 45 43
61.3377 250.817 890.622 46 22 10
12.5072 260.075 865.875 106 96 87
197.07 301.155 934.593 234 173 166
218.949 439.906 1039.32 147 160 148
212.533 460.374 1033.94 96 127 128
-206.557 -170.395 1412.56 92 114 115
-133.528 -143.596 1283.81 37 26 18
-256.893 -121.011 1371.85 127 102 81
-200.315 -118.571 1383.34 206 172 155
-200.315 -118.571 1383.34 206 172 155
-186.739 -91.9506 1395.17 54 39 26
-32.6098 -54.9562 1399.7 219 172 161
86.9189 -18.3933 948.568 186 167 148
37.4655 9.45173 931.727 146 102 86
37.4655 9.45173 931.727 146 102 86
169.049 43.4367 847.033 134 101 77
169.049 43.4367 847.033 134 101 77
211.852 112.567 905.327 127 91 75
32.7139 120.599 828.157 17 32 31
32.7139 120.599 828.157 17 32 31
44.3136 136.227 842.329 138 139 136
44.3136 136.227 842.329 138 139 136
121.501 207.583 869.143 40 22 4
272.637 239.729 959.982 166 104 80
122.36 227.676 901.44 173 182 172
69.4652 452.879 947.046 19 18 17
69.4652 452.879 947.046 19 18 17
289.998 536.158 1091.56 29 50 57
-283.1 -194.417 1421.64 79 74 65
-220.76 -161.053 1489.73 144 131 116
80.8419 -16.7586 1026.6 112 83 71
205.059 -3.8851 849.076 6 5 2
-34.5343 48.1224 882.821 128 147 140
271.843 330 979.498 118 60 56
-222.241 -117.777 1378.37 60 47 39
133.158 -71.0648 1091.43 69 65 64
103.053 -57.4024 1044.18 77 67 61
152.633 -46.5384 978.695 87 93 90
-57.0731 -34.4556 1406.1 66 50 44
-108.862 26.176 997.359 160 151 127
-108.862 26.176 997.359 160 151 127
159.423 50.8304 857.178 32 32 30
-111.843 110.037 978.265 129 104 87
-140.763 165.447 1371.79 141 117 102
224.831 119.238 906.039 51 37 28
220.308 197.05 916.223 184 146 125
91.7765 221.073 884.408 161 155 150
64.3997 241.797 872.985 48 43 41
64.3997 241.797 872.985 48 43 41
234.747 289.454 920.236 92 51 50
-113.74 -162.693 1416.96 68 51 48
-56.7443 -34.8679 1408.31 58 45 45
60.8111 2.49832 921.859 208 182 168
-218.61 33.9095 1391.31 246 239 234
308.811 254.641 983.73 198 193 179
-136.679 -109.298 1414.59 170 157 143
195.98 212.818 909.308 53 44 42
-52.4348 -172.323 1439.36 26 20 10
123.307 -61.5519 1054.5 69 77 69
262.005 199.64 937.554 49 44 43
137.737 208.347 896.391 56 41 37
137.737 208.347 896.391 56 41 37
46.1531 268.527 883.657 177 142 121
281.252 310.636 977.206 169 132 115
312.077 349.498 1001.1 63 50 49
118.158 370.733 918.268 141 71 53
243.191 145.835 921.645 60 39 32
156.646 158.309 889.149 188 141 113
156.646 158.309 889.149 188 141 113
156.646 158.309 889.149 188 141 113
-9.74036 183.791 843.876 44 41 38
198.838 19.1621 865.27 36 27 28
198.838 19.1621 865.27 36 27 28
-38.596 58.436 856.017 175 214 205
15.4493 220.423 850.819 54 52 51
82.7952 411.326 934.648 63 60 61
82.7952 411.326 934.648 63 60 61
-121.027 -44.2114 1129.67 46 33 34
