-464.884 -104.615 690.705 58 57 41
-418.187 -100.107 729.337 32 38 33
385.101 -194.686 1792.37 214 240 240
341.953 -145.483 1720.77 62 51 37
-200.171 -8.16045 221.217 52 57 48
-1451.86 -37.3431 2056.46 65 60 39
192.531 68.9103 1720.42 146 150 117
291.901 65.5272 1590.26 86 76 79
-287.902 49.6393 1172.17 85 73 54
204.629 198.433 1745.5 165 165 140
-109.456 131.733 1125.46 183 164 156
-109.456 131.733 1125.46 183 164 156
46.8512 180.762 1259 253 240 220
50.0144 230.642 1287.35 154 136 127
-105.51 339.339 1242.66 182 169 160
-184.934 596.214 1517.43 199 189 177
-111.567 420.554 1033.74 25 25 23
-399.918 -119.206 543.886 118 117 106
323.48 -200.311 1773.93 114 132 140
316.62 -50.0736 1730.86 32 16 12
333.253 70.0765 1722.15 228 225 224
424.839 141.256 1812.05 161 163 143
-197.982 101.023 1107.84 59 6 1
209.021 234.224 1816.03 43 44 31
363.836 249.501 1802.4 233 235 216
50.2839 198.087 1275.97 255 254 238
-176.32 251.648 1142.7 69 22 6
344.391 467.53 1964.67 158 177 180
344.391 467.53 1964.67 158 177 180
-11.5765 279.319 1172.24 255 251 243
-112.28 357.842 1274.37 51 37 37
8.28439 334.638 1172.51 121 87 88
8.28439 334.638 1172.51 121 87 88
66.5507 395.626 1367.91 255 255 238
-216.228 489.318 1320.9 85 53 41
-795.14 -192.431 1235.13 156 156 143
-555.999 -113.203 991.347 143 150 145
352.674 -188.874 1747.77 204 221 217
-139.387 -15.8217 172.768 142 151 145
342.832 -79.2644 1737.57 118 97 78
318.524 -55.2564 1661.77 254 253 250
267.951 188.147 1815.31 106 83 66
375.79 217.406 1820.27 148 127 107
45.5028 210.453 1280.16 154 132 110
-74.9581 208.627 1123.07 221 184 172
74.5274 259.975 1312.24 254 254 238
74.4668 262.746 1319.95 254 254 238
230.097 380.105 1881.52 145 169 167
358.735 405.936 2007.19 242 255 253
598.947 -896.245 -3992.96 152 96 64
-11.8582 351.462 1165.05 209 144 144
-27.9877 400.963 1174.47 253 250 249
-195.002 468.968 1304.29 151 97 72
-13.1431 493.083 1196.35 255 252 240
17.4753 601.865 1274.22 50 47 43
-407.314 -317.64 1725.44 48 34 24
78.3194 85.9645 1301.82 247 229 204
-13.7318 83.8188 1152.1 248 255 252
-13.7318 83.8188 1152.1 248 255 252
81.9223 148.666 1288.81 248 250 239
339.312 246.234 1811.77 76 56 40
29.6989 211.396 1266.59 250 243 229
29.5083 240.645 1230.83 254 251 252
-1.92367 406.441 1234.05 251 246 247
-77.318 394.168 1110.72 49 31 23
66.6964 506.495 1365.42 76 69 67
-25.2484 466.921 1160.99 47 30 28
-25.2484 466.921 1160.99 47 30 28
-217.223 36.4092 1106.15 157 135 106
214.538 80.7745 1803.74 109 111 93
17.7401 172.976 1225.42 247 228 202
17.7401 172.976 1225.42 247 228 202
339.445 283.253 1901.73 229 239 234
65.9583 224.965 1316.93 253 252 255
382.972 346.626 1977.89 254 255 243
-19.4793 229.927 1144.61 253 217 193
18.144 313.505 1204.24 254 253 255
18.144 313.505 1204.24 254 253 255
-31.8795 318.596 1157.16 251 250 253
-104.803 341.28 1152.6 144 132 125
-42.9908 378.088 1145.19 78 57 56
-156.2 460.348 1242.06 73 52 38
456.516 93.9581 2049.11 250 252 252
-147.9 99.6111 1109.26 51 34 27
-49.3894 125.415 1086.93 255 248 245
-101.321 206.908 1148.24 74 57 43
-16.4313 444.132 1190.35 254 254 250
-102.876 -15.9045 1317.52 56 100 107
-45.307 174.505 1094.36 250 254 255
-45.307 174.505 1094.36 250 254 255
-16.2386 390.717 1175.12 232 228 230
-457.533 -92.5419 830.981 69 69 64
-160.577 224.571 1147.26 155 92 58
-31.2298 -226.654 1430.05 181 177 159
-12.0103 2.2097 1192.36 71 97 113
-101.644 35.6252 1115.93 165 137 106
400.04 113.357 1846.02 200 196 179
109.86 135.696 1261.72 97 89 83
162.099 347.372 1586.23 70 70 65
-70.734 321.387 1140.97 88 51 40
-132.355 367.018 1182.26 163 108 76
-457.649 -100.302 733.024 122 134 127
268.158 -88.9257 1675.29 59 44 40
-84.2654 83.3449 938.191 59 43 34
-258.453 136.405 1233.59 84 54 35
-96.5513 226.184 1124.91 79 57 42
-281.359 -17.9799 1413.51 145 135 116
13.682 94.1298 1221.75 253 254 254
191.81 123.917 1407.07 91 57 36
