199.352 -174.897 1830.47 76 79 65
359.328 -98.9308 1715.78 255 251 228
740.371 29.2823 -1083.35 65 63 44
331.741 -50.0818 1766.18 217 195 182
283.853 46.6272 1813.85 173 142 117
283.853 46.6272 1813.85 173 142 117
-149.721 85.7825 1127.86 45 8 3
450.759 202.46 1969.62 248 245 228
103.278 177.66 1298.94 255 250 237
-141.623 185.729 1203.13 62 12 8
-131.761 250.815 1214.18 54 8 3
-57.8847 331.945 1220.05 194 165 152
-37.1087 355.446 1127.91 116 88 70
-161.037 514.03 1388.99 12 7 5
52.8377 467.302 1246.79 153 133 119
-111.718 556.044 1437.72 7 6 3
25.2956 463.121 1177.21 146 137 121
56.6981 631.836 1333.97 190 218 206
35.106 629.927 1312.82 175 193 184
-51.7383 475.204 940.844 33 47 43
-666.648 -157.437 1134.43 28 34 29
-557.601 -113.827 939.045 131 140 136
-557.601 -113.827 939.045 131 140 136
-784.775 -127.576 1204.4 132 145 139
120.763 -154.064 1942.97 38 29 16
-95.4921 -39.1512 1412.68 150 163 155
-248.709 33.2882 1217.92 93 77 57
-20.4866 105.689 1149.2 98 25 11
97.3762 187.431 1279.93 147 122 119
97.3762 187.431 1279.93 147 122 119
18.6152 278.255 1184.87 255 248 254
-205.149 350.144 1275.14 23 19 14
106.305 589.134 1354.71 79 79 72
70.8977 631.596 1349.35 179 220 207
249.376 -164.915 1711.91 13 7 6
436.987 -106.157 1848.44 169 155 131
359.207 -71.081 1740.67 231 226 223
119.973 -43.4293 1314.33 255 252 240
-105.926 58.8988 1103.21 118 50 36
483.972 147.393 2024.22 169 162 134
-5.21909 197.624 1188.38 27 8 8
-19.0928 193.296 1138.49 226 193 177
85.143 223.725 1265.2 253 254 252
134.994 253.349 1406.56 255 251 239
29.5045 385.853 1190.53 255 251 253
63.7324 454.114 1265.76 60 45 37
63.7324 454.114 1265.76 60 45 37
-25.7791 -264.44 1398.32 159 148 139
-719.497 -211.492 1154.49 23 16 14
-106.004 58.1289 1125.08 90 38 26
66.8385 104.811 1228.77 255 249 255
37.8318 121.419 1155.81 236 244 241
80.5296 190.531 1261.14 252 244 231
118.856 204.037 1335.06 252 253 251
-69.2966 356.626 1255.88 126 86 52
33.9806 472.33 1227.33 44 32 29
412.923 49.4009 1772.46 254 252 252
6.5335 108.321 1112.73 250 255 244
70.0279 153.897 1232.7 243 237 225
-70.9001 297.638 1209.65 66 39 31
26.0575 303.962 1176.62 252 252 253
13.4549 368.528 1173.3 67 25 19
69.4119 420.12 1294.74 136 109 106
-688.412 -160.718 1460.17 42 32 21
-442.589 -75.9029 726.062 64 72 66
435.555 -32.4131 1862.12 246 247 242
435.555 -32.4131 1862.12 246 247 242
-193.583 65.1342 1183.4 163 101 73
-57.0964 -38.2978 1312.23 61 106 116
196.957 -21.649 1763.91 72 51 39
-38.5705 128.106 1122.84 186 131 107
-38.5705 128.106 1122.84 186 131 107
136.045 207.303 1390.28 251 247 241
-547.892 -146.474 984.229 108 114 109
-547.892 -146.474 984.229 108 114 109
-389.516 -185.302 1484.15 47 42 35
-566.478 -116.582 982.948 60 66 63
-117.888 125.567 1136.71 166 106 78
-117.888 125.567 1136.71 166 106 78
-67.3773 -334.506 1928.02 185 172 162
35.0677 -15.3787 1142.47 59 101 108
-50.5153 16.5898 1129.49 180 142 124
-16.1225 306.926 1155.83 83 37 30
141.03 -125.488 1815.44 75 59 53
-78.9663 347.318 1172.7 168 98 64
-670.702 -149.991 1037.8 119 133 126
298.575 -120.823 1691.39 60 44 38
432.441 -12.9949 1858.96 244 248 236
-170.302 384.767 1314.64 57 39 34
68.621 67.4898 1253.42 255 253 246
267.77 -76.707 1759.31 58 35 22
-124.893 165.727 1087.94 151 96 82
