78.7175 477.211 -1467.84 83 89 83
228.956 -765.513 2571.43 95 101 99
-310.975 -340.007 1456.93 72 56 40
-309.608 -149.407 822.92 17 6 0
305.187 -66.6131 987.522 145 138 136
181.617 -65.2975 1001.81 168 162 137
145.222 -53.9696 975.368 182 170 152
324.919 -16.6283 993.042 213 208 195
290.394 2.36966 1001.35 76 56 48
-496.708 59.3103 960.083 244 243 229
-481.52 60.962 948.156 84 86 70
386.438 75.2193 1051.41 24 30 15
160.042 91.9267 1030.24 108 49 43
229.852 99.7414 1106.23 254 249 219
-326.21 130.116 1202.28 62 52 41
-409.816 115.229 1004.56 253 225 216
-427.775 120.118 1016.88 250 237 220
182.758 127.98 1068.5 106 85 86
291.63 172.382 1092.28 255 249 235
-466.055 187.748 1193.11 55 21 12
-387.196 190.721 1033.86 255 241 221
-398.098 193.843 1044.7 56 19 16
-395.476 208.359 1034.6 255 242 219
-346.704 229.58 1110.11 255 252 226
264.642 262.391 1187.18 139 134 93
334.748 277.737 1176.99 105 102 91
-346.426 301.757 1266.17 133 132 121
336.138 282.245 1164.71 242 228 205
-309.859 303.643 1227.38 208 188 179
-355.215 263.94 1032.37 255 228 213
367.173 312.966 1205.83 173 160 146
-354.874 278.093 1045.92 252 225 220
-358.411 277.808 1035.86 49 17 11
212.797 336.304 1154.24 60 51 41
-328.767 335.209 1085.35 184 150 130
-552.471 320.746 1022.72 247 251 250
-446.973 333.854 1066.12 164 135 132
-577.936 346.746 1100.74 114 85 87
-562.095 370.482 1099.27 142 145 143
-529.171 439.082 1134.45 23 15 13
407.582 537.839 1364.33 206 243 242
-515.227 467.971 1161.01 107 101 101
-276.648 558.009 1258.26 123 154 141
-323.495 568.154 1200.7 16 41 32
-320.96 -430.748 1255.6 69 75 70
215.25 -140.335 1131.68 88 49 37
236.354 -97.5458 1031.26 195 215 204
110.268 -89.7849 1093.44 51 40 32
110.268 -89.7849 1093.44 51 40 32
1154.17 -125.522 1607.33 113 110 100
-572.786 -31.3251 720.746 141 148 139
267.869 -17.2406 1012.33 81 71 53
250.506 28.1986 1030.29 235 202 165
177.675 28.9852 1014.63 96 67 55
-356.036 41.5691 1247.51 51 46 42
-366.706 35.7621 997.257 180 154 120
235.832 38.0908 1027.82 255 255 233
261.221 40.3585 1064.08 91 71 64
160.036 59.3023 1040.84 252 253 249
184.756 68.391 1034.29 169 153 129
-470.356 66.4053 923.206 253 245 226
135.104 78.8428 1018.75 251 248 240
-431.107 83.7903 979.302 255 234 200
170.806 91.8014 946.571 116 64 52
-351.411 105.935 989.203 243 248 228
-312.472 137.767 1222.12 68 70 56
320.655 123.149 1073.93 218 201 174
-348.618 121.697 998.3 234 231 204
193.253 132.823 1081.26 180 162 166
193.253 132.823 1081.26 180 162 166
-404.539 150.573 1065.61 188 146 107
194.107 158.842 1059.07 255 250 240
-395.9 150.65 993.019 89 49 34
-374.014 170.651 1036.41 255 254 227
244.85 185.278 1099.33 85 60 42
-378.495 201.628 1023.72 255 241 225
277.595 216.971 1102.97 244 240 230
442.076 223.586 1125.43 111 124 111
471.883 232.037 1105.99 189 189 158
-320.056 229.15 1040.38 255 241 236
393.419 245.808 1108.18 251 251 234
-424.714 243.464 1031.36 250 247 243
-588.424 252.994 1040.71 135 115 74
-595.855 259.226 1039.86 254 248 235
-310.986 303.167 1097.11 253 236 216
460.333 392.909 1371.51 219 244 240
-434.237 332.559 1151.74 199 198 195
-297.813 352.867 1217.53 88 67 58
-552.604 325.113 1070.51 110 116 111
-425.007 330.367 1072.01 254 252 247
-452.488 344.753 1075.91 255 245 236
459.292 437.389 1320.76 127 159 163
-545.316 378.568 1133.45 222 170 156
442.954 444.446 1302.96 120 149 148
298.187 455.736 1311.65 86 112 122
398.862 504.728 1333.71 229 253 252
421.046 497.627 1302.89 245 254 254
4.89943 363.053 -1304.29 147 154 147
-50.584 -175.474 642.473 139 144 136
-36.5761 261.727 -1045.04 210 193 166
162.666 -109.825 1090.86 232 230 226
-761.281 -38.5971 996.92 38 38 20
280.429 -15.5641 987.495 94 89 78
390.354 -9.22152 1012.69 234 245 245
-384.446 -6.98561 1136.15 55 46 38
257.384 6.57481 1012.26 98 74 71
439.752 12.247 1061.42 210 220 197
344.831 45.3298 1016.52 139 132 100
-532.313 58.7288 952.058 121 106 86
315.912 71.4161 1062.75 167 136 102
215.042 99.0094 1072.14 252 237 211
441.882 103.856 1118.19 247 253 249
441.882 103.856 1118.19 247 253 249
204.649 121.234 1066.86 249 254 252
264.935 143.489 1082.1 246 231 213
-381.626 141.174 992.07 173 119 84
248.423 164.604 1083.14 69 32 24
259.315 173.689 1090.33 255 246 238
351.395 211.09 1123.98 255 254 251
268.06 225.678 1087.56 144 138 121
-338.373 248.009 1081.24 200 140 110
-306.446 287.25 1166.55 77 43 35
446.09 300.297 1191.08 134 137 107
288.955 381.974 1259.39 62 97 121
-546.505 344.184 1059.63 252 252 250
-294.381 362.577 1084.57 192 149 128
-286.422 400.771 1164.14 137 90 54
-534.084 418.697 1147.93 253 249 228
-517.338 403.64 1079.89 60 57 50
-281.5 434.07 1142.1 246 249 237
316.884 525.82 1366.67 148 162 158
-338.608 447.254 1127.99 253 252 248
-491.861 503.032 1177.94 37 38 35
-252.408 -330.561 1339.57 103 51 46
394.97 -41.5719 1048.88 126 151 126
-375.763 -26.9217 1221.05 61 54 41
152.12 29.362 1034.11 251 253 254
-445.095 29.8391 1012.99 47 79 83
-433.013 72.2565 963.105 91 49 32
-501.349 73.4332 958.516 187 136 124
217.061 110.067 1060.2 152 88 70
-505.347 112.553 966.797 202 133 113
-307.444 315.624 1128.45 111 84 60
-293.759 323.235 1099.44 110 77 59
-513.815 300.882 1014.57 245 243 239
-406.887 347.623 1082.86 244 252 248
-427.153 446.807 1201.2 169 192 154
361.253 552.504 1386.44 133 182 180
243.575 -131.976 1109.98 211 190 180
205.37 -73.4644 993.491 46 36 40
393.942 -46.3416 994.197 131 157 130
-411.663 20.9505 993.828 56 81 94
363.394 56.3287 1042.73 251 254 237
271.735 160.095 1079.05 102 80 74
-616.609 150.97 993.12 252 251 248
-555.701 162.432 982.907 254 252 239
-555.701 162.432 982.907 254 252 239
201.564 203.107 1093.04 149 153 116
-425.018 217.875 1008.29 253 236 214
-462.967 227.152 1018.03 249 238 219
308.814 331.751 1214.99 96 73 62
-564.575 297.767 1047.38 143 91 80
-271.359 376.224 1292.22 171 160 144
-560.31 352.716 1074.45 254 254 255
-560.31 352.716 1074.45 254 254 255
-560.31 352.716 1074.45 254 254 255
-509.052 352.39 1078.07 127 90 86
-519.392 384.151 1070.74 255 253 249
-216.719 -348.991 1072.25 167 170 162
379.269 -110.777 975.194 60 109 131
330.802 -110.669 1014.02 151 200 195
237.88 -80.3743 991.386 44 39 37
333.572 71.2065 1014.85 181 170 138
333.572 71.2065 1014.85 181 170 138
-564.56 120.49 998.006 248 255 255
203.595 163.082 1012.99 106 83 77
-467.91 180.612 1023.99 144 126 107
-443.477 203.871 995.919 144 106 79
321.33 252.098 1142.71 224 223 208
-307.705 266.468 1160.4 80 58 49
-371.235 229.68 952.721 252 254 243
-371.235 229.68 952.721 252 254 243
-371.235 229.68 952.721 252 254 243
595.47 442.94 1743.51 114 103 92
595.47 442.94 1743.51 114 103 92
-527.772 281.517 1064.05 241 235 224
-404.762 416.863 -1301.6 178 158 124
133.461 20.8811 1060.98 86 72 66
-351.808 40.6318 1093.88 156 150 139
-350.991 49.4956 1188.12 70 66 54
230.644 58.2735 1060.26 107 80 72
-299.134 311.922 1360.4 74 65 62
-448.912 252.397 1052.35 148 132 117
-448.912 252.397 1052.35 148 132 117
417.369 336.832 1214.5 196 223 220
-504.211 331.452 1091.22 244 247 249
-26.6593 -189.889 627.323 118 95 78
413.313 54.1462 1044.44 229 236 230
372.874 292.876 1157.04 130 120 104
372.874 292.876 1157.04 130 120 104
-325.613 276.63 1073.94 251 240 227
-458.821 403.746 1098.64 163 196 154
-514.36 458.018 1160.43 95 89 84
-483.687 81.6916 992.445 226 180 165
-369.681 98.1598 977.089 209 200 157
296.162 147.45 1087.66 134 109 94
320.979 -59.4214 1003.48 86 85 82
320.979 -59.4214 1003.48 86 85 82
364.826 4.73583 1050.22 112 98 95
359.063 391.91 1246.88 208 235 232
-335.867 185.423 1195.29 88 67 56
363.59 176.033 1094.41 251 255 251
255.905 330.052 1258.46 101 93 87
-387.84 358.99 1126.29 249 255 254
-387.84 358.99 1126.29 249 255 254
320.202 -52.0225 1592.16 75 52 48
