988.912 -394.521 2067.73 75 74 73
187.632 -33.7395 1777.26 243 235 230
213.523 15.3285 1845.06 163 126 111
-132.481 131.325 1049.93 174 151 150
-132.481 131.325 1049.93 174 151 150
-138.489 183.777 1113.97 21 3 1
-46.7429 293.679 1205.82 255 251 234
-207.117 277.31 1091.37 48 0 0
-116.675 290.685 1091.57 105 76 60
-209.986 336.874 1159.81 60 24 18
-58.9419 423.629 1174.22 28 14 10
-20.4732 450.079 940.215 167 203 188
-238.674 -233.207 1306.12 174 161 140
-238.674 -233.207 1306.12 174 161 140
260.147 -69.768 1957.89 156 144 118
9.17732 -13.4861 1280.07 255 253 238
-138.393 -7.20635 1274.89 149 144 141
-138.393 -7.20635 1274.89 149 144 141
-334.258 62.7301 1141.59 79 69 44
-48.1716 93.139 1104.87 254 252 247
183.399 210.266 1835.73 83 72 72
-101.451 122.149 1056.21 73 26 14
-12.5554 174.644 1236.57 158 123 101
-6.40448 211.265 1263.15 134 102 92
-6.40448 211.265 1263.15 134 102 92
-212.36 260.784 1108.09 44 12 9
-29.6241 356.834 1221.26 125 108 96
-210.546 362.329 1176.57 59 28 15
-46.2999 498.665 1185.47 255 253 242
317.023 -161.248 866.264 110 109 106
335.957 -209.965 1152.53 92 92 85
-244.984 -240.022 1345.62 174 161 140
-121.691 -128.297 765.298 128 122 115
-528.968 -63.3861 669.98 115 126 119
187.086 -149.506 1826.95 136 131 113
389.62 242.066 2801.9 161 148 125
-54.1002 114.751 1117.66 252 251 247
-17.5739 137.519 1208.67 199 140 129
-12.7587 190.287 1248.88 185 138 116
-12.7587 190.287 1248.88 185 138 116
-86.2767 206.322 1081.09 63 21 11
-101.826 209.931 1087.51 203 167 153
-46.6716 309.625 1161.71 255 246 241
-47.2803 339.868 1212.24 160 122 112
-78.3371 319.546 1131.91 78 40 33
-58.791 408.539 1167.45 253 254 250
-33.1132 470.05 1223.85 65 62 50
-573.017 -69.4636 730.473 106 119 112
-46.1182 50.9248 1148.68 194 145 122
-45.1269 108.189 1147.43 219 161 138
-84.9073 157.476 1073.45 115 28 17
-22.995 324.708 1210.82 255 248 248
-62.3703 332.37 1171.98 252 248 250
-57.2051 480.545 1165.6 33 23 30
-185.523 -13.232 224.394 30 45 43
-185.523 -13.232 224.394 30 45 43
-265.146 87.2739 1064.72 141 94 65
-100.989 140.239 1083.52 183 134 113
17.5232 233.595 1361.16 246 225 212
68.2102 303.29 1833.78 85 90 115
-166.802 -7.67147 1291.06 51 88 97
-194.447 232.708 1111.12 154 89 57
-194.447 232.708 1111.12 154 89 57
-129.922 39.3899 1049.96 152 127 106
-35.3071 -75.214 1608.86 62 48 39
-172.797 382.498 1173.96 144 78 43
-127.518 233.579 1108.69 62 49 34
-30.7262 87.1823 1209.39 255 239 217
105.846 145.627 1497.35 85 65 53
105.846 145.627 1497.35 85 65 53
-285.633 142.858 1123.8 67 43 32
104.649 143.968 1483.83 85 65 53
104.649 143.968 1483.83 85 65 53
-210.927 198.711 1064.5 98 51 39
