151.452 -170.288 1762.67 203 218 216
133.471 -103.96 1798.2 135 120 100
-43.858 35.0485 1184.68 132 44 25
-122.459 73.2413 1053.15 92 70 50
-110.655 73.8691 1011.09 248 223 210
-117.411 94.6772 1052.02 111 17 5
-121.564 104.588 1102.1 61 16 6
-113.801 125.691 1049.04 118 24 16
123.875 303.771 2013.9 229 235 233
-42.7654 120.696 639.226 255 244 230
75.9871 434.091 1934.6 35 61 68
-80.2263 290.853 1159.64 255 247 233
-248.425 461.724 1123.13 119 100 82
-64.1286 496.117 1187.66 25 31 30
-70.8764 499.36 1160.15 40 43 40
-131.124 127.981 1052.64 69 18 5
-53.9809 158.703 1202.93 168 116 100
-50.3193 181.443 1224.36 124 95 72
-44.586 215.599 1238.38 133 97 81
-44.586 215.599 1238.38 133 97 81
-281.723 213.973 1214.89 46 5 0
-242.591 263.265 1085.32 31 6 2
58.7929 470.664 1858.3 128 146 142
-268.467 298.338 1185.04 158 104 82
-235.637 278.974 1066.72 42 3 1
-180.185 407.946 1143.53 117 102 76
117.983 -130.463 1750.79 138 139 118
-179.738 0.037261 1291.94 143 144 143
-179.738 0.037261 1291.94 143 144 143
-54.9332 144.969 1202.67 210 147 130
-43.6332 157.6 946.55 154 120 101
-131.606 213.763 1065.39 198 164 142
-51.7499 246.583 1197.59 251 250 244
-57.6033 298.263 1171.29 253 254 248
-69.5681 295.368 1157.43 166 115 110
-89.917 302.226 1112.6 160 94 64
-80.337 312.921 1138.23 255 246 243
-64.6266 394.267 1183.16 114 92 77
-64.6266 394.267 1183.16 114 92 77
-69.0046 471.575 1200.98 82 63 52
-54.9808 477.266 1209.28 253 254 254
-317.829 477.29 1197.92 65 43 22
-317.829 477.29 1197.92 65 43 22
127.803 252.853 1786.38 55 38 25
-62.7656 180.114 1173.2 243 227 208
6.21672 349.034 1401.06 72 81 79
-95.5963 335.824 1151.58 253 253 254
-92.7761 417.659 1164.24 253 247 246
-257.337 446.832 1145.65 128 80 63
-54.6313 479.636 1217.03 253 252 253
-152.946 466.388 1109.48 21 14 6
-34.8968 28.9669 127.302 182 167 149
-104.743 133.432 1053.09 246 255 245
109.037 279.832 1804.2 219 235 232
-101.122 175.535 1069.98 253 253 253
-184.884 303.986 1082.31 40 24 8
-166.626 344.129 1086.12 125 111 116
-41.1876 74.9319 161.694 48 23 21
-130.261 143.127 1050.64 186 137 116
-24.6183 243.251 1358.54 197 186 175
-221.665 458.278 1143.78 62 42 25
-202.913 -1.60199 1254.07 51 86 99
-43.2984 1.70965 1272.98 214 187 159
-208.871 111.672 1064.12 40 29 21
-147.174 150.624 1038.52 174 122 99
-147.174 150.624 1038.52 174 122 99
-103.669 184.343 1065.34 254 252 254
-103.669 184.343 1065.34 254 252 254
-86.2084 17.2603 1099.92 37 58 64
-236.817 43.5334 1086.08 148 127 101
-161.953 45.1822 1054.44 157 129 109
-158.169 236.853 1088.18 61 48 24
-304.492 408.817 1227.86 60 47 38
-67.4655 94.5649 1202.15 254 233 202
55.6508 154.773 1482.78 73 52 38
55.6508 154.773 1482.78 73 52 38
