315.716 58.131 1758.34 245 242 231
64.4561 173.975 1199.27 147 104 88
-64.8005 276.402 1107.58 150 136 110
-60.9566 305.275 1126.37 146 137 126
41.805 330.564 1182.28 81 58 49
41.805 330.564 1182.28 81 58 49
-55.6609 371.787 1132.22 115 82 62
63.7787 470.951 1236.61 41 43 49
54.9119 604.205 1276.76 182 207 196
-915.734 -157.594 1413.12 125 135 128
365.046 -111.154 1790.61 114 105 86
327.935 -52.0606 1755.87 119 107 101
92.3137 -24.6797 1286.89 255 253 236
72.6962 17.0901 1221.41 176 82 74
22.0895 81.714 1100.16 255 249 247
388.4 160.996 1891.41 158 146 125
-163.185 95.2425 1089.46 33 1 0
-163.185 95.2425 1089.46 33 1 0
9.87482 121.123 1090.43 172 123 130
9.87482 121.123 1090.43 172 123 130
-65.86 122.64 1074.62 169 159 153
-65.86 122.64 1074.62 169 159 153
57.0402 136.117 1180.35 158 114 109
78.8277 240.246 1254.31 183 153 140
-13.0351 209.19 1077.87 79 53 51
-145.832 251.779 1141.41 65 18 9
299.298 437.443 1906.31 147 173 175
24.889 314.557 1154.22 139 116 119
-227.164 360.084 1239.45 14 9 2
-74.2812 372.034 1108.87 115 106 82
22.0473 478.575 1170.13 251 251 238
71.2781 576.289 1282.96 61 62 44
288.246 -151.269 1681.97 132 135 117
184.982 -128.921 1751.7 135 136 124
380.561 -61.7724 1834.94 204 205 181
198.575 104.071 1532.39 125 90 66
13.9574 101.717 1089.55 235 242 241
66.6635 164.207 1245.64 162 125 96
-34.6253 198.927 1101.89 183 152 140
43.2663 375.394 1197.01 86 66 48
43.2663 375.394 1197.01 86 66 48
11.9479 468.254 1166.92 31 12 5
46.3233 608.406 1299.73 38 40 38
-400.381 -52.69 525.274 108 124 113
314.257 233.084 1821.97 50 35 23
-34.9742 195.326 1083.74 183 152 140
35.5843 274.46 1155.76 139 89 75
7.49066 309.648 1135.79 252 254 255
44.8951 350.313 1178.16 131 101 85
10.7067 376.511 1115.57 249 252 247
-42.5166 387.958 1095.08 40 28 21
364.177 -9.48589 1807.99 235 230 213
-13.5882 50.426 1053.12 201 181 161
-8.23478 116.031 1056.73 251 251 247
-5.22653 378.825 1154.7 76 42 31
-688.138 -98.8065 1039.78 46 55 51
-202.089 75.7418 1118.53 133 86 58
-109.206 91.1413 1064.41 26 18 10
-35.2974 123.904 1048.09 191 133 109
-3.13211 160.877 1089.81 254 254 255
19.3009 432.951 1176.83 254 252 252
-980.733 -121.221 1413.74 48 54 49
-78.8195 -21.3116 1220.2 52 81 93
-116.199 364.228 1199.15 139 76 52
-682.218 -154.363 1104.42 85 97 90
-682.218 -154.363 1104.42 85 97 90
-723.729 -124.379 1134.98 47 50 47
-124.722 217.55 1116.92 153 81 39
-64.5729 30.7431 1135.16 160 129 102
76.0467 -92.1048 1619.91 59 49 38
-43.8192 87.6874 1053.04 56 38 25
-98.5643 358.072 1146.64 154 91 58
-24.5386 433.724 1169.9 43 36 34
-691.392 -131.386 962.471 97 114 105
-57.6992 214.156 1081.55 64 49 31
-186.16 375.356 1219.44 51 39 36
45.2177 74.3612 1182.73 254 235 222
-144.688 194.114 1101.99 100 62 43
