-300.123 -42.8169 1304.39 90 87 72
-169.546 -29.841 1452.06 18 10 8
-289.538 -18.8393 1250.44 42 29 9
-289.257 -22.5154 1368.82 23 22 17
-277.672 -21.5827 1366.23 136 137 135
-135.933 45.1868 919.04 158 158 160
-86.8937 43.8269 870.63 194 219 220
86.9436 47.6996 845.959 193 196 186
-5.15218 93.3906 774.211 10 4 0
-69.7356 123.259 770.066 160 148 143
-36.6087 142.231 789.021 25 31 40
-139.188 212.266 1041.68 69 69 64
-244.235 348.281 1567.4 247 251 244
-27.9783 178.38 801.476 233 223 218
45.0496 208.288 840.917 238 227 214
43.1695 204.743 817.867 238 227 214
62.5553 280.724 889.185 235 232 232
149.333 296.895 927.302 229 172 159
16.2113 274.82 842.724 60 49 43
239.563 360.273 969.341 199 178 163
241.679 399.423 1061.92 41 20 18
251.223 404.933 1066.07 204 185 165
171.053 414.173 1009.72 36 30 24
88.918 449.415 971.688 241 250 243
141.864 481.643 1022.01 21 62 77
-166.396 -169.412 1404.36 103 104 81
-227.013 -133.508 1282.52 25 12 3
-275.38 -117.559 1356.45 158 131 105
-279.252 -101.49 1220.58 34 21 9
-216.055 -112.116 1400.7 119 99 76
-165.12 -112.034 1415.25 60 77 68
-165.12 -112.034 1415.25 60 77 68
-311.696 -53.8195 1293.74 47 31 21
-336.356 -54.5825 1311.56 146 101 55
-104.753 66.1316 823.461 121 165 154
-127.782 74.6141 838.93 79 86 80
-50.943 138.903 782.881 32 30 24
194.851 177.311 933.094 171 168 168
194.851 177.311 933.094 171 168 168
-17.8859 174.219 792.32 40 21 23
96.6124 212.398 858.213 62 15 4
131.812 246.42 895.933 16 41 49
120.64 301.958 937.257 46 46 49
265.998 346.764 993.463 15 6 1
-11.1205 280.874 805.64 127 129 128
121.406 385.462 966.512 158 128 114
5.88657 349.793 869.436 100 95 93
67.7913 457.59 962.332 243 251 246
-662.536 -462.765 2273.83 191 196 189
-156.83 -148.313 1342.29 27 28 21
-156.83 -148.313 1342.29 27 28 21
-358.106 -127.536 1336.57 77 97 91
-358.106 -127.536 1336.57 77 97 91
-297.415 -97.3295 1327.41 177 147 126
56.6026 -64.2692 1009.57 50 44 43
-290.557 -52.699 1359.8 181 165 156
-290.557 -52.699 1359.8 181 165 156
-9.73543 -39.1814 1008.51 191 203 198
-263.138 -26.2763 1284.66 124 123 116
29.7747 -16.1943 929.936 193 163 148
157.462 -8.3227 851.17 15 7 1
119.546 39.987 820.464 142 111 82
119.546 39.987 820.464 142 111 82
-20.3226 51.7286 809.548 59 65 64
-270.997 100.161 1387.75 73 61 54
-140.848 60.4658 852.012 71 62 51
209.056 131.387 942.357 35 12 7
-38.4208 116.395 795.51 24 33 31
-89.5558 114.762 781.654 246 247 233
-78.1675 123.616 773.522 35 23 16
-68.8616 185.103 810.519 235 239 221
76.5254 201.148 838.931 43 23 12
244.833 277.797 963.579 67 40 38
146.126 319.753 941.171 48 27 26
203.019 350.011 928.5 27 15 7
230.406 460.421 1090.32 43 44 47
305.625 -621.871 2354.05 170 167 160
-231.71 -149.374 1278.12 135 123 108
-359.542 -128.344 1343.52 77 97 91
157.504 -8.1224 851.611 15 7 1
-45.5102 10.4948 929.46 209 197 194
175.534 39.1109 888.293 23 14 5
-81.2883 51.7935 848.923 92 118 114
-142.189 61.6896 865.703 81 66 54
-6.84442 120.991 809.081 11 27 31
-6.84442 120.991 809.081 11 27 31
171.892 193.275 914.222 185 156 139
36.9424 245.646 864.257 167 143 119
-145.343 -128.576 1170.01 45 38 34
-319.776 -97.6829 1328.1 67 53 46
-319.776 -97.6829 1328.1 67 53 46
58.1405 -64.3841 1025.88 46 45 49
109.967 47.4657 834.028 36 34 33
-113.519 78.6532 798.079 79 86 86
171.108 113.298 886.629 52 34 31
-65.6095 158.964 793.869 41 40 34
42.3432 173.292 853.025 135 65 50
144.645 181.273 872.125 56 42 35
49.3485 219.021 876.642 178 183 172
47.8576 216.661 858.005 178 183 172
179.891 262.745 899.298 87 126 124
188.422 286.778 927.491 85 68 66
-14.4754 315.456 875.453 51 49 40
-658.55 -461.902 2068.85 167 177 170
-214.855 -142.325 1353.85 58 45 35
-157.712 -22.1745 1373.78 69 52 49
-318.296 122.923 1501.69 244 234 218
252.783 246.583 977.112 186 185 171
174.453 254.149 918.732 64 57 57
174.453 254.149 918.732 64 57 57
55.2127 268.814 877.748 167 170 162
98.9918 -33.8547 911.693 76 84 80
98.9918 -33.8547 911.693 76 84 80
-65.6651 138.947 779.322 66 57 54
147.885 208.741 899.599 53 39 37
83.7462 261.477 891.192 150 72 52
-59.5151 272.681 935.606 210 213 204
226.874 301.652 967.788 171 136 116
-159.042 -153.511 1388.24 26 25 16
55.4378 -59.6834 1063.13 83 94 97
-193.098 -41.5543 1403.64 185 159 141
112.779 -6.75138 889.629 116 183 182
208.863 193.469 930.895 45 44 42
4.36802 262.432 845.376 174 140 121
73.7661 365.218 896.239 139 72 53
191.661 140.768 917.752 59 40 36
-49.185 179.504 799.431 47 44 42
-60.9213 -60.3023 1136.89 183 179 161
-65.7763 104.012 768.232 40 35 35
57.2277 241.68 870.713 104 104 87
-358.57 -539.194 2925.42 67 62 50
209.922 77.5974 907.103 159 150 139
-24.1115 221.381 830.027 53 50 48
36.7697 343.335 866.615 52 47 45
