-616.946 -364.756 1899.4 45 44 41
285.35 76.7629 -785.685 146 130 108
250.681 -130.164 1717.98 47 41 22
250.681 -130.164 1717.98 47 41 22
549.815 -107.346 1690.71 239 238 212
406.899 -84.6355 1606.92 34 10 1
53.1233 110.431 1236.46 253 241 217
-70.9148 155.632 1136.23 182 177 176
68.6963 177.108 1237.84 254 246 233
70.0961 220.953 1301.23 178 162 144
494.132 358.793 1936.65 189 219 230
-183.513 236.674 1257.23 171 123 98
-105.736 286.677 1215.63 106 87 74
73.3496 326.803 1338.62 132 127 118
30.2524 331.693 1254.28 232 231 216
52.1377 338.026 1266.3 239 241 218
-192.42 493.906 1492.8 165 147 130
79.9234 485.179 1409.26 39 47 54
-118.869 506.601 1415.47 237 231 226
-60.569 759.164 1580.68 57 74 67
-516.89 -257.155 1280.64 169 162 150
530.426 -237.765 1657.75 84 94 85
353.453 -252.846 1871.73 103 92 84
411.836 -215.15 1738.2 181 168 154
441.489 -188.396 1560.08 63 39 32
422.08 -74.4859 1658.08 199 176 169
-65.478 14.2613 1152.83 152 118 87
536.15 69.0238 1797.1 255 253 241
376.913 151.583 1854.06 123 132 104
536.643 318.463 1903.33 146 171 172
-66.3815 191.239 1131.04 82 64 51
59.6688 223.632 1266.93 255 253 248
-56.7407 202.675 1134.99 255 242 222
-56.7407 202.675 1134.99 255 242 222
475.752 394.044 1882.69 158 183 179
-107.867 246.826 1149.76 132 107 88
82.6634 302.176 1321.89 252 254 252
-22.333 274.046 1179.79 255 253 252
-39.4966 300.09 1165.91 246 249 252
8.59653 368.961 1239.29 255 250 239
-78.3905 396.473 1249.4 44 32 17
-172.22 487.998 1451.18 173 153 135
-172.22 487.998 1451.18 173 153 135
-163.948 514.37 1483.04 9 2 0
90.8059 581.099 1368.65 190 214 203
-522.763 -251.588 849.302 72 82 75
-622.856 -289.096 985.476 66 75 69
275.396 -311.648 1996.06 130 78 47
350.274 -238.357 1743.54 113 83 75
275.699 98.5143 -827.108 137 111 79
552.714 -157.652 1691.78 103 101 93
483.463 -137.821 1631.71 92 76 63
427.698 -123.878 1529.59 88 72 59
9.36344 -47.7016 1256.19 146 150 149
524.169 -25.7223 1707.99 136 119 109
63.9119 -7.85516 1251.32 110 62 43
543.052 1.54847 1767.73 137 120 103
-987.702 11.8543 1291.13 153 147 126
-987.702 11.8543 1291.13 153 147 126
-47.9099 21.3456 1142.68 227 220 192
-47.9099 21.3456 1142.68 227 220 192
-45.2858 31.7519 1096.71 190 124 107
420.054 81.8839 1824.37 137 109 90
-59.8198 68.3779 1096.63 251 253 248
505.443 160.418 1705.14 126 111 94
67.168 160.578 1259.72 254 250 232
-61.9628 163.811 1134.19 252 254 254
511.77 330.255 1882.99 241 252 248
524.673 408.442 1936.53 181 210 205
38.4664 314.811 1275.16 226 175 167
-32.2021 370.187 1202.25 252 252 254
54.4401 639.686 1335.44 124 186 173
467.067 -113.761 1688.33 255 254 255
-163.123 -42.0377 1309.67 113 86 62
-166.624 43.8598 1178.33 72 39 21
-22.1326 110.113 1166.2 245 255 252
-22.0281 111.901 1211.7 245 255 252
480.242 274.753 1759.37 240 254 253
402.441 390.697 1869.69 68 86 81
109.55 307.44 1301.38 251 251 255
13.6162 311.041 1210.49 124 89 83
11.4848 427.624 1246.45 80 64 58
11.4848 427.624 1246.45 80 64 58
24.3302 450.346 1274.08 227 221 212
-319.824 -202.068 1336.32 51 33 17
-709.262 -86.3048 1035.37 131 144 137
350.87 21.9767 1729.62 108 116 94
-76.7462 33.0991 1080.57 204 189 169
-1.88117 48.5478 1162.26 236 154 133
-154.47 67.1262 1140.45 54 35 25
579.078 117.778 1784.9 153 136 110
41.5139 111.766 1225.07 149 97 81
446.658 205.12 1683.96 220 236 230
-106.475 168.139 1132.96 73 49 30
128.006 196.83 1275.77 253 254 245
-29.5445 204.464 1167.31 241 195 160
4.65897 256.381 1203.38 151 96 85
4.65897 256.381 1203.38 151 96 85
-10.4448 272.355 1193 252 255 246
-10.4448 272.355 1193 252 255 246
113.135 321.441 1344.79 253 255 255
-38.3977 283.816 1159.99 252 253 251
-47.03 345.616 1170.24 91 63 65
-0.0616278 365.749 1233.69 250 255 255
-25.8096 432.107 1185.29 47 29 27
-92.6939 -375.219 1601.45 30 25 19
-460.855 -203.745 1380.13 74 73 70
-566.556 -216.175 1556.46 71 76 73
-628.874 -114.771 997.884 79 89 82
38.0312 -49.465 1190.75 73 120 121
-248.342 20.5394 1147.94 120 95 72
-161.54 38.4465 1156.07 97 67 46
-4.32883 103.577 1235.72 231 138 117
389.699 262.286 1878.62 100 119 121
-147.923 257.632 1215.34 145 106 88
-147.923 257.632 1215.34 145 106 88
-15.4544 416.474 1224.25 254 250 254
-87.8079 -269.852 1651.84 49 43 30
396.212 -237.918 1746.93 206 193 186
522.978 -215.449 1674.34 103 93 82
-687.117 -101.882 1061.82 125 137 130
561.674 -48.9779 1749.83 253 254 255
561.674 -48.9779 1749.83 253 254 255
-57.8767 143.884 1110.48 252 249 255
-57.8767 143.884 1110.48 252 249 255
-158.79 190.363 1201.73 161 91 56
-70.6232 -52.1314 1285.25 71 93 99
-70.6232 -52.1314 1285.25 71 93 99
41.992 11.7816 1237.86 255 243 225
-72.8689 280.714 1136.06 82 43 29
-2.31584 -33.2085 1224.94 71 111 117
-212.89 83.3017 1090.05 78 50 39
418.127 393.46 2108.59 66 56 38
-473.622 -233.828 1271.85 128 134 131
-111.078 69.1122 1111.12 57 37 28
-100.72 197.615 1164.65 83 57 41
270.494 -142.467 1833.95 47 41 22
57.2366 520.682 1328.52 71 73 69
455.874 -17.9556 1465.97 199 189 185
512.453 149.205 2003.98 57 42 40
506.352 -473.361 2426.3 183 181 170
-152.259 105.692 1042.01 171 141 116
322.057 49.9327 1571.89 79 89 64
38.4625 142.259 1382.14 241 213 188
