-289.8 -209.493 1214.31 21 4 3
313.438 -97.4467 1667.84 206 196 178
354.767 215.642 1814.6 170 153 126
43.6779 174.828 1292.51 53 41 23
-165.116 199.401 1107.32 52 11 3
-231.697 283.23 1165.26 47 5 0
-227.785 333.843 1196.35 57 19 9
-147.786 409.842 1144.13 43 18 5
-195.681 472.179 1134.25 42 30 20
-36.0204 480.999 1158.53 28 31 29
-164.258 465.557 1104.88 18 16 13
-380.967 -99.7192 638.019 14 14 9
-479.886 -83.2247 871.167 143 151 147
282.437 -147.505 1704.84 73 79 75
104.978 -92.2664 1682.25 127 148 114
296.23 -76.5277 1722.22 163 156 140
329.408 51.0711 1755.09 146 129 121
328.776 118.308 1704.65 215 212 198
301.363 140.163 1711.69 142 131 106
-119.007 90.0681 1042.89 250 234 209
-89.8623 108.571 1071.87 254 248 244
-104.817 119.905 1076.87 249 253 244
-262.93 135.138 1155.72 59 20 12
164.091 221.82 1750.89 140 147 124
-52.186 163.04 1199.99 204 140 120
-27.4125 208.889 1169.3 255 250 237
14.0626 226.599 1269.15 255 254 249
213.679 435.262 2016.63 140 167 162
339.155 478.509 1985.78 244 254 254
53.5525 339.045 1358.25 252 236 217
214.576 502.457 2003.84 62 78 76
26.7777 456.025 1315.86 251 253 240
-247.157 551.175 1351.95 20 15 11
155.158 -101.92 1590.52 21 10 7
-14.5302 50.3329 1234.13 161 98 64
-212.973 105.146 1082.83 81 32 14
-134.541 142.498 1076.07 104 28 11
-104.994 213.751 1091.51 250 254 253
-132.17 231.121 1108.52 221 191 179
219.143 398.503 1881.99 102 130 134
322.558 453.427 1893.6 245 254 254
-43.8937 364.404 1189.7 118 95 84
-79.6793 411.036 1135.26 246 254 252
-62.9272 507.881 1175.87 255 251 241
-539.905 -80.6696 707.556 120 119 112
159.326 -103.426 1625.46 26 14 11
284.743 -56.8076 1686.87 126 105 87
279.41 -37.0164 1713.64 253 252 244
-254.645 31.0422 1264.77 63 53 55
-254.645 31.0422 1264.77 63 53 55
-66.7145 71.3571 1129 204 140 122
389.185 196.925 1904.32 167 156 130
-82.877 135.138 1099.34 252 253 254
-10.3658 233.694 1186.71 160 141 131
43.5662 263.811 1318.88 253 250 239
-62.6769 320.634 1153.75 253 252 249
-175.395 324.483 1151.5 53 35 28
-161.208 376.136 1189.57 143 133 125
-79.0773 366.93 1137.57 253 254 255
-54.6142 417.235 1195.03 254 252 250
-191.577 -33.7743 262.64 138 141 132
29.0919 179.311 1324.38 238 228 209
341.612 366.053 1959.96 243 255 248
-52.7405 307.189 1168.49 179 132 121
-52.7405 307.189 1168.49 179 132 121
-85.286 334.391 1125.07 254 254 252
-94.0366 394.196 1124.91 96 70 62
-546.356 -105.697 1246.73 48 38 21
-116.434 84.4277 1048.36 205 189 168
-205.884 94.4275 1071.39 74 50 30
-151.653 218.012 1076.35 65 53 37
-382.021 -271.736 1592.22 27 23 19
-420.614 -180.095 1813.79 45 39 32
-510.938 -89.5581 959.78 56 60 55
183.987 -143.126 1699.2 203 188 180
-154.7 12.6863 1256.47 52 101 100
-154.7 12.6863 1256.47 52 101 100
-213.812 249.394 1143.01 146 96 52
-67.6855 400.04 1134.23 254 253 254
-226.391 62.3754 1142.69 166 138 109
-122.715 340.854 1123.74 99 52 39
-28.8959 -292.624 1939.37 184 174 157
361.384 135.228 1868.71 222 217 194
-103.757 440.152 1117.28 41 30 27
-147.454 117.286 1036.66 59 38 28
64.1866 133.149 1269.79 106 100 89
147.556 410.038 1795.84 84 74 66
147.556 410.038 1795.84 84 74 66
-10.4663 552.896 1261.75 92 91 90
210.706 -65.976 1625.87 69 57 50
301.35 39.4301 1569.49 221 219 215
-331.806 14.7356 1353 138 134 113
-49.9207 162.815 1270.12 215 201 190
-227.751 201.826 1129.86 172 122 86
