-996.287 -314.4 2359.16 58 52 40
22.8034 -143.979 1141.19 225 231 230
1.48394 -113.719 1111.37 132 116 123
-1275.73 -202.18 2539.88 185 193 191
78.3696 -62.9341 928.168 40 60 50
-469.595 -84.3326 1230.45 174 170 166
-428.358 -93.9826 1422.05 115 107 88
126.941 -8.00269 972.484 170 157 141
-483.906 -3.81432 1306.84 45 32 14
-659.627 14.5118 1104.28 138 136 124
-525.954 33.3854 1316.83 157 141 118
-513.853 47.0069 1327.89 17 16 9
-522.436 48.6467 1327.63 155 134 118
-516.478 51.9896 1233.96 187 155 126
223.46 43.8456 939.43 242 247 232
-489.645 108.088 1344.28 40 24 12
-938.556 146.987 1687.69 180 186 181
127.983 101.097 1053.08 181 165 140
-460.115 134.923 1330.24 112 113 98
-345.488 158.609 1491.84 38 17 10
-473.065 185.424 1330.94 253 245 238
-473.065 185.424 1330.94 253 245 238
-471.442 186.716 1299.48 187 161 138
-471.442 186.716 1299.48 187 161 138
262.588 144.84 1004.53 247 248 231
-446.303 212.089 1394.82 148 151 141
-438.548 206.954 1341.84 48 45 24
-437.03 223.04 1360.44 39 24 12
-396.233 254.838 1321.67 208 204 199
-348.747 349.096 1549.05 15 20 17
132.135 260.149 1157.05 185 179 141
-349.538 336.226 1489.65 230 232 218
-374.003 362.513 1547.4 228 228 212
279.696 252.165 1077.49 252 254 245
-405.338 340.671 1355.29 253 239 205
236.529 290.713 1132.26 255 253 243
-353.983 595.168 1563.15 244 253 252
-679.553 -416.778 1789.87 76 81 76
-998.868 -418.633 2080.1 54 55 51
-978.436 -397.187 2075.61 59 54 43
105.884 -83.7395 966.654 52 47 50
105.884 -83.7395 966.654 52 47 50
-4.48558 -91.2847 1058.79 200 187 169
-4.48558 -91.2847 1058.79 200 187 169
66.6948 -81.5414 995.352 204 192 184
-557.543 -37.642 1276.13 173 165 167
-60.5315 4.8141 1053.44 154 154 137
72.4627 8.61256 990.071 117 102 83
-522.334 29.6804 1270.7 106 64 24
-396.379 58.5947 1466.47 59 47 40
193.273 60.8784 974.504 141 155 123
-624.338 93.913 1245.93 179 131 121
-481.666 117.316 1259.5 245 218 200
112.733 115.24 1044.38 226 168 148
-499.948 141.977 1222.34 175 152 137
-499.948 141.977 1222.34 175 152 137
250.753 121.318 983.823 242 254 231
7.76262 139.517 1119.63 143 126 120
-489.275 157.917 1266.35 254 250 227
-399.348 189.338 1428.74 171 147 138
-379.14 227.79 1393.88 179 161 147
277.322 183.532 1086.91 171 185 148
-460.349 261.226 1386.9 255 248 229
43.769 251.864 1166.09 105 102 96
302.904 241.323 1044.48 74 69 59
28.1994 269.275 1131.51 87 81 62
284.174 267.584 1076.79 237 243 236
-413.239 391.169 1506.26 144 127 104
-522.502 407.639 1373.34 240 244 240
184.425 381.442 1286.79 248 254 247
230.86 386.421 1235.53 100 125 136
360.472 409.645 1264.06 118 152 151
66.3392 -121.271 1073.55 155 74 51
100.139 -106.06 1002.63 144 76 58
88.917 -102.338 1013.15 121 66 57
-502.304 -38.5529 1329.69 46 33 29
-390.64 -38.1826 1425.05 49 47 41
-488.538 -27.6659 1257.68 166 151 132
-488.538 -27.6659 1257.68 166 151 132
-684.297 -0.30614 1271.33 255 252 238
-684.297 -0.30614 1271.33 255 252 238
-775.44 6.81552 1319.82 243 238 229
-473.299 24.3332 1274.88 163 156 145
-473.299 24.3332 1274.88 163 156 145
70.5946 18.882 995.582 217 202 180
-475.995 31.1044 1325.75 55 47 45
217.472 28.147 932.1 253 254 252
-631.826 45.1587 1181.93 254 251 252
-49.4202 43.3419 1049 129 119 113
-519.865 96.1638 1254.69 255 252 240
-505.452 135.297 1306.7 227 179 159
32.1803 109.125 1060.87 255 254 221
32.1803 109.125 1060.87 255 254 221
106.355 110.453 1005.33 229 164 141
-577.965 173.232 1313.18 132 120 100
73.9581 182.928 1105.64 120 78 72
56.504 189.845 1130.96 152 128 121
25.274 264.875 1193.19 105 100 94
-387.369 349.559 1425.59 180 169 157
376.206 387.051 1281.69 66 78 75
259.449 376.231 1223.48 181 193 188
405.873 509.733 1315.71 100 125 120
-895.425 -313.375 2246.09 149 156 149
-387.474 -37.8844 1411.43 49 47 41
-666.202 42.3929 1234.65 254 251 238
-35.7376 38.4685 1050.86 255 252 255
-737.806 67.6663 1316.85 251 253 250
-693.179 82.9457 1336.39 187 146 134
-640.939 93.3027 1261.97 190 138 129
63.4454 108.687 1044.26 185 137 114
-580.183 140.966 1285.88 115 87 64
-530.869 142.411 1332.37 253 252 244
102.03 109.591 1018.78 229 154 135
-360.475 172.107 1466.78 29 22 16
110.161 128.579 1056.08 250 243 237
-503.213 251.484 1374.11 188 164 142
98.86 219.65 1088.11 215 194 168
-651.96 315.966 1447.06 251 249 249
225.379 287.748 1137.42 205 197 166
407.836 444.237 1326.66 145 173 175
372.291 484.062 1307.15 45 65 97
398.64 501.456 1334.55 173 206 202
145.369 -103.815 977.941 70 72 67
-1315.06 -228.104 2612.87 170 176 171
-61.6317 -47.2363 1015.87 59 45 36
197.828 -7.947 949.751 137 160 124
-414.697 0.0608003 1409.62 159 133 115
-375.014 20.7055 1456.91 40 27 27
178.112 90.9767 1034.5 255 254 230
8.15195 148.926 1085.12 116 96 97
67.0084 149.15 1080.82 161 119 115
-551.008 196.355 1353.26 254 252 255
-551.008 196.355 1353.26 254 252 255
95.8421 175.483 1068.57 135 108 96
156.503 235.509 1133.66 181 181 166
91.5873 246.361 1149.24 247 248 234
-407.668 351.371 1418.27 128 81 44
-382.061 500.194 1549.21 76 87 81
300.421 434.941 1263.31 224 246 239
300.421 434.941 1263.31 224 246 239
47.6554 -58.2868 966.586 59 53 51
14.1933 -58.5091 1000.86 35 33 32
14.1933 -58.5091 1000.86 35 33 32
-561.064 -64.2213 1292.84 72 115 112
-49.8098 23.5898 1033.1 90 74 68
39.6589 73.3013 1055.01 147 116 105
39.6589 73.3013 1055.01 147 116 105
-657.883 266.773 1468.02 255 250 255
-483.633 311.903 1344.68 250 250 250
-407.384 407.002 1497.85 51 52 48
-1151.3 -477.396 2442.78 60 54 45
-529.548 46.1819 1255.13 226 199 163
-468.966 227.749 1346.79 255 255 242
14.3229 201.613 1158.32 165 165 163
-410.307 -28.4972 1426.8 51 49 45
-419.384 24.8915 1385.98 171 148 129
126.537 120.638 1038.15 234 231 227
126.537 120.638 1038.15 234 231 227
-384.568 205.591 1480.74 180 146 125
-384.568 205.591 1480.74 180 146 125
213.01 336.039 1203.92 135 121 111
-436.013 -106.375 1408.74 44 39 25
112.133 165.245 1057.32 141 122 114
112.133 165.245 1057.32 141 122 114
100.428 222.121 1127.4 211 209 190
-500.744 -6.74516 1258.52 57 45 35
251.458 447.099 1335.27 228 250 246
234.125 -82.4905 960.031 124 123 110
-454.706 209.09 1172.84 251 254 255
10.0763 -34.9714 980.087 60 41 43
-400.322 104.462 1310.67 71 57 47
168.558 166.213 970.92 252 255 251
370.01 259.338 1133.05 125 119 107
-347.336 413.019 1517.1 56 62 59
-347.336 413.019 1517.1 56 62 59
