640.173 -282.721 1407.07 86 56 49
609.978 -234.384 1322.81 121 121 116
609.978 -234.384 1322.81 121 121 116
542.833 -202.194 1270.25 228 229 224
676.931 -203.568 1323.27 205 186 173
506.942 -214.123 1492.46 22 25 2
743.716 -131.299 1406.94 224 228 191
826.07 -127.964 1475.85 152 161 142
748.89 -101.575 1308.55 131 154 131
684.998 -108.25 1427.82 208 188 161
657.7 -78.2699 1390.86 255 247 228
676.859 -49.6402 1360.13 128 117 106
862.304 -21.837 1508.67 219 234 222
701.252 -12.6751 1441.39 88 72 61
853.366 110.544 1554.05 228 219 200
2.38159 113.825 1132.79 255 249 239
2.38159 113.825 1132.79 255 249 239
172.58 123.391 1191.56 255 250 228
147.196 145.023 1161.59 255 242 212
731.496 212.66 1590.67 71 103 110
739.467 303.771 1661.81 60 98 101
-8.28469 245.992 1182.8 255 250 241
86.4641 305.589 1208.97 97 95 80
165.476 364.458 1204.69 46 41 34
117.787 398.7 1250.1 68 52 42
5.57956 430.533 1168.03 253 251 243
157.574 522.334 1275.58 145 166 162
36.4854 644.665 1356.87 87 110 103
641.831 -255.944 1381.27 40 36 36
676.666 -197.669 1339.34 105 86 73
792.154 -106.987 1377.75 132 154 131
569.128 -103.863 1346.79 157 144 135
637.529 -87.8634 1361.47 114 100 73
869.714 -99.433 1539.13 142 167 152
574.653 -49.2176 1318.91 75 54 46
694.679 -7.07938 1409.25 254 229 241
585.23 102.656 1583.98 93 98 82
133.189 77.064 1153.23 254 243 229
643.2 118.997 1479.22 80 70 64
657.584 151.373 1457.57 128 118 99
700.191 169.175 1518.07 99 95 80
654.795 226.91 1662.77 47 64 64
741.388 230.61 1620.99 224 255 255
837.564 245.748 1633.69 181 191 191
717.392 294.064 1759.39 53 76 77
-92.8854 170.986 1016.18 92 68 57
74.9325 206.133 1214.3 254 249 249
659.383 294.855 1698.7 49 52 44
829.769 304.131 1655.22 97 115 122
-68.673 198.59 1059.54 109 84 47
745.792 371.869 1613.12 229 240 240
-45.8171 347.583 1123.68 254 252 252
664.368 -144.239 1359.39 238 224 195
808.328 -108.96 1403.67 132 154 131
699.194 -61.4571 1410.82 241 228 220
898.7 -17.7977 1549.6 95 94 87
-74.9622 15.0738 933.154 227 194 170
-74.9622 15.0738 933.154 227 194 170
587.736 44.2012 1484.94 102 81 65
-2.58193 36.2929 1024.21 212 126 86
-26.764 38.5798 1020.29 200 116 96
862.625 71.7191 1561.54 248 250 226
124.763 58.7347 1131.05 239 212 190
-94.0201 62.0796 1008 238 248 245
737.757 144.327 1466.91 245 252 246
159.891 142.688 1144.71 225 164 124
79.0096 154.225 1170.01 254 242 228
-102.667 168.321 1091.42 114 67 55
-78.8359 203.262 1066.54 252 251 235
204.984 281.783 1241.71 200 152 127
-35.9877 230.312 979.709 251 253 255
-64.5724 264.414 1072.77 246 249 249
3.51014 343.922 1133.84 255 253 242
-20.1601 438.21 1158.03 221 216 199
711.408 -306.831 1412.71 45 62 68
497.075 -218.515 1346.31 13 16 14
773.262 -106.891 1471.35 255 253 251
659.845 -51.4106 1402.7 255 251 245
625.409 -5.83857 1393.99 236 235 233
625.409 -5.83857 1393.99 236 235 233
740.146 166.748 1525.93 251 255 252
642.55 160.494 1453.26 31 15 9
757.039 297.568 1636.33 212 236 233
-51.9973 219.723 1064.4 217 187 162
-24.5924 248.914 1072.09 247 252 249
139.547 368.677 1229.15 160 143 108
585.914 -128.581 1363.94 32 13 8
131.45 103.39 1145.57 244 252 235
-65.4452 108.037 1004.09 250 253 254
-65.4452 108.037 1004.09 250 253 254
784.028 400.14 1978.17 69 74 66
-52.1138 245.237 1079.12 153 73 51
-45.6897 263.796 1087.06 219 226 226
-48.416 299.468 1088.05 254 250 254
-60.5109 323.348 1100.75 93 79 76
10.2796 399.741 1147.7 86 77 80
486.91 -235.445 1366.95 164 160 165
596.703 -130.879 1328.27 250 252 253
810.187 -102.57 1420.83 177 202 181
-19.4105 43.8355 1041.44 236 141 120
-42.2401 49.0067 1038.87 239 255 251
795.874 90.6434 1479.04 132 118 98
795.874 90.6434 1479.04 132 118 98
-101.109 91.192 1007.07 254 242 237
52.0258 132.687 1107.53 157 110 89
52.0258 132.687 1107.53 157 110 89
-29.3813 144.169 1060.39 236 190 156
743.308 -40.397 1459.1 131 100 98
-23.4362 91.8915 1075.56 212 119 95
176.727 188.249 1209.34 223 217 199
23.7162 262.241 1130.01 255 252 253
23.7162 262.241 1130.01 255 252 253
-22.8221 390.566 1137.88 247 231 221
-54.5858 445.08 1240.66 77 66 60
724.439 -249.046 1356.15 94 91 91
907.452 -21.9336 1579.18 217 232 222
-124.108 68.8672 1031.81 80 52 37
5.10397 68.8371 1061.36 254 255 249
5.10397 68.8371 1061.36 254 255 249
146.905 111.132 1161.31 224 184 153
-86.5035 134.492 1034.17 252 250 251
-86.5035 134.492 1034.17 252 250 251
56.9286 352.461 1196.04 165 187 141
596.127 -43.6702 1475.74 55 40 40
628.969 176.523 1784.31 156 151 138
574.433 65.6876 1726.16 61 55 48
642.801 299.682 1696.01 81 71 61
543.471 -175.551 1344.31 53 48 41
588.453 392.873 1679.36 205 206 194
743.595 -245.419 1462.29 95 79 73
784.008 -50.1797 1503.23 178 179 154
57.9294 146.176 1136.73 112 50 29
