597.711 -231.05 1292.26 189 191 187
-909.878 -123.67 1540.96 135 146 139
370.34 -96.811 1802.65 115 115 92
134.823 0.347155 1591.29 125 127 95
341.561 7.34874 1748.84 255 254 225
280.053 66.9321 1766.86 252 238 229
14.5446 80.2404 1266.56 216 164 142
323.444 146.496 1742.32 253 249 223
361.787 157.039 1795.78 210 206 183
361.787 157.039 1795.78 210 206 183
389.626 183.247 1853.59 253 253 233
-107.509 113.062 1072.4 177 107 80
-21.9988 157.707 951.287 255 242 226
183.036 341.862 1882.53 56 84 82
294.908 346.03 1872.95 223 255 255
-241.821 240.261 1191.81 165 109 85
24.0288 259.074 1287.65 191 170 159
-5.52675 257.605 1215.89 252 251 245
-241.652 330.062 1248.41 47 5 1
-177.6 469.174 1133.06 57 35 19
-184.677 490.426 1166.47 196 181 164
-61.3893 539.242 1218.21 25 22 23
10.8223 554.287 1206.46 44 42 36
11.8637 621.687 1335.59 57 56 53
205.96 -143.26 1574.3 202 203 205
341.291 -150.074 1735.32 93 98 94
341.291 -150.074 1735.32 93 98 94
-11.4487 53.8396 1208.34 94 54 38
297.301 101.013 1753.38 255 247 250
291.075 103.094 1647.16 125 107 94
372.441 145.231 1789.14 254 252 253
-132.904 143.17 1044.2 79 36 22
51.468 191.51 1373.68 32 18 15
-160.108 154.255 1059.15 205 179 173
-26.005 223.625 1217.28 255 253 235
234.344 388.337 1839.39 178 208 202
49.855 292.123 1353.96 255 253 245
217.545 398.823 1841.68 98 133 132
-111.524 249.899 1114.64 87 69 67
13.6049 458.485 1184.01 52 53 53
-0.711289 651.162 1332.27 217 238 226
-686.868 -106.316 921.549 151 154 145
170.265 -101.161 1660.61 34 31 28
331.898 34.5565 -636.849 133 109 82
261.422 -20.3595 1677.71 55 28 21
269.465 -6.10831 1660.56 254 250 251
-128.032 19.3374 1272.13 172 169 161
-128.032 19.3374 1272.13 172 169 161
342.197 84.1359 1780.12 146 130 112
-354.225 87.577 1237.72 84 65 42
-90.9901 89.0576 1090.71 182 127 106
402.85 172.171 1848.92 166 170 136
339.278 247.019 1820.46 143 124 108
-84.7459 155.339 1086.81 175 158 152
-84.7459 155.339 1086.81 175 158 152
236.985 325.939 1846.74 105 135 144
236.985 325.939 1846.74 105 135 144
197.457 310.041 1707.31 166 191 183
219.404 447.44 2032.89 141 171 162
318.239 453.858 1854.55 242 255 254
305.752 480.291 1901.72 168 188 187
205.147 485.572 1904.03 73 84 86
-44.8891 374.202 1203.8 124 97 87
-78.8645 399.436 1090.85 255 253 249
-27.0807 454.962 1229 184 197 170
-37.1473 502.053 1225.12 255 254 241
-64.4979 509.152 1169.31 255 251 241
-816.948 -178.558 1322.76 156 158 151
175.326 -102.895 1700.8 25 19 14
295.261 -49.8461 1704.04 119 97 77
161.592 104.246 1691.28 131 133 105
-70.9487 113.949 1120.44 253 253 254
-82.0816 140.238 1109.78 249 252 252
46.4444 277.593 1351.79 254 254 246
-105.723 331.248 1101.18 86 44 38
-42.8286 408.933 1198.24 110 87 77
-46.5575 480.432 1199.17 86 73 64
-46.5575 480.432 1199.17 86 73 64
-34.5453 521.976 1278.38 244 245 233
-45.3165 149.006 1170.68 252 254 252
31.9038 185.714 1345.09 255 248 228
267.162 248.424 1643.82 70 56 50
277.615 293.824 1772.05 228 241 241
-77.29 254.607 1117.62 241 200 174
-35.4386 338.375 1189.63 249 251 252
-87.3209 348.31 1155.29 255 248 254
-55.6389 418.507 1185.65 252 254 255
-480.617 -93.8336 1106.95 46 35 25
-646.69 -95.3116 1195.21 65 70 67
-658.394 -80.7619 1138.85 59 72 66
-203.542 128.903 1089.61 55 39 31
203.029 379.304 2022.56 105 126 135
-158.529 235.193 1139.76 72 59 42
-68.2584 461.494 1159.2 253 251 252
-404.703 -177.691 1795.78 48 44 34
191.431 -135.482 1691.86 203 192 182
342.475 -132.423 1812.68 127 117 104
-334.784 94.4442 1186.88 112 89 66
-334.784 94.4442 1186.88 112 89 66
-220.487 171.757 1112.14 163 110 83
-148.067 169.789 1077.69 175 126 103
-148.067 169.789 1077.69 175 126 103
-218.428 257.544 1171.38 156 93 59
-154.923 18.9186 1265.81 51 90 106
360.689 141.232 1838.37 208 205 186
-124.418 350.335 1138.42 115 63 53
-10.8379 566.318 1283.43 89 92 92
-153.84 123.133 1050.65 53 33 26
41.5337 233.055 1386.69 234 193 168
320.75 365.628 1931.52 149 166 159
306.181 50.5919 1559.88 224 220 219
-331.057 18.2356 1376.8 144 131 118
-48.5554 167.128 1271.5 213 183 169
-234.208 216.613 1175.27 151 99 73
