303.307 265.687 -1322.42 169 153 133
-346.036 177.635 -882.694 37 28 16
539.651 -149.558 1336.62 110 106 80
666.389 -134.441 1336.21 246 252 237
666.389 -134.441 1336.21 246 252 237
-183.888 -117.894 1202.77 108 119 120
408.401 -120.819 1295.91 47 29 24
-261.298 -108.143 1236.95 72 63 53
498.575 -85.7875 1325.6 220 214 182
426.624 -75.069 1342.85 173 139 117
488.618 -66.3993 1456.75 88 60 52
864.926 -18.8932 1722.25 71 74 67
-196.857 -4.60214 999.461 128 55 35
498.406 38.7506 1368.49 110 111 83
475.215 39.2042 1382.98 131 121 103
668.511 54.3113 1526.48 252 251 223
569.667 103.733 1465.2 103 92 74
509.364 190.973 1406.4 195 233 239
596.652 209.97 1518.4 192 215 213
651.104 316.61 1592.11 229 247 247
-230.367 237.069 1100.77 250 253 236
594.95 378.971 1761.98 100 115 116
567.844 344.521 1530.81 221 235 230
-118.067 289.279 1186.65 102 86 69
-182.118 300.595 1153.82 253 245 229
-95.1864 351.908 1220.27 129 142 95
-205.775 332.641 1133.1 234 219 205
-199.564 342.578 1161.81 48 24 19
-36.0869 509.33 1286.32 167 193 182
-135.072 -71.9158 281.889 46 60 58
-95.7889 -51.4742 274.009 95 87 66
-93.1893 -31.3295 188.478 161 153 130
-93.1893 -31.3295 188.478 161 153 130
418.289 -110.306 1326.24 141 118 117
499.511 -111.562 1312.66 178 160 136
456.662 -101.052 1285.47 188 176 153
443.494 -83.7994 1283.37 133 96 88
683.817 -77.3253 1398.57 159 184 156
683.817 -77.3253 1398.57 159 184 156
533.634 -66.3944 1329.83 241 234 219
729.694 -65.3121 1486.77 236 252 237
555.623 -46.2 1384.34 255 232 223
433.125 -23.5179 1349.03 44 28 19
-102.325 -12.5772 1084.44 233 183 164
536.318 -16.845 1380.56 102 71 66
447.082 -10.9124 1382.26 145 124 119
-23.1175 10.2836 1155.34 240 216 199
448.078 14.4712 1620.45 93 90 72
-56.2712 34.6339 1114.61 188 107 79
-228.906 35.8197 1044.39 255 246 239
513.714 64.8627 1386.58 201 201 168
-6.74551 81.2951 1217.38 255 248 225
648.273 123.535 1495.31 251 252 246
525.957 133.612 1428.14 143 138 133
517.22 160.222 1507.21 39 33 26
-97.9687 152.304 1162.08 242 234 228
-97.9687 152.304 1162.08 242 234 228
-95.4613 174.582 1183.18 254 251 246
-95.4613 174.582 1183.18 254 251 246
-110.657 180.553 1192.87 254 252 248
520.317 258.743 1624.81 67 93 94
-135.568 202.104 1128.43 255 249 240
-248.939 228.742 1079.02 238 247 238
644.59 345.825 1587.21 172 187 187
-211.851 242.832 1102.93 148 117 112
8.03057 282.536 1232.19 209 126 93
-98.2411 280.133 1196.02 116 109 92
-211.937 344.602 1142.35 69 49 31
-181.323 350.605 1153.26 40 41 33
-223.421 347.499 1140.05 253 248 234
-149.072 -73.1399 282.739 53 67 60
452.81 -152.099 1304.54 255 246 241
443.197 -96.007 1315.66 255 250 248
631.451 -96.3739 1410.2 208 207 182
471.85 -75.3999 1296.25 127 82 59
502.91 -72.3929 1329.55 149 101 83
768.19 -22.0523 1535.91 74 76 71
-157.219 19.6069 1087.6 152 77 81
502.215 25.814 1394.67 155 158 130
-239.236 32.1626 1046.18 176 135 129
469.969 192.968 1536.21 61 72 71
-112.091 158.469 1091.14 111 81 66
617.402 263.444 1582.71 135 173 184
617.402 263.444 1582.71 135 173 184
630.876 263.799 1563.74 224 247 244
-229.303 261.928 1110.68 149 116 117
-227.542 301.776 1126.31 251 250 253
-178.741 324.512 1159.09 254 251 243
-178.741 324.512 1159.09 254 251 243
-227.097 320.898 1124.16 246 246 246
-566.089 -279.135 1029.32 72 86 80
-195.424 -83.5497 305.348 54 65 58
-72.5417 -21.3146 81.6043 62 63 54
-350.495 -117.113 571.665 69 67 54
-194.076 -41.0655 1022.45 91 66 52
-104.344 -34.4201 1073.09 92 37 12
453.069 -43.9616 1328.76 205 202 199
470.421 -34.1399 1326.79 114 102 102
563.881 2.65298 1365.48 255 253 236
702.22 62.9908 1505.07 253 253 231
702.22 62.9908 1505.07 253 253 231
-181.501 75.9847 1069.77 189 108 85
483.166 141.027 1701.34 155 152 144
550.608 175.93 1504.09 200 226 220
-130.419 190.524 1144.52 233 187 173
646.221 334.654 1610.46 214 238 235
611.062 332.302 1580.24 213 238 236
596.502 346.591 1610.83 110 149 157
-76.7876 -25.0216 86.9395 139 159 149
427.837 -136.799 1314.2 45 17 9
652.782 -101.933 1399.35 249 255 241
421.297 -39.7052 1519.9 83 78 60
421.297 -39.7052 1519.9 83 78 60
468.007 -13.7607 1354.92 247 243 241
468.007 -13.7607 1354.92 247 243 241
-92.3874 14.2661 1070.36 249 230 215
-150.395 37.5948 1080.88 253 245 238
676.561 85.3572 1475.35 119 113 89
676.561 85.3572 1475.35 119 113 89
-135.634 137.244 1122.94 237 212 187
-135.634 137.244 1122.94 237 212 187
-159.904 180.441 1111.54 252 252 241
-159.904 180.441 1111.54 252 252 241
625.633 285.862 1575.48 206 230 226
625.633 285.862 1575.48 206 230 226
-234.184 224.773 1100.48 155 63 50
-205.826 237.574 1129.3 250 232 219
-226.872 242.574 1104.8 234 220 225
23.8351 282.091 1250.01 211 185 151
-213.951 254.862 1118.06 178 116 106
-139.737 358.281 1200.46 143 161 126
-173.055 382.926 1183.97 67 60 57
-210.498 -71.9901 322.419 122 144 137
-217.169 27.6972 1029.7 238 239 238
-133.217 81.1332 1109.91 123 69 52
-133.217 81.1332 1109.91 123 69 52
-133.217 81.1332 1109.91 123 69 52
-40.4293 86.4276 1155.76 248 217 198
-122.956 112.731 1107.62 133 90 70
-122.956 112.731 1107.62 133 90 70
-122.956 112.731 1107.62 133 90 70
-178.858 114.415 1111.27 233 204 178
-203.131 120.488 1041.1 228 185 144
-180.558 216.891 1098.79 147 103 87
-180.558 216.891 1098.79 147 103 87
-209.977 217.511 982.608 196 193 191
-192.956 315.23 1139.46 254 249 246
448.704 -137.96 1292.14 246 246 246
-111.228 153.437 1135.28 150 122 104
-158.848 243.255 1151.6 255 247 244
-174.357 -138.241 566.077 101 80 66
-174.357 -138.241 566.077 101 80 66
638.535 -19.4618 1302.4 216 235 225
-93.792 85.8722 1115.53 234 186 143
-126.227 323.06 1183.75 170 187 140
-234.43 -83.8704 509.839 76 62 42
-61.2842 -67.1901 1102.76 235 198 160
484.976 161.884 1765.84 145 139 124
594.943 188.463 1491.19 219 242 240
497.289 278.844 1677.69 84 70 60
390.375 -185.479 1285 49 42 34
-137.861 13.4988 1087.12 213 174 162
-182.196 -51.4314 327.97 66 55 44
626.296 -53.7601 1440.58 214 210 191
-90.6073 264.787 1294.34 205 209 196
-125.396 122.169 1092.39 160 118 94
