-1151.36 -590.225 2466.96 140 145 141
-604.855 -288.024 1605.56 53 44 30
-515.304 -98.434 1346.8 178 162 146
-515.304 -98.434 1346.8 178 162 146
-474.562 -72.8127 1282.65 107 93 70
-573.806 -63.1606 1189.41 179 182 171
-573.806 -63.1606 1189.41 179 182 171
-472.767 -15.6819 1316.39 237 222 203
-469.462 -14.7352 1339.75 118 93 72
-469.462 -14.7352 1339.75 118 93 72
-678.281 4.03739 1234.09 201 145 122
-538.659 4.40287 1195.65 191 168 143
-523.507 20.6006 1178.55 156 149 115
-490.051 24.5014 1204.14 159 147 128
-29.9803 20.1187 930.818 111 104 93
20.4625 50.1133 1973.82 87 77 67
-418.914 38.0684 1448.71 20 23 21
-657.953 36.7204 1510.51 139 129 111
-549.848 54.241 1203.08 124 104 101
69.6537 41.2334 931.133 116 123 112
-511.666 63.5284 1201.64 142 113 101
14.2316 50.0274 969.858 131 117 106
-643.585 87.1734 1592.36 94 87 86
-773.447 107.866 1404.82 182 161 138
4.31169 109.878 1075.15 154 134 106
-602.113 140.097 1276.27 247 247 235
-446.198 151.089 1368.99 194 175 154
-453.122 165.221 1405.12 45 21 11
-678.107 163.961 1342.64 254 251 253
-439.92 172.226 1376.88 211 178 163
-471.551 165.1 1242.75 21 18 6
-12.0375 145.757 998.015 252 243 243
-427.926 210.811 1408.78 151 133 113
147.881 170.29 980.679 245 248 226
296.862 227.818 1206.13 56 36 18
-34.4385 202.462 1071.93 118 99 84
296.67 225.62 1179.78 168 152 135
-386.614 277.321 1291.08 234 238 226
-359.691 360.538 1595.08 39 35 25
33.5655 280.953 1072.73 255 253 245
-686.618 431.983 1641.73 228 229 225
-10.7208 315.236 1173.16 129 112 92
63.5415 306.516 1056.68 153 138 116
71.4233 349.708 1178.98 207 202 183
60.9848 338.241 1117.57 115 107 88
150.856 464.917 1187.78 116 128 138
-381.908 -294.339 1259.93 50 49 34
-671.639 -287.464 1310.98 91 91 76
-609.543 -237.25 1160.37 113 113 107
-1306.38 -487.361 2616.54 108 114 107
-617.341 -188.373 1271.94 104 110 99
138.547 -162.853 1085.12 157 201 186
-669.144 -183.689 1423.64 89 94 89
-495.152 -117.51 1362.09 123 109 91
-487.929 -75.8473 1281.91 175 161 146
-541.539 0.787313 1170.65 121 65 27
92.614 5.04214 866.359 253 253 248
-533.643 14.4058 1168.56 118 74 41
18.1819 10.3386 925.211 177 159 138
-77.9563 19.3016 961.998 108 94 76
-141.258 47.0968 1019.28 143 121 120
103.211 48.204 877.468 252 255 245
-51.1539 65.4693 971.598 251 248 235
-37.7478 71.2143 987.192 140 120 109
-407.113 126.824 1494.66 44 28 12
-108.197 104.468 1044.95 144 102 88
-69.4822 116.465 1030.07 255 254 237
-22.1536 115.246 1005.28 201 136 106
-671.671 172.647 1332.52 125 100 89
-53.3898 148.69 1041.65 246 245 242
-53.3898 148.69 1041.65 246 245 242
-53.3898 148.69 1041.65 246 245 242
138.566 146.851 965.125 229 251 230
13.1677 160.745 1012.09 147 115 102
-502.574 235.557 1459.73 79 57 46
-436.7 215.089 1244.08 215 218 213
-26.295 230.248 1111.67 186 168 136
-26.295 230.248 1111.67 186 168 136
-424.337 307.006 1453.09 235 245 229
-417.343 270.613 1234.28 109 68 52
-0.0130672 241.333 1077.3 253 252 250
-769.039 448.272 2011.43 252 249 225
-78.8177 254.654 1125.04 102 102 87
82.1461 352.241 1337.71 255 255 245
5.26791 287.446 1061.87 149 134 112
-360.83 503.316 1620.61 194 209 187
140.262 391.218 1196.04 202 206 205
-363.851 490.187 1449.38 251 252 247
228.818 413.587 1190.28 110 142 143
-277.035 -221.796 803.084 67 65 59
16.7808 -165.307 1164.22 92 78 71
-1327.21 -401.605 2830.42 106 112 100
-527.225 -52.1865 1211.22 149 135 108
-812.584 -38.7393 1317.27 254 253 244
-526.186 -3.39222 1257.2 180 169 159
-681.984 1.48949 1185.03 254 254 246
-579.387 25.0518 1209.87 255 249 230
-1240.07 71.6327 1682.36 155 160 147
-100.104 56.0139 959.565 253 254 247
76.9206 61.2751 928.425 135 144 134
-413.025 165.37 1461.54 88 53 37
282.446 144.972 1189.56 83 50 37
-766.337 198.697 1486.08 255 253 249
14.7258 167.492 1042.26 128 101 90
-21.3003 170.488 1043.8 248 235 222
-46.1675 268.415 1150.87 222 226 198
-46.1675 268.415 1150.87 222 226 198
174.132 257.304 1008.37 201 201 188
-356.582 475.083 1541.56 63 73 56
142.767 485.244 1224.84 120 161 172
163.654 504.504 1207.37 251 254 253
-722.919 -215.584 1574.16 167 172 174
-418.097 -112.374 1215.27 41 37 36
107.229 -76.6102 928.824 91 158 169
-542.602 -71.5427 1260.62 53 39 29
-617.811 -10.3945 1165.15 253 247 242
-116.661 15.2459 970.284 146 140 121
-609.726 53.5364 1220.49 255 245 239
-625.114 112.812 1244.62 236 239 229
-0.302967 99.3746 991.891 167 149 126
-557.31 139.21 1269.84 232 186 163
3.76341 139.401 1014.91 254 253 250
-542.639 203.995 1306.87 216 174 163
-97.2896 166.547 1055.47 250 250 254
71.4689 317.98 1112.11 167 158 134
-416.476 26.8678 1483.88 22 16 14
-753.081 53.0597 1316.25 254 252 255
-753.081 53.0597 1316.25 254 252 255
35.8417 55.85 940.039 108 101 89
52.3315 123.948 983.87 196 192 155
52.3315 123.948 983.87 196 192 155
161.752 134.785 964.864 160 128 105
161.752 134.785 964.864 160 128 105
-87.6996 152.773 1060.21 143 119 115
-426.676 311.999 1709.05 32 33 29
29.9951 217.745 1044.86 249 253 252
-458.268 298.565 1338.07 140 82 53
-428.626 423.969 1434.56 91 98 97
162.956 372.339 1132.96 214 230 228
280.257 451.732 1263.63 140 167 168
-555.102 -51.9431 1228.04 61 49 36
-570.431 14.6295 1206.17 242 223 190
-452.251 15.2161 1414.12 56 43 39
-49.2697 44.1846 975.112 129 99 91
37.3709 165.663 983.561 254 253 251
-481.405 234.022 1167.38 251 251 254
-604.319 -36.9264 1215.92 240 216 191
-1222.04 6.37915 2102.48 207 203 202
-18.6216 19.4511 924.714 214 211 197
-84.876 209.445 1158.66 145 143 138
109.874 284.613 1023.24 254 253 252
109.874 284.613 1023.24 254 253 252
-466.408 -1.11066 1353.63 177 155 138
-466.408 -1.11066 1353.63 177 155 138
-433.502 167.481 1416.59 182 147 132
-428.077 221.535 1352.18 70 53 50
-473.41 309.076 1307.57 252 235 206
206.508 502.43 1243.32 207 236 235
-476.187 -130.219 1386.33 47 42 32
7.63113 -11.6438 901.562 118 106 101
250.401 48.9507 1157.88 72 52 39
-515.833 109.088 1184.42 246 239 216
111.698 111.506 934.09 249 254 245
-382.723 195.494 1505.83 56 51 51
-10.188 222.115 1054.28 184 172 138
-545.433 -32.3875 1223.11 55 44 33
189.929 383.53 1127.45 188 218 213
119.231 424.793 1212.4 243 255 252
-460.511 -294.899 1306.51 145 153 147
-460.511 -294.899 1306.51 145 153 147
-829.575 -107.754 1494.9 150 147 134
65.3917 169.62 927.404 253 255 251
-431.346 72.2782 1229.4 56 46 36
