-166.534 -136.458 1189.57 111 111 107
-166.534 -136.458 1189.57 111 111 107
-122.292 -127.068 1567.5 28 12 1
158.591 53.1043 918.898 15 26 18
-29.2437 91.7149 910.518 230 226 218
108.254 91.6629 909.158 225 208 189
-128.309 98.1905 968.938 216 202 192
-116.01 104.962 950.509 234 255 250
17.8361 113.917 807.331 23 14 8
-8.60473 116.434 733.584 24 18 11
-16.1853 135.157 807.427 10 2 1
140.752 174.547 936.414 38 28 22
-56.1648 168.012 873.807 16 37 39
95.0643 237.034 935.182 100 61 37
125.542 236.598 936.243 59 25 22
4.04085 246.6 906.708 134 119 107
33.1974 274.253 923.607 230 221 211
213.806 312.467 1001.83 61 22 6
18.7527 286.205 916.759 251 250 241
76.3452 314.009 952.389 172 169 155
62.8876 407.631 949.335 118 90 76
68.3169 409.262 938.772 79 31 17
247.019 492.711 1118.43 51 10 8
-14.8216 413.81 937.563 108 103 98
248.192 504.049 1126.28 239 231 222
221.032 521.93 1137.06 120 126 120
166.649 514.425 1083.84 151 157 151
97.1138 493.426 1004.85 24 31 25
-108.342 -188.909 1707.77 68 83 78
-303.592 -134.626 1637.71 194 173 157
-38.7406 -52.2061 1551.47 24 14 21
-58.5905 -10.6468 1544.41 36 3 5
65.6575 14.9367 1103.13 208 169 153
155.701 39.462 930.536 53 58 50
-114.611 87.4495 989.647 129 154 124
-114.611 87.4495 989.647 129 154 124
-97.167 216.875 885.697 249 248 241
224.497 313.959 1012.5 161 105 82
2.18842 310.962 935.182 36 10 3
133.24 336.121 1009.97 24 45 54
105.136 321.893 951.001 91 107 104
-37.0903 352.176 888.934 51 48 46
-67.6583 -382.715 1685.47 72 71 68
-137.125 -209.603 1774.77 171 157 137
-108.086 -187.62 1696.09 68 83 78
-207.275 -42.7315 1506.79 51 32 13
-214.925 -22.2598 1530.84 186 170 161
141.467 24.6347 1000.71 75 84 74
46.2971 35.6077 1027.16 187 157 138
-144.71 101.903 961.326 86 75 70
176.2 101.675 914.076 11 3 0
123.519 102.688 913.987 150 119 98
158.796 171.737 932.621 141 107 89
201.087 303.287 1020.57 137 145 146
95.6655 317.23 949.995 195 209 203
-55.4368 311.162 917.712 60 57 53
281.196 443.162 1061.11 37 18 10
244.564 524.229 1138.7 56 55 54
-197.261 -141.718 1227.89 81 70 60
-250.347 -111.732 1623.07 154 136 124
-216.787 -88.9643 1527.03 52 33 23
162.347 52.969 911.311 3 10 4
-22.2083 173.977 879.795 12 19 17
29.7863 237.068 927.798 139 67 52
29.7863 237.068 927.798 139 67 52
198.262 300.219 1009.86 137 145 146
-55.3087 310.768 917.89 53 48 45
-246.19 -73.0067 1500.56 58 45 40
-246.19 -73.0067 1500.56 58 45 40
109.729 108.329 910.542 38 37 33
176.611 184.294 959.103 54 39 36
-54.2125 199.175 867.657 56 48 48
34.1315 282.161 933.201 146 158 147
199.106 297.605 967.447 35 28 26
-131.048 -118.597 1580.33 53 37 27
92.7875 -9.03725 1138.88 90 83 74
-18.1159 -1.4776 1526.33 62 43 45
261.346 330.21 1029.76 197 195 187
236.098 333.172 999.772 54 23 23
179.927 341.187 1006.87 65 59 62
179.927 341.187 1006.87 65 59 62
-156.335 -60.0849 1550.1 166 152 134
-156.335 -60.0849 1550.1 166 152 134
-87.7948 190.817 864.785 89 81 79
104.466 264.956 951.516 60 41 37
86.6822 -5.23474 1114.33 91 106 103
-69.4616 233.228 876.373 57 52 49
-13.2127 328.31 931.959 173 141 121
-13.2127 328.31 931.959 173 141 121
233.086 386.75 1025.61 178 139 123
233.086 386.75 1025.61 178 139 123
264.763 429.52 1048.68 45 47 35
264.763 429.52 1048.68 45 47 35
-63.8171 -118.247 1467.89 59 56 40
-239.886 -57.4312 1515.1 59 39 24
192.289 209.179 956.578 62 41 36
103.162 219.418 932.451 188 142 112
103.162 219.418 932.451 188 142 112
-59.145 -208.889 1502.89 188 187 184
152.388 77.5868 915.794 44 34 29
-91.6518 111.128 936.897 169 205 199
-86.6815 153.071 849.134 53 45 43
-4.46007 -166.486 1020.46 71 66 54
-14.6937 63.1646 886.564 216 178 160
200.576 135.315 913.248 165 154 143
217.035 320.558 1019.43 60 40 32
114.661 331.405 974.707 99 129 139
-135.342 -15.4778 1188.35 21 15 10
