-53.6641 -32.039 103.566 64 67 57
577.487 -318.599 1211.98 70 96 84
-55.7088 -113.936 446.213 200 175 151
590.419 -187.426 1033.3 100 140 114
547.507 -182.351 1038.56 137 139 137
533.569 -133.573 1105.96 68 66 59
525.481 -96.9307 1112.27 160 135 121
405.11 -71.7316 1035.88 95 70 62
546.93 -55.0888 1128.9 247 235 217
-159.155 -30.7123 1002.65 245 224 196
390.905 30.447 1102.51 255 248 247
-254.001 64.3525 1031.64 223 188 180
-262.44 108.042 1067.25 255 253 245
424.459 118.668 1151.85 166 161 141
559.348 198.611 1770.94 165 160 147
-149.493 132.294 996.935 254 241 225
-238.245 151.308 1091.36 95 58 39
642.296 193.704 1186.67 232 230 228
548.865 220.548 1188.17 241 244 235
-233.462 203.683 1078.33 234 223 201
-129.385 203.762 1045.4 253 247 232
467.745 238.505 1237.95 66 54 42
-109.549 244.436 1154.16 201 164 158
-97.412 266.393 1134.77 183 142 113
-328.958 240.688 981.407 238 252 241
-328.958 240.688 981.407 238 252 241
-106.976 342.579 1193.41 47 15 10
-87.287 368.431 1162.73 255 252 219
741.945 444.247 1406.39 247 251 250
-277.264 397.964 1161.11 253 252 242
-277.264 397.964 1161.11 253 252 242
-98.0559 414.022 1201.01 15 18 21
-268.462 418.604 1147.75 53 50 45
-104.965 -122.733 349.978 74 82 81
-51.7184 -77.1361 325.485 172 161 142
-51.7184 -77.1361 325.485 172 161 142
553.025 -269.611 1200.85 193 187 190
444.531 -241.715 1175.14 243 215 206
578.157 -202.719 1040.76 237 251 243
402.584 -220.884 1181.67 250 246 244
587.53 -187.799 1044.55 219 247 233
587.53 -187.799 1044.55 219 247 233
336.112 -182.559 1144.35 6 4 2
336.112 -182.559 1144.35 6 4 2
-284.219 -97.5629 1210.31 37 45 41
614.036 -69.3593 1112.83 138 137 109
412.888 -66.9283 1108.52 162 159 161
-251.347 -68.2031 1183.33 139 147 144
-251.347 -68.2031 1183.33 139 147 144
373.859 -36.4403 1127.88 178 158 148
507.695 -23.3182 1090.15 169 129 104
418.723 -16.2466 1070.1 105 100 75
538.581 17.4354 1185.86 247 237 227
-264.538 20.9868 1002.82 255 234 219
-330.61 41.0332 1030.15 164 87 65
-162.124 46.0473 1050.7 253 240 217
-134.964 47.4871 1053.81 250 243 217
-226.168 50.5963 1042.87 252 253 250
501.387 61.2952 1139.94 53 36 39
560.55 66.3283 1172.28 254 240 233
-220.626 80.8234 1047.1 191 148 128
712.51 111.545 1167.37 251 255 252
-115.287 110.48 1077.75 255 248 216
541.506 130.634 1189.12 143 140 139
727.272 136.645 1222.19 189 214 189
-129.823 152.36 1091.94 227 184 160
-102.338 161.725 1115.8 255 246 213
545.727 175.409 1194.1 123 111 90
-94.9574 176.095 1106.1 252 236 214
-126.719 178.7 1084.79 255 251 233
-208.715 180.476 1076.62 255 249 235
-89.2058 197.011 1114.85 255 242 210
-204.679 198.107 1093.77 254 252 254
-242.551 245.206 1085.74 255 250 246
-62.1915 274.151 1119.26 249 236 213
695.507 330.48 1315.07 230 248 246
-201.994 292.43 1146.31 253 252 248
555.823 355.226 1361.19 50 87 105
643.528 342.264 1302.7 226 251 254
-147.83 330.696 1092.36 238 246 222
616.361 428.869 1373.79 87 123 134
-287.114 393.035 1157.78 51 50 39
-20.4591 -31.0237 89.4865 172 173 169
-20.4591 -31.0237 89.4865 172 173 169
-143.033 -172.993 554.98 135 141 134
-102.499 -102.741 334.407 138 137 131
-102.499 -102.741 334.407 138 137 131
-23.375 -72.7085 270.738 189 170 143
466.256 -221.539 1088.65 76 37 23
388.869 -165.297 1055.33 159 159 136
629.039 -149.725 1050.02 247 255 249
629.039 -149.725 1050.02 247 255 249
-208.345 -116.313 1217.68 57 89 86
-208.345 -116.313 1217.68 57 89 86
-294.109 -72.4466 1171.71 149 136 117
-294.109 -72.4466 1171.71 149 136 117
374.717 -64.6348 1070.24 116 95 96
384.85 -29.0123 1125.25 103 82 75
470.176 -6.83248 1130.78 243 230 198
470.176 -6.83248 1130.78 243 230 198
-495.771 0.80288 652.174 144 150 139
-356.762 28.3298 1028.17 220 205 179
-217.79 29.4583 1040.04 255 223 200
428.223 33.8182 1146.07 200 203 207
-145.741 46.6464 1037.99 191 130 89
-274.671 46.2754 978.647 255 219 197
518.618 69.7345 1154.28 255 255 245
-169.131 89.4209 1071.28 209 120 74
-341.438 86.837 1015.41 199 168 174
-154.461 94.007 1059.32 236 239 234
564.688 107.132 1229.99 170 164 121
564.688 107.132 1229.99 170 164 121
-314.614 101.607 1018.25 194 128 109
-147.505 112.419 1082.51 248 238 228
439.739 128.277 1163.34 82 78 61
672.235 137.082 1220.56 187 189 158
-140.89 129.618 1081.51 252 253 243
-140.89 129.618 1081.51 252 253 243
-99.6684 180.052 1076.01 208 138 80
494.064 219.662 1210.24 137 129 123
-220.719 207.783 1070.93 118 95 84
-295.476 283.981 1097.82 249 253 249
-335.55 295.839 1097.04 175 143 132
-62.4896 314.807 1149.02 210 148 121
109.123 200.128 -584.524 85 89 83
109.123 200.128 -584.524 85 89 83
-114.377 -130.319 516.808 96 45 35
610.367 -198.668 1019.21 134 165 138
390.39 -73.6876 1066.81 255 253 249
683.872 -73.0542 1132.24 250 255 240
683.872 -73.0542 1132.24 250 255 240
494.302 -37.0491 1082.76 190 190 159
578.678 -21.9211 1178.75 214 153 122
-160.241 -18.4318 1179.34 127 109 80
-280.193 -11.8305 1043.07 55 36 37
471.26 7.44054 1124.29 158 92 75
-223.698 17.3766 1019.77 93 43 34
-390.478 39.4818 1016.99 209 198 175
-390.478 39.4818 1016.99 209 198 175
619.374 116.816 1144.96 253 254 243
-94.6764 158.752 958.714 239 168 130
-144.651 397.491 1110.82 253 252 251
104.366 56.9956 -280.255 98 103 98
638.396 -165.981 1052.66 111 148 113
410.694 -108.339 1071.07 121 119 106
706.033 -30.6032 1146.38 120 153 119
614.458 -13.0278 1092.39 255 254 254
746.536 40.1988 1201.32 115 136 121
440.955 45.6179 1148.84 101 74 79
-417.372 47.3976 991.707 207 193 165
-417.372 47.3976 991.707 207 193 165
534.863 56.2108 1156.04 120 91 89
533.502 85.6245 1112.18 255 252 234
587.562 96.2191 1169.36 188 183 178
-412.004 113.415 1047.67 254 251 247
-412.004 113.415 1047.67 254 251 247
-249.307 215.295 1071.98 248 251 254
-168.307 218.717 1078.67 206 174 136
690.132 266.023 1314.66 128 165 166
-340.649 256.815 1073.11 162 95 76
-320.77 281.364 1130.88 246 247 242
616.534 345.485 1331.91 144 183 209
-286.136 317.943 1142.84 132 101 86
-327.84 307.455 1082.75 250 252 253
-327.84 307.455 1082.75 250 252 253
-273.204 419.939 1171.65 93 87 91
563.203 -23.4183 1106.74 253 254 253
428.219 67.3915 1156.49 247 244 245
428.219 67.3915 1156.49 247 244 245
-242.496 126.982 1040.61 136 76 67
-236.767 162.14 1076.62 139 81 68
-236.767 162.14 1076.62 139 81 68
-284.496 225.607 1042.01 253 249 232
-293.544 385.359 1105.72 250 251 236
-47.6724 -214.501 833.192 178 153 129
516.236 -162.429 1076.24 85 73 70
386.644 -67.0816 1159.52 78 61 60
-205.606 -45.4718 1073.71 59 99 115
472.779 -47.3014 1089.75 115 95 84
374.57 -14.6789 1141.64 117 84 69
-217.676 199.59 1075.93 139 113 95
-217.676 199.59 1075.93 139 113 95
-217.676 199.59 1075.93 139 113 95
-29.8496 -129.625 405.551 123 95 77
407.002 -63.8424 1107.49 245 247 247
696.812 -67.8972 1149.78 211 223 200
445.307 -1.94958 1154.51 158 126 108
-229.937 47.6236 1042.8 249 241 228
-282.386 92.0373 1001.78 255 255 250
-323.591 121.068 1054.95 215 133 114
-192.777 125.068 1001.25 244 198 166
-93.0603 220.376 1116.33 255 255 240
-59.2682 253.811 1243.41 129 108 94
567.966 247.594 1240.57 174 206 206
-226.415 362.479 1141.96 175 195 153
-255.031 383.472 1117.48 87 83 78
-8.44902 -308.724 1103.6 186 163 137
-8.44902 -308.724 1103.6 186 163 137
-84.1279 -112.096 456.949 96 72 51
-179.644 -13.6131 1045.13 255 239 197
-143.485 9.28417 1191.76 182 167 150
-257.131 27.7111 1000.69 241 191 172
548.267 38.82 1136.09 164 142 132
476.379 207.985 1495.32 154 144 130
577.41 -173.114 1067.25 78 78 78
-196.872 -34.2344 271.412 143 160 151
709.055 73.205 1165.61 99 114 102
-38.3324 -31.793 80.768 85 95 88
-254.079 -60.9083 1155.47 129 127 131
375.998 -137.008 1162.41 47 39 35
-172.495 347.691 1298.07 237 234 229
522.106 203.108 1408.38 64 53 43
