-226.957 -449.868 1402.2 190 200 194
-21.3603 144.335 -508.179 112 102 83
490.568 -197.579 1020.27 127 161 153
296.19 -231.797 1246.15 189 172 166
589.972 -150.654 1026.57 232 245 227
588.237 -86.1985 1127.67 181 184 172
528.763 -60.0697 1074.87 162 162 137
-323.442 31.2785 1002.15 255 237 222
361.355 37.9489 1119.55 90 64 51
455.612 97.5154 1159.81 122 103 81
487.097 105.638 1211.61 237 230 204
694.418 127.59 1212.72 246 250 233
536.68 139.979 1215.18 255 255 229
-213.292 159.963 1094.49 113 62 48
688.58 182.984 1212.47 125 136 107
558.261 188.723 1221.75 205 196 174
617.118 246.007 1287.86 156 180 172
-117.336 260.715 1137.27 255 246 217
702.02 344.553 1422.67 233 255 255
680.735 333.126 1361.77 134 163 162
-122.27 244.631 954.821 167 125 91
-272.936 328.18 1163.25 255 248 241
-350.066 322.724 1135.39 136 118 123
-119.531 344.24 1191.92 255 221 180
-150.878 359.527 1194.56 110 75 64
-188.676 363.498 1152.77 200 202 185
-382.816 416.208 1186.3 253 249 229
-150.69 457.439 1262.07 79 83 85
-114.688 556.975 1302.11 43 63 53
-128.101 572.583 1317.05 25 40 36
-114.608 567.169 1303.98 182 220 206
-136.81 566.14 1284.41 16 29 22
-142.361 602.471 1346.4 195 239 224
-261.478 -183.843 556.401 15 8 6
59.052 -671.927 2557.55 110 96 76
567.052 -201.18 1036.82 234 244 229
352.618 -203.085 1174.27 241 235 231
458.656 -124.045 1025.58 85 70 59
468.09 -109.29 1030.69 96 100 93
534.181 -109.87 1031.15 155 151 141
-343.229 -59.5475 527.35 137 143 136
412.525 -101.006 1080.45 94 82 69
-342.596 -58.8989 1188.23 156 142 131
-342.596 -58.8989 1188.23 156 142 131
529.389 -53.0884 1043.67 144 144 111
-288.192 -33.5062 1088.58 59 80 89
326.279 -21.5445 1121.88 157 136 130
417.019 -18.3424 1101.24 199 180 158
453.297 -11.4048 1094.42 199 198 164
-312.611 15.4242 1004.89 245 239 219
-288.475 33.1825 1004.87 255 242 223
-254.862 42.1794 1006.7 254 229 203
397.29 116.755 1173.11 83 73 63
392.72 137.767 1189.86 153 152 133
-156.827 123.062 1061.89 255 249 247
-186.27 111.766 890.255 96 49 24
-186.27 111.766 890.255 96 49 24
-184.776 126.948 911.488 107 60 32
550.435 172.124 1221.09 252 251 241
-212.313 183.195 1130.46 120 81 67
-212.313 183.195 1130.46 120 81 67
571.656 203.76 1208.58 164 149 134
-138.73 191.788 1113.55 254 252 241
-356.768 281.112 1117.76 124 102 96
-356.768 281.112 1117.76 124 102 96
-374.336 307.247 1131.8 164 144 137
559.233 382.64 1395.4 185 212 215
621.518 377.822 1360.75 228 251 252
675.25 403.865 1423.09 216 241 252
655.042 408.726 1368.94 238 254 254
-150.49 372.304 1176.62 253 251 233
-383.076 383.133 1153.64 255 254 254
-78.8404 402.023 1208.05 248 244 231
-153.395 456.673 1288.48 249 248 239
39.6133 -252.401 744.986 169 171 165
194.535 296.692 -979.434 144 149 140
-395.394 -203.421 1007.45 22 20 16
551.248 -135.688 1106.27 70 59 59
485.368 -119.392 1047.24 195 196 187
586.512 -113.082 1062.95 247 254 254
310.368 -85.3335 1035.5 134 128 109
323.395 -49.1845 1052.74 127 110 103
491.215 -33.4562 1092.42 139 126 105
491.215 -33.4562 1092.42 139 126 105
398.499 -2.23402 1084.75 102 90 64
492.021 6.35486 1095.85 251 239 230
-314.997 15.4503 1015.11 245 239 219
-384.67 26.8418 1015.82 139 109 87
-375.893 36.1454 986.062 242 218 195
-167.953 52.1805 1209.61 193 175 152
476.02 52.4351 1145.52 252 228 220
468.707 78.9091 1172.87 91 73 70
410.081 77.6716 1145.05 253 249 254
-428.278 64.7174 996.168 164 113 99
475.476 85.5959 1164.75 255 254 232
-448.681 96.8564 1029.22 243 248 245
-415.958 95.9059 1017.03 252 250 250
-187.207 101.562 1065.66 164 106 76
592.24 120.016 1229.36 253 253 245
592.24 120.016 1229.36 253 253 245
494.322 118.865 1179.91 186 169 131
-401.636 113.876 1042.17 253 251 246
600.997 136.405 1127.71 253 254 244
411.166 149.24 1208.67 87 82 62
446.504 167.04 1199.1 213 209 180
446.504 167.04 1199.1 213 209 180
679.253 199.875 1258.81 137 137 109
-159.506 219.416 1213.43 216 144 109
-292.588 269.603 1116.14 255 248 242
703.366 359.895 1418.81 150 177 176
538.981 388.167 1425.27 81 105 118
-379.819 316.138 1107.46 181 150 149
-333.916 392.04 1177.56 253 251 239
-333.916 392.04 1177.56 253 251 239
-304.478 -411.862 1202.23 80 90 84
564.279 -142.634 1037.42 110 145 116
343.431 -58.412 1063.36 255 250 251
630.452 -58.1765 1127.23 250 255 250
-195.246 -22.492 1029.19 106 84 62
487.08 -6.52314 1093.88 211 142 111
487.08 -6.52314 1093.88 211 142 111
429.422 22.145 1138.37 150 96 71
-268.007 31.121 1022.43 105 47 35
-347.409 38.1853 1038.8 201 139 122
-443.884 41.1975 997.767 98 82 64
509.595 106.516 1113.84 181 181 175
-462.943 100.631 1030.39 93 69 62
599.423 261.497 1274.12 228 247 246
-338.509 292.594 1119.09 152 98 87
-367.311 332.006 1161.4 172 134 130
547.399 -207.147 992.074 50 93 108
424.561 -174.274 1038.48 44 41 39
586.222 -150.26 1044.58 115 153 119
301.5 -144.761 1041.77 54 52 31
396.381 -53.0578 999.995 219 197 165
393.066 59.5708 1143.46 75 60 60
-415.905 50.3447 949.684 228 212 185
-315.581 54.528 1003.18 255 210 190
-315.581 54.528 1003.18 255 210 190
491.621 70.8159 1162.98 101 68 62
546.062 112.176 1183.06 179 182 170
-394.346 283.079 1110.45 154 96 77
-281.551 291.308 1137.17 253 254 254
-328.723 334.725 1141.18 120 99 93
-387.052 342.084 1139.78 253 251 254
596.412 461.793 1443.36 129 171 177
-320.852 445.319 1188.31 99 91 81
-222.008 482.331 1278.86 255 252 254
-296.498 509.037 -1573.6 185 164 135
-74.6585 -85.2938 273.549 143 151 145
-217.351 -71.1083 1245.51 127 110 94
584.789 -25.9436 1170.51 157 154 119
584.789 -25.9436 1170.51 157 154 119
668.822 53.7556 1155.69 118 130 109
-490.787 65.6184 1062.49 201 185 155
382.753 82.6579 1159.28 244 244 246
-396.128 90.2899 1048.62 251 255 255
-303.848 152.814 1118.48 148 109 97
-281.85 179.303 1085.65 151 100 80
-329.52 244.242 1057.68 252 249 236
-344.592 374.173 1140.52 252 253 252
-344.243 417.835 1144.36 254 253 246
430.358 -32.956 1098.25 116 96 87
-245.124 -30.1924 1045.71 52 96 102
-208.299 -24.3181 1133.41 132 110 90
622.077 -50.9282 1107.19 249 255 251
-370.592 138.881 1067.15 204 130 105
-433.62 167.792 1064.23 253 255 254
598.372 199.283 1226.3 130 119 107
598.372 199.283 1226.3 130 119 107
-270.585 384.455 1153.76 175 193 154
-314.064 427.618 1192.1 71 61 54
502.352 53.1163 1138.24 143 122 112
586.65 -175.972 1050.47 142 170 132
-128.537 -15.3836 153.919 144 158 150
668.401 86.2076 1177.48 102 119 106
670.433 157.833 1191.45 130 158 126
-235.328 -90.0414 389.736 83 93 86
625.017 320.529 1396.1 206 233 229
605.255 84.3288 1206.56 252 255 251
-217.713 368.99 1303.74 200 195 187
503.4 238.016 1482.34 85 76 67
503.4 238.016 1482.34 85 76 67
-305.861 176.522 1069.59 243 224 199
