-287.36 -42.3532 398.078 55 63 49
204.977 -164.246 1843.16 107 115 86
323.954 -67.3752 1724.55 36 10 7
34.3278 14.3477 1175.96 255 245 232
34.3278 14.3477 1175.96 255 245 232
14.5467 28.7698 1121.97 255 252 229
94.4117 169.318 1249.85 249 232 220
-139.372 171.423 1130.35 49 11 8
82.7823 188.605 1255.88 255 253 237
82.7823 188.605 1255.88 255 253 237
127.56 238.707 1369.44 253 249 226
-59.646 301.535 1118.17 164 144 128
-5.14461 538.199 1106.81 119 144 131
-50.0334 475.945 941.525 30 39 32
-471.858 -129.355 773.82 34 38 33
-496.53 -112.318 843.024 32 38 33
-279.094 -60.6055 470.417 117 125 121
-579.498 -111.206 851.008 52 56 46
428.94 -143.332 1815.14 130 122 103
448.421 -112.108 1892.6 163 155 133
344.464 -86.5522 1729.01 30 16 10
380.909 33.4518 1811.75 255 248 247
502.925 92.8832 2092.01 254 254 243
366.605 170.57 1849.75 89 85 73
-147.897 128.946 1141.4 62 13 7
412.809 221.32 1896.54 222 218 197
-2.49095 193.38 1075.12 92 79 74
63.6664 258.69 1173.94 255 250 246
-45.1058 449.211 1264.81 50 36 16
249.349 -239.704 2027.28 112 98 92
-598.648 -101.07 911.464 130 148 139
391.175 -107.039 1864.99 254 250 250
409.308 -87.2521 1878.28 145 133 120
-269.094 34.1415 1344.49 97 80 61
99.2043 35.4375 1309.11 255 255 237
468.575 138.115 1964.26 171 170 144
468.575 138.115 1964.26 171 170 144
79.3725 126.475 1251.38 163 124 96
87.4357 150.921 1281.98 181 139 120
-23.7997 187.144 1124.08 218 170 156
-50.28 297.344 1205.91 39 27 24
25.8987 375.194 1166.45 251 253 250
-319.579 -89.0235 481.595 26 21 18
-584.552 -140.72 854.743 140 146 135
40.6787 24.1317 1167.01 216 157 136
75.7469 184.957 1245.48 224 235 218
114.292 199.906 1332.08 250 254 255
427.053 317.03 2063.55 250 255 254
79.4825 220.478 1253.68 253 255 253
79.4825 220.478 1253.68 253 255 253
61.3489 401.138 1251.26 106 105 98
-28.2894 400.453 1188.74 47 29 24
27.3094 453.748 1183.98 56 42 31
113.955 633.213 1432.07 232 235 230
72.1406 595.138 1325.79 43 49 43
377.723 211.169 1866.97 70 54 39
378.256 250.569 1965.44 229 236 235
427.745 317.759 2067.15 250 255 254
40.4117 247.583 1181.44 247 248 230
40.4117 247.583 1181.44 247 248 230
8.25094 363.807 1168.25 83 40 36
-556.326 -132.774 1175.72 47 36 23
460.944 -39.6334 1966.78 249 251 245
-6.57012 37.7841 1072.25 209 180 159
-100.949 80.385 1113.7 42 25 26
-25.3569 116.786 1125.64 193 153 127
123.109 333.783 1329.78 250 253 249
38.3454 434.015 1232.55 247 251 253
-547.764 -84.428 862.326 62 68 70
-62.8473 -41.1258 1364.58 53 100 106
-43.1146 123.017 1095.12 187 135 108
4.00207 155.339 1104.69 251 252 253
4.00207 155.339 1104.69 251 252 253
-424.422 -114.607 753.891 103 118 110
-457.367 -95.1699 788.246 60 60 55
-113.838 208.356 1163.45 163 97 54
25.2039 -14.4235 988.547 109 134 155
-53.0843 15.9931 1087.46 176 138 116
-47.3869 205.487 1122.55 84 66 45
-84.5877 355.514 1214.71 169 119 83
-514.697 -115.804 789.147 120 134 126
500.439 -15.9322 2123.29 251 254 249
63.1021 64.8567 1245.4 255 251 235
242.136 108.119 1495.7 104 75 60
