154.811 -89.9113 1657.31 167 171 153
-23.9667 52.19 1149.44 255 253 241
281.492 227.526 1762.48 93 83 71
-7.40744 246.094 1187.24 250 254 251
258.199 417.905 1845.49 99 131 140
258.199 417.905 1845.49 99 131 140
-104.248 270.16 1064.14 146 116 107
-104.248 270.16 1064.14 146 116 107
-1.40797 340.301 1225.82 252 252 253
-463.713 -378.731 2182.64 41 19 10
241.917 -169.053 1795.6 191 200 206
235.287 -148.867 1697.15 124 97 93
301.552 51.3124 1697.69 254 246 232
246.586 101.584 1639.32 195 180 168
192.63 112.508 1672.08 64 40 25
-134.012 88.0651 1053.15 124 92 64
-105.135 118.427 1051.81 255 253 249
321.59 390.558 1878.51 167 188 188
340.702 397.657 1856.52 177 183 182
-184.316 285.384 1108.92 55 25 10
-158.1 341.349 1128.65 68 46 40
67.8638 -448.294 2680.45 164 152 137
314.69 -165.111 1732.3 189 210 211
350.695 -101.124 1779 178 173 161
-132.269 15.1694 1302.76 148 142 137
-132.269 15.1694 1302.76 148 142 137
-13.074 49.085 1202.4 139 65 55
-39.2469 73.2265 1169.23 253 241 221
424.442 156.663 2011.91 253 252 251
331.53 235.632 1767.84 143 129 105
-88.6469 148.76 1061.25 188 145 148
226.302 304.678 1754.33 112 136 149
226.302 304.678 1754.33 112 136 149
-29.3844 217.27 1202.89 255 247 235
-29.3844 217.27 1202.89 255 247 235
999.452 -339.929 1739.39 128 127 124
171.815 -103.438 1646.48 19 16 8
281.545 -33.4702 1677.22 250 248 241
270.485 246.584 1648.11 69 55 42
-85.2371 306.793 1103.54 180 100 83
-181.081 325.763 1158.6 54 40 25
-117.792 82.541 1030.31 214 200 177
-48.1295 138.665 1125.31 250 251 249
-28.7541 153.971 1108.71 191 139 110
290.078 300.752 1835.14 241 252 250
343.248 367.139 1933.39 250 255 250
4.82731 237.543 1240.27 254 253 254
-78.3668 241.909 1083.14 242 204 172
-38.1273 312.734 1184.2 255 253 253
-67.7381 316.968 1132.92 254 251 254
-89.6625 327.825 1099.95 250 252 250
-84.552 362.916 1122.03 250 253 255
-98.2766 384.04 1095.71 68 44 42
-905.374 -665.865 2006.94 21 23 17
-201.231 120.637 1061.14 56 35 24
185.113 342.054 1851.11 74 96 104
-39.6338 327.486 1166.35 249 252 253
216.756 -153.535 1845.4 216 191 184
331.626 -133.238 1740.48 110 104 88
-331.466 89.1674 1173.51 112 89 66
218.01 201.728 1375.39 70 58 53
-149.176 161.585 1052.47 172 125 100
-149.176 161.585 1052.47 172 125 100
-104.853 192.65 1062.21 253 254 254
-125.788 334.608 1101.56 78 47 32
4.75251 -364.877 2397.67 182 176 159
347.755 131.977 1762.23 209 206 179
-995.044 -312.557 1743.25 30 22 18
75.3215 -53.9967 1815.97 82 76 67
76.1701 145.643 1388.68 90 78 72
-301.481 158.256 1168.6 81 57 40
223.898 -64.5065 1654.35 62 48 39
257.021 204.744 1727.75 60 49 42
30.6461 202.574 1231.64 238 205 178
318.762 46.7084 1611.69 223 217 213
-316.696 12.9593 1303.95 139 130 115
-232.401 204.747 1145.94 158 101 84
