-247.209 140.669 -422.614 151 154 152
-72.1668 40.2591 -131.867 143 147 141
-119.511 -137.325 1557.25 173 133 111
-154.271 -126.282 1571.59 166 152 123
-154.271 -126.282 1571.59 166 152 123
-135.406 -99.7753 1532.9 114 92 64
-48.6828 -73.5261 1582.15 3 2 19
-202.973 -66.3434 1535.2 173 158 138
-289.839 -52.7584 1577.43 130 91 57
-285.37 -44.9791 1641.2 183 166 133
-291.019 -34.9723 1624.13 148 102 76
-112.135 -11.7863 1607.35 126 100 92
-28.2491 15.0505 1094.81 216 212 217
-75.7535 30.2474 1080.47 249 240 246
-150.372 75.2213 1012.03 158 150 141
12.5076 79.135 851.244 0 15 24
67.9071 91.7779 905.813 216 216 211
-36.8525 125.079 801.207 22 14 9
-53.3581 146.397 863.006 20 12 6
-86.8419 174.838 887.106 54 62 61
-61.6829 170.048 859.774 148 166 163
-19.7634 236.388 892.758 34 31 29
14.4145 290.845 924.896 38 36 32
96.7214 293.926 924.529 5 19 32
4.35741 301.575 924.07 40 31 19
26.2026 333.765 957.49 234 226 225
54.4483 359.575 996.581 87 37 26
118.386 353.618 974.01 232 186 187
-36.1523 392.981 930.381 99 98 94
157.701 501.343 1109.04 146 155 141
119.722 476.644 1044.68 23 22 18
117.084 478.476 1035.37 161 168 162
182.724 -164.265 546 111 101 98
-316.988 -161.742 1676.59 200 184 168
-42.8698 30.4148 1085.41 0 6 0
185.938 190.113 969.217 39 13 12
-77.2274 182.655 866.191 27 27 33
52.9602 214.327 900.931 134 43 23
-57.3009 207.248 831.985 30 22 20
-100.837 239.692 867.946 248 247 242
138.994 314.792 982.58 18 37 49
78.7622 339.476 964.155 189 201 198
115.198 371.872 985.136 39 31 40
154.958 381.512 994.404 196 143 124
-66.2419 356.106 926.643 237 234 227
80.7992 422.8 972.56 166 128 120
161.096 512.826 1076.11 50 61 78
-2.54861 -25.3093 79.1726 75 69 59
-138.269 -224.787 1701.79 169 159 146
-236.965 -95.3949 1545.53 153 132 112
-236.965 -95.3949 1545.53 153 132 112
-218.764 -64.6665 1529.16 55 37 14
25.2076 24.9021 1012.81 198 169 154
-68.9053 68.9621 952.516 189 191 190
-121.373 85.6186 936.41 187 213 209
95.0966 90.9561 882.814 149 109 86
95.0966 90.9561 882.814 149 109 86
133.423 160.647 924.849 135 98 84
72.5717 301.695 949.127 168 192 188
240.998 407.456 1009.73 39 24 12
-270.529 -129.988 1624 151 140 125
-143.645 57.2349 1056.25 65 64 58
-106.593 87.3085 937.987 75 101 94
-812.237 128.666 1122.46 43 47 39
48.708 286.788 949.596 129 67 21
113.115 369.782 975.966 40 21 17
-257.61 -94.4959 1518.09 64 51 47
-27.2887 -22.4412 1498.92 51 40 39
83.9439 97.9137 892.164 41 43 49
149.233 170.825 943.231 47 39 27
142.677 246.062 938.987 182 153 140
147.956 482.915 1056.12 125 148 135
-178.402 -119.154 1540.83 56 44 36
209.872 317.943 996.584 54 38 26
-164.326 -81.1991 1545.61 166 159 145
101.509 9.51022 1015.05 86 95 85
-10.4326 38.0628 876.26 171 144 136
-11.0587 41.2966 993.927 171 144 136
-37.9622 88.6693 888.144 137 149 152
-66.7105 163.078 860.07 176 177 175
80.2851 252.251 951.48 61 44 41
186.654 -155.161 504.118 133 131 133
-154.187 78.1851 988.769 68 67 66
191.398 258.22 989.74 55 46 45
-36.0077 309.783 923.099 181 143 127
200.033 360.355 993.314 171 143 122
200.033 360.355 993.314 171 143 122
235.099 408.337 1035.83 57 43 43
235.099 408.337 1035.83 57 43 43
38.1431 435.865 1001.05 145 72 59
81.962 -79.6187 258.707 135 136 137
-73.5744 -138.545 1472.04 70 65 54
-252.133 -79.5045 1539.67 51 45 31
-108.769 96.1776 889.258 169 208 199
166.114 197.206 951.552 63 52 42
78.4301 206.106 925.726 195 146 122
78.4301 206.106 925.726 195 146 122
126.749 69.8579 908.05 47 39 35
-107.915 142.826 852.457 47 41 39
2.18423 -168.306 938.555 77 67 57
-172.424 14.3402 1352.1 81 58 48
-34.5295 54.0704 917.586 179 136 122
82.8915 293.798 901.269 119 145 150
20.7272 183.597 913.228 72 69 65
