164.854 -185.473 1929.47 187 204 204
97.6228 89.6197 1798.9 28 1 1
-273.555 89.929 1058.76 176 119 93
-188.945 128.954 1080.55 110 88 81
-188.945 128.954 1080.55 110 88 81
-188.945 128.954 1080.55 110 88 81
-169.667 126.036 1046.94 87 62 49
75.2859 443.031 1936.86 45 86 89
-68.4218 278.346 1171.39 255 247 231
-138.967 393.062 1038.44 34 18 13
-228.121 437.905 1132.97 26 5 4
-176.343 489.941 1223.95 23 15 5
-79.1741 479.577 1161.6 135 111 97
-79.1741 479.577 1161.6 135 111 97
-234.092 481.158 1131.57 175 162 146
-46.4426 631.252 1340.06 40 34 30
-45.5425 635.499 1319.63 221 221 212
-63.6466 664.572 1339.1 175 195 185
158.023 -157.709 1768.12 83 88 84
158.023 -157.709 1768.12 83 88 84
-46.7511 38.7156 1183.23 123 58 37
-213.671 53.3689 1090.23 63 62 60
-213.671 53.3689 1090.23 63 62 60
134.956 88.8481 1817.16 227 211 215
143.501 99.2415 1799.06 139 111 95
-369.451 89.6855 1109.5 38 22 4
-369.082 112.94 1149.43 131 68 41
-106.289 110.965 1072.75 245 248 233
-264.49 119.364 1060.19 43 0 0
169.837 243.49 1970.62 135 122 101
-164.885 143.316 1047.87 190 173 170
-228.355 173.366 1060.16 137 63 39
-54.1268 249.183 1468.02 160 131 109
-124.219 217.523 1090.54 8 6 2
-113.965 234.665 1086.78 83 67 61
74.3204 467.208 1914.01 147 176 169
-106.168 290.234 1053.3 162 158 156
-43.0547 421.107 1185.57 161 158 134
-233.359 424.681 1141.92 37 10 3
-35.9993 484.754 1246.08 19 20 18
-63.1569 483.808 1203.47 244 246 239
-332.557 501.942 1241.95 57 38 16
-303.731 530.572 1262.25 1 1 0
-70.6541 507.809 1193.21 46 43 41
-253.772 504.762 1181.53 26 19 9
187.045 -33.4992 1892.49 209 198 174
-65.5549 62.94 1217.1 255 218 194
-89.6275 123.594 1091.98 249 250 240
-68.1768 136.452 1154.92 253 253 248
-134.676 216.742 1067.33 197 160 148
-55.1646 245.244 1179.91 252 254 248
-30.2839 280.978 1316.99 254 252 236
-30.2839 280.978 1316.99 254 252 236
106.923 474.621 1950.33 141 175 173
-81.2925 313.401 1140.44 255 253 237
-163.789 317.217 1106.22 36 25 20
-118.803 339.861 1158.28 68 41 34
-90.4174 390.618 1083.12 255 251 246
-95.9473 429.92 1155.6 62 31 13
-70.9178 460.421 1160.88 72 58 40
-70.9178 460.421 1160.88 72 58 40
139.701 83.8553 1536.25 252 254 249
-81.2397 116.141 1113.22 220 175 157
-35.5854 236.541 1292.54 248 255 252
-62.9421 338.411 1217.82 255 251 250
-228.097 386.267 1142.92 133 84 69
-70.4969 434.807 1211.15 85 79 74
-144.172 417.201 1097.99 37 28 24
-37.1079 508.494 1298.27 49 54 50
181.541 20.7932 1929.61 220 210 194
-113.027 71.0776 1044.73 212 194 169
-237.97 95.3061 1059.01 141 129 117
-108.512 138.51 1060.61 250 252 248
-106.09 184.908 1093.93 249 254 254
-190.243 315.056 1104.72 51 31 20
-97.0897 328.882 1123.29 254 249 254
-304.411 99.5612 1081.57 138 88 73
-134.414 146.9 1048.69 185 129 112
-28.4236 235.117 1303.76 247 241 229
-87.5837 455.537 1163.26 251 247 237
-156.349 -33.9113 1546.06 155 148 136
-206.594 3.3421 1248.81 42 77 90
-161.972 215.888 1080.19 60 50 37
-169.944 53.8604 1103.42 161 134 109
-98.4267 -66.2974 1722.92 53 44 30
67.9118 -67.3997 1716.81 50 38 33
171.804 40.5624 1818.96 255 254 242
-161.693 242.566 1096.67 55 44 28
-10.8695 -225.235 1768.34 175 176 163
-70.5212 96.7921 1200.1 243 225 204
-315.445 149.133 1086.21 61 40 28
-264.299 231.422 1156.07 120 66 55
