-620.567 -250.192 1422.91 141 145 139
298.395 -118.732 984.102 124 117 108
266.575 -93.3449 924.985 209 227 226
276.78 -75.7015 882.694 80 132 125
-274.281 -41.3326 1109.81 46 32 9
-302.548 -35.6585 1073.99 47 35 11
-422.883 3.4783 1024.72 255 252 239
311.413 11.4373 892.315 141 130 117
-442.417 16.7147 1056.76 255 239 223
279.866 21.464 886.393 82 65 56
-326.503 53.3039 1101.45 106 71 30
117.544 46.6571 965.727 216 198 184
-227.656 68.2761 1232.09 42 28 17
-355.27 61.007 1039.33 246 222 207
178.622 54.5457 926.917 172 166 150
-333.806 69.6831 1012.79 172 117 106
335.779 66.977 944.422 139 133 101
164.074 68.6419 932.462 182 166 146
-299.741 86.5139 879.015 254 232 220
239.322 92.7645 979.681 210 200 164
-354.239 110.403 1067.21 255 228 213
216.845 100.003 967.808 243 234 224
242.086 99.6526 947.004 249 226 194
298.47 139.286 990.287 255 238 223
374.951 137.421 920.162 137 160 135
-214.337 207.128 1181.08 86 48 31
-240.483 192.818 1124.42 63 44 38
413.063 315.275 1024.01 105 122 119
407.528 352.767 1052.95 210 246 248
-227.188 445.009 1211.25 137 150 142
386.937 420.493 1080.52 91 108 115
-175.816 522.168 1302.21 120 129 127
244.148 -172.617 1140.57 97 68 63
281.571 -91.7102 929.732 57 62 68
281.571 -91.7102 929.732 57 62 68
281.571 -91.7102 929.732 57 62 68
-1276.17 -196.757 2167.43 87 84 70
160.097 -55.3094 908.886 190 187 170
317.986 -46.5609 896.747 185 183 182
317.986 -46.5609 896.747 185 183 182
-329.805 -48.9539 1048 74 91 97
-283.844 -52.3161 1139.97 109 105 84
-278.572 -34.3223 1141.98 152 135 117
289.934 -18.7355 877.184 161 143 133
256.757 10.6225 884.75 160 151 140
304.733 23.7529 899.093 77 62 60
304.733 23.7529 899.093 77 62 60
-239.956 40.3387 1202.07 179 157 134
-425.943 55.4517 1022.99 255 242 226
-323.735 61.4193 1079.63 255 252 218
333.135 51.9909 903.077 135 123 121
150.062 68.1125 983.569 105 80 68
-319.546 77.2285 1090.58 255 245 229
154.174 91.7561 984.395 123 88 68
181.243 94.9676 975.859 179 162 140
-310.555 107.543 1020.43 250 253 235
-302.445 118.705 1090.63 250 230 200
288.625 114.522 983.78 255 245 241
-200.915 171.728 1239.27 55 27 19
-173.101 202.203 1369.68 69 40 27
275.212 177.064 994.264 249 224 214
-163.357 249.82 1290.89 77 44 29
305.406 250.428 1083.87 177 175 111
419.148 223.449 958.029 249 251 241
-238.576 280.087 1103.88 249 230 218
-238.576 280.087 1103.88 249 230 218
-228.591 283.421 1101.13 107 70 54
-338.833 392.434 1389.12 253 251 226
-219.721 340.405 1117.76 255 254 233
477.473 337.822 1103.85 80 91 93
-235.357 438.232 1212.46 42 51 47
338.029 412.598 1119.91 154 184 186
338.029 412.598 1119.91 154 184 186
-213.078 457.953 1222.15 135 187 168
-355.132 479.189 1261.59 254 254 249
-1444.21 -258.175 2393.58 84 81 63
232.736 -85.6181 942.874 182 204 195
-860.04 -156.135 1808.37 66 60 49
132.411 -92.4166 1032.95 62 56 43
151.181 -65.7625 946.252 22 25 12
-305.771 -14.7052 1071.03 146 126 109
-305.771 -14.7052 1071.03 146 126 109
-237.835 -16.3362 1243.8 26 18 18
272.834 -5.34286 921.567 194 182 158
236.441 -1.35565 894.94 71 57 40
359.687 4.85511 886.399 84 101 94
243.397 9.95701 928.353 177 173 143
-516.511 20.0835 1000.09 240 235 217
-390.007 22.062 1034.16 52 19 12
356.622 27.4851 903.551 87 99 81
356.622 27.4851 903.551 87 99 81
-454.831 40.4146 1095.17 255 245 225
161.433 43.4358 966.839 254 251 250
-440.076 51.2413 1033.42 213 131 115
372.162 69.2233 906.226 253 255 253
200.052 101.103 988.317 255 253 226
274.33 100.823 948.196 207 141 98
192.951 122.204 993.721 255 251 248
253.952 139.348 1000.27 69 48 39
-340.383 154.948 1073.64 255 244 231
245.642 146.575 976.85 243 228 215
245.642 146.575 976.85 243 228 215
382.171 154.044 967.401 22 31 24
231.714 164.77 986.92 124 83 80
240.048 171.817 980.515 255 247 232
254.73 224.003 992.127 144 144 135
-208.613 316.001 1154.13 165 151 134
477.304 397.864 1108.36 94 113 124
493.008 447.556 1126.03 128 138 134
405.803 450.63 1075.14 146 163 155
405.803 450.63 1075.14 146 163 155
-942.555 -193.757 1502.51 92 94 79
242.349 -120.315 1025.37 212 181 170
-306.399 -29.9071 1074.94 62 46 29
307.257 -9.04246 918.72 80 75 73
118.297 36.2724 956.169 114 92 88
129.73 77.2777 969.197 251 255 254
273.566 74.6327 950.152 122 97 76
240.556 89.1981 851.308 196 121 94
194.301 123.108 999.366 255 251 248
164.219 156.387 999.412 251 249 251
164.715 189.895 1025.05 96 81 72
-467.715 224.118 1117.96 250 251 254
-439.541 292.555 1155.27 255 253 253
-221.75 313.434 1136.41 127 80 55
453.155 411.331 1110.96 165 200 206
333.012 -143.35 993.603 56 95 97
260.444 -124.146 997.616 205 190 177
349.363 -15.9838 887.722 117 145 115
-463.691 85.1185 1059.79 205 137 121
276.513 116.608 977.23 234 227 225
-330.611 138.864 1107.2 255 247 238
-356.764 168.679 1024.51 130 126 114
443.538 179.646 998.337 87 106 85
293.372 200.289 958.139 168 162 162
-396.747 334.28 1141.4 86 80 72
411.165 385.923 1082.68 190 214 211
411.165 385.923 1082.68 190 214 211
228.685 -68.485 934.84 56 49 48
370.648 -19.2891 889.546 130 149 117
-260.707 7.26804 1137.21 65 58 59
337.017 74.5777 925.126 255 255 234
-431.582 91.0702 998.623 200 133 118
330.026 93.7641 952.708 159 144 104
-342.376 181.252 1082.86 253 253 248
261.396 165.395 998.947 108 79 76
-402.1 226.092 1079.89 253 253 255
-262.196 257.592 1122.56 246 197 159
-230.806 296.203 1149.32 127 90 73
-272.219 283.407 1032.53 252 255 251
-876.901 -255.229 1635.42 68 67 58
-249.063 35.1242 1174.34 168 134 119
202.595 62.618 926.986 131 104 90
246.468 116.301 970.264 220 194 177
-204.315 184.682 1167.16 169 130 107
-204.315 184.682 1167.16 169 130 107
-372.235 303.966 1130.17 195 216 179
-309.728 302.136 1139.32 252 255 251
-309.728 302.136 1139.32 252 255 251
-288.168 -50.0494 1122.14 42 33 15
-249.605 -9.38547 1227.86 66 58 54
-340.16 2.35545 995.996 228 202 166
289.679 106.521 952.428 231 221 215
289.679 106.521 952.428 231 221 215
-482.9 -383.866 1634.8 152 166 158
-263.955 -74.2785 1166.36 74 59 49
277.338 154.402 988.465 122 97 86
-174.454 222.499 1285.73 63 55 51
-404.954 235.441 1148.96 253 254 253
-740.252 -229.168 1615.15 143 151 145
-740.252 -229.168 1615.15 143 151 145
372.043 -44.5681 914.46 125 168 123
343.199 19.7702 944.614 74 60 59
-153.132 168.283 1429.47 179 169 150
227.601 296.214 1077.44 112 99 96
357.717 377.446 1102.11 205 232 233
-1032.15 -209.604 1903.07 110 105 84
-373.957 50.142 1001.17 225 221 218
342.449 179.718 972.766 254 255 251
-186.217 384.777 1222.38 57 59 56
211.392 -25.7158 883.454 93 67 64
