164.124 21.1131 1611.83 156 128 99
160.442 76.395 1637.48 247 233 227
-155.412 89.1668 990.934 179 150 142
-233.859 112.227 1030.53 30 0 0
-108.892 132.093 1015.15 209 158 132
-227.942 201.617 1073.88 45 10 8
-90.242 183.623 970.037 210 208 205
-55.5242 276.638 1106.36 255 250 233
-200.396 272.164 1034.74 162 105 77
-149.726 335.511 1087.79 144 123 108
-97.2075 366.63 1059.43 159 110 95
-32.1906 586.928 1193.08 191 214 203
-45.1884 622.954 1241.59 181 221 204
197.589 -80.5008 1664.07 118 108 91
214.599 -54.2497 1786.98 148 139 115
195.021 43.362 1747.8 156 138 135
135.777 91.4721 1681.36 172 160 156
-57.5381 96.1062 1076.53 254 251 252
-62.4402 117.09 1074.65 252 251 251
-105.864 120.948 991.118 65 17 7
-142.381 138.131 1047.65 187 168 161
-142.381 138.131 1047.65 187 168 161
-24.9485 172.442 1167.34 141 108 88
-19.1574 205.279 1181.92 143 108 90
-81.2795 191.491 1022.79 250 252 254
159.87 354.571 1800.35 158 181 180
0.267748 256.35 1234.83 255 253 237
-13.7453 249.315 1200.84 171 145 127
23.2364 201.768 1064.78 120 150 141
-86.8003 218.492 1033.77 69 56 50
-86.8003 218.492 1033.77 69 56 50
-208.893 273.268 1040.49 59 12 6
-40.6397 340.25 1140.07 117 105 88
-40.6397 340.25 1140.07 117 105 88
-140.19 373.662 1070.37 34 22 15
584.954 -354.733 2037.99 91 88 83
584.954 -354.733 2037.99 91 88 83
138.815 -120.119 1579.29 142 141 124
-7.31971 -5.70304 1188.08 247 236 223
81.205 130.872 1599.8 125 98 78
-58.8102 87.9738 1083.95 245 250 243
203.685 146.169 1717.09 233 228 197
220.241 174.916 1795.77 153 142 117
144.813 332.5 1766.66 228 247 245
-28.402 235.432 1142.77 253 251 241
139.331 435.214 1796.48 154 182 178
-67.7267 397.305 1109.91 253 245 238
54.5705 -109.385 1600.7 11 5 7
-204.445 86.5826 1016.77 167 138 122
-192.648 90.7328 1031.33 84 40 24
154.104 233.897 1669.4 52 36 21
-7.31867 218.119 1211.73 250 253 251
-105.536 201.879 1007 192 155 144
-70.2989 318.15 1096.13 244 255 255
-41.9109 401.735 1130.34 88 85 77
-65.6369 458.924 1092.41 25 8 0
202.156 13.3627 1722.19 216 210 193
202.156 13.3627 1722.19 216 210 193
-82.1412 129.409 1017.42 249 252 249
138.621 260.925 1694.8 213 232 227
163.309 324.363 1786.07 222 238 235
-54.4377 263.643 1093.51 236 214 198
-164.088 308.856 1093.42 43 28 23
-145.636 349.032 1102.14 120 112 105
-78.6678 359.342 1033.15 67 36 38
-267.959 91.7231 1031.91 138 86 64
-107.263 139.002 1018.93 186 137 113
2.06096 222.8 1253.76 213 192 186
-169.806 0.0378057 1199.47 50 86 103
-185.229 80.3101 1020.09 71 43 28
-204.053 43.0941 1025.7 151 127 96
-201.312 235.574 1085.36 152 77 41
-133.215 43.4819 984.7 149 120 99
-101.308 434.394 1108.81 40 38 34
205.78 32.5604 1733.05 250 246 237
-131.687 227.258 1043.03 63 55 35
31.871 -222.517 1701.13 177 173 163
-41.8422 89.0202 1139.24 255 231 206
-226.325 219.282 1097.45 97 52 30
