-73.196 -487.148 1681.35 63 43 22
38.6395 -463.307 1737.71 212 198 185
-307.836 -393.501 1631.66 97 96 85
215.015 -123.046 1030.24 240 211 198
110.98 -112.164 1070.1 121 113 117
157.562 -104.044 1020.65 223 215 201
-382.983 -35.1965 987.721 47 63 64
-363.542 -22.7086 1124.29 43 21 7
-510.943 17.5879 1029.43 66 45 39
362.466 20.249 940.46 246 248 227
337.12 21.6212 961.399 225 231 209
-432.096 66.9118 1018.91 255 226 205
-607.061 80.9587 1042.9 249 253 254
341.397 81.6418 972.448 133 160 138
-419.988 92.3143 1000.77 77 31 23
-419.988 92.3143 1000.77 77 31 23
-418.165 118.633 1024.51 97 59 41
267.081 116.423 1023.32 255 252 245
137.166 120.207 1018.61 98 79 72
137.166 120.207 1018.61 98 79 72
331.866 131.017 973.24 3 13 5
-411.648 142.098 1020.15 247 228 210
-600.224 159.941 1038.74 250 254 255
-398.248 167.691 1031.34 68 28 11
-398.248 167.691 1031.34 68 28 11
436.79 232.211 1097.76 153 147 123
-377.909 234.122 1051.24 93 66 47
-377.909 234.122 1051.24 93 66 47
371.075 240.007 1072.9 254 254 242
-585.292 256.325 1093.18 231 244 231
-299.389 265.943 1114.22 75 57 50
-238.839 326.326 1192.99 159 155 147
-555.379 329.694 1174.17 227 183 164
-539.309 351.929 1126.48 252 251 241
-547.889 357.429 1114.8 238 238 225
-533.529 382.996 1165.35 25 24 23
372.236 408.252 1214.26 140 156 152
372.236 408.252 1214.26 140 156 152
378.015 462.188 1259.14 100 112 119
-457.697 420.747 1130.64 23 23 19
326.745 453.234 1182.91 224 255 255
-321.169 535.01 1318.89 42 65 55
-342.879 529.396 1279.75 99 97 99
-379.973 585.258 1349.1 186 221 205
-282.906 588.493 1327.7 112 127 122
-192.885 -558.222 1968.39 144 115 96
82.2224 -93.021 1043.92 43 39 33
285.679 -85.0396 920.966 47 62 73
284.309 -62.6071 912.505 226 233 236
-424.35 -37.5214 1050.71 152 165 170
-424.35 -37.5214 1050.71 152 165 170
270.838 -34.4533 934.706 153 128 116
226.49 -28.0908 937.514 62 43 31
166.885 -22.0201 902.784 65 43 37
-366.517 -15.4788 1054.35 133 122 109
262.353 7.38945 961.061 78 56 54
-497.182 25.3921 1000.53 247 245 225
206.396 40.2545 998.833 105 68 56
201.422 63.1913 976.629 203 192 164
-379.207 97.1513 1047.29 255 252 230
-447.401 98.7792 1008.81 202 175 158
-447.401 98.7792 1008.81 202 175 158
-559.242 131.844 1033.53 254 243 229
-367.872 142.624 1067.2 247 230 209
-307.66 209.814 1285.33 50 25 16
207.651 186.312 1060.53 218 206 175
409.906 193.186 1030.3 63 53 41
253.764 241.285 1025.38 246 246 217
348.959 251.76 1072.39 255 255 236
356.025 255.672 1066.55 179 176 154
-547.23 287.978 1132.03 255 253 248
-547.23 287.978 1132.03 255 253 248
-285.722 361.476 1250.79 193 193 190
-245.621 416.532 1350.52 46 36 33
-334.305 331.826 1038.44 250 255 228
446.276 408.252 1263.41 185 211 209
-294.879 382.01 1124.28 255 254 237
318.472 460.177 1301.96 123 162 174
318.472 460.177 1301.96 123 162 174
333.229 462.915 1204.53 212 242 243
384.226 482.76 1223.64 143 163 155
384.226 482.76 1223.64 143 163 155
280.129 -114.765 973.62 48 62 56
162.596 -117.311 1051.38 69 20 14
162.596 -117.311 1051.38 69 20 14
209.103 -109.965 1011.49 96 68 78
-407.36 -26.7611 1020.6 55 77 82
214.102 -3.60725 952.344 198 189 174
-348.138 9.10277 1265.51 38 38 32
320.259 30.0133 894.11 247 254 248
363.125 54.766 1002.14 248 252 248
363.125 54.766 1002.14 248 252 248
115.415 61.7683 987.246 88 61 58
126.495 71.2411 995.306 180 177 147
327.144 78.1453 974.691 48 47 33
-629.991 86.3914 1028.51 100 91 82
260.693 96.2352 1065.88 210 137 105
156.382 114.631 1011.2 250 255 254
227.679 134.478 1063.16 68 44 42
254.839 128.954 1025.64 125 75 57
199.406 160.484 1031.85 82 50 43
214.1 171.206 1051.88 253 237 223
248.025 172.012 1022.12 105 71 58
254.358 172.462 997.061 255 251 239
-349.782 211.489 962.317 153 125 101
178.243 239.867 1073.95 211 208 180
283.824 234.161 1022.03 251 251 236
-274.935 330.645 1295.66 171 164 150
-277.721 354.623 1311.81 23 21 17
-308.785 413.519 1235.67 62 58 48
-401.882 453.576 1283.28 252 251 252
433.058 438.614 1239.43 68 89 99
-266.437 567.25 1346.85 90 96 93
-132.848 -551.295 1909.7 90 48 34
48.3393 -646.393 2273.7 249 246 246
276.556 -144.376 1020.21 43 82 80
261.513 -133.41 1006.08 180 173 164
136.783 -113.065 1053.52 201 213 203
131.062 -109.417 1006.62 201 213 203
131.062 -109.417 1006.62 201 213 203
333.278 -2.52647 935.5 180 188 181
-325.483 14.5756 1233.27 175 168 156
104.937 24.7613 981.484 253 254 255
-326.092 78.9756 1193.99 50 28 23
242.828 62.5637 985.558 126 104 76
-496.073 83.0672 1006.88 154 127 116
189.66 85.2988 971.388 127 94 76
344.576 85.0035 923.529 112 145 105
168.222 104.76 1002.26 153 68 55
249.693 108.557 1036.36 222 224 214
158.135 115.977 1019.71 250 255 254
-575.753 253.153 1096.4 144 105 89
-575.753 253.153 1096.4 144 105 89
320.481 354.705 1230.44 238 250 246
-288.927 356.288 1165.04 173 161 149
-307.761 363.875 1181.2 130 76 40
-308.589 413.138 1235.62 62 58 48
406.586 496.424 1242.04 200 228 227
411.776 549.53 1289.99 247 250 248
-253.859 -584.135 1770.46 91 84 80
-253.859 -584.135 1770.46 91 84 80
209.722 -126.661 1026.27 204 179 164
161.914 -71.6313 948.028 35 23 22
338.412 -37.4579 922.186 108 143 106
306.594 59.389 966.54 255 253 226
-571.298 127.03 1036.48 249 250 247
-491.604 146.517 1074.08 163 118 96
129.352 159.012 1056.49 231 225 226
225.22 158.722 1036.7 99 72 65
-332.008 260.39 1136.94 117 88 76
-565.876 269.399 1089.06 255 254 254
-309.193 513.669 1304.96 66 75 68
189.449 -76.5488 929.48 42 33 35
333.49 -52.3896 887.4 201 206 189
289.439 76.2966 965.103 150 138 108
-554.72 117.153 1039.26 200 134 127
-391.077 160.841 1056.53 250 248 251
-391.077 160.841 1056.53 250 248 251
169.756 169.658 1040.63 134 109 108
-448.376 208.51 1045.13 125 110 96
489.415 -824.154 2593.27 182 164 141
-357.463 8.7598 1114.21 144 133 121
-344.814 15.4581 1204.27 67 67 62
-349.187 60.6999 1207.26 163 143 123
-498.673 99.9552 980.859 250 253 251
418.915 266.497 1071.53 113 130 95
-1155.61 -212.685 1947.2 73 73 66
-1013.59 -68.4475 1439.19 69 72 60
-379.884 65.3869 975.364 229 199 161
-520.381 106.052 1028.71 253 253 251
-519.484 125.859 986.827 205 124 105
-438.201 145.186 1036.66 238 204 179
-288.756 265.311 1340.76 65 53 52
-345.528 241.515 1086.3 253 246 236
-365.466 -51.5118 1176.57 84 70 56
-409.986 20.1533 998.862 232 215 192
357.298 59.6344 969.689 231 236 221
-268.12 150.654 1098.17 61 48 44
-805.91 -332.393 1625.68 145 159 151
380.881 186.51 1004.06 68 83 75
197.664 310.09 1178.9 87 67 64
197.664 310.09 1178.9 87 67 64
308.424 374.047 1161.57 199 225 223
-605.973 -309.157 1374.61 26 25 22
-335.299 146.128 1172.65 86 64 52
-381.311 292.174 1080.97 250 254 255
-293.327 457.726 1268.08 60 61 62
160.039 -34.1693 873.655 97 68 64
