872.266 -550.3 1606.73 137 141 124
-160.822 -524.319 1607.84 137 146 143
-304.94 -357.843 1722.98 81 58 38
104.955 -89.8533 1048.37 176 172 164
159.15 -72.8937 973.45 24 30 21
137.074 -25.6826 938.633 141 122 105
330.433 -13.2254 992.025 68 69 54
409.594 -3.09682 1037.68 113 134 109
-357.865 31.4819 966.961 96 74 42
135.622 45.4905 1012.26 219 202 190
165.012 46.4546 1007.26 163 139 145
165.012 46.4546 1007.26 163 139 145
203.869 47.3003 1007.24 152 146 125
192.492 64.3835 1030.64 176 156 134
-455.156 58.6725 905.012 141 123 101
-482.518 59.6417 910.28 187 181 167
159.074 91.0086 1015.29 168 148 127
325.641 95.8065 1006.68 186 164 143
186.837 118.946 1036.53 109 87 77
186.837 118.946 1036.53 109 87 77
159.271 124.684 1057 247 239 233
159.271 124.684 1057 247 239 233
302.185 128.095 1072.78 158 133 127
406.367 122.157 1003.64 226 243 209
475.027 142.067 1151.96 221 234 207
-508.836 133.072 942.707 237 174 154
-348.481 135.17 885.403 59 21 18
206.943 163.906 1062.21 50 39 38
266.279 185.204 1110.84 231 215 191
-345.639 168.224 1005.45 156 104 73
-405.518 179.674 1067.32 77 41 31
275.663 172.001 995.26 255 253 235
275.663 172.001 995.26 255 253 235
210.121 216.709 1100.06 82 72 51
263.186 267.261 1109.43 146 132 116
264.811 270.999 1098.63 77 60 46
264.811 270.999 1098.63 77 60 46
264.811 270.999 1098.63 77 60 46
-563.759 285.559 1039.23 246 223 197
317.237 362.337 1214.06 222 251 251
-547.05 327.035 1072.81 119 113 104
-446.894 347.019 1079.2 255 251 241
-317.755 360.821 1065.18 251 230 207
-429.942 378.907 1105.24 255 245 227
404.835 455.821 1257.95 237 255 255
-548.545 421.819 1131.5 255 250 238
416.521 480.086 1271.71 241 254 255
-303.624 429.834 1138.02 209 187 160
-540.796 418.323 1102.38 56 57 40
-493.185 404.328 1060.93 253 253 246
-320.931 584.688 1213.82 169 210 194
-223.948 -414.947 1336.16 72 76 69
-223.948 -414.947 1336.16 72 76 69
-476.256 -518.293 2158.5 142 124 106
173.021 -160.378 1161.79 53 37 30
277.922 -21.4198 1011.1 93 77 65
-348.416 27.4272 1010.39 150 130 113
-348.416 27.4272 1010.39 150 130 113
-349.324 41.5282 1246.67 60 55 49
253.383 35.0327 1008.93 108 81 66
-336.691 67.5459 1172.87 192 173 153
-478.324 69.5775 956.856 248 224 206
-471.583 70.4628 923.14 169 118 97
413.512 100.075 1037.78 127 142 119
438.939 111.02 1040.57 232 247 222
438.939 111.02 1040.57 232 247 222
-459.459 108.394 940.229 40 5 6
-509.994 117.701 969.06 205 119 86
204.032 152.748 1042.4 255 250 242
295.376 164.85 1078.43 251 238 226
-323.808 163.31 1001.62 238 223 225
211.991 179.224 1067.26 74 60 52
-279.783 228.017 1172.89 49 26 13
-279.783 228.017 1172.89 49 26 13
-436.561 196.543 1017.43 249 222 201
313.128 217.444 1101.63 245 240 214
489.805 231.233 1128.9 198 200 182
-305.694 203.588 991.626 255 236 205
253.709 236.978 1101.52 153 144 105
419.253 252.15 1112.63 251 252 218
341.509 272.243 1145.69 221 210 188
323.27 347.847 1216.05 156 178 178
-443.97 336.422 1072.89 204 177 173
-442.639 346.946 1094.1 254 241 234
-430.722 349.499 1093.46 200 206 188
-417.846 346.891 1052.97 254 253 234
-487.175 482.126 1422.93 253 253 252
-402.92 384.912 1133.38 252 255 240
302.583 447.46 1301.77 95 117 127
-367.295 374.462 1052 247 254 235
-472.504 388.133 1088.03 230 224 198
324.223 470.944 1301.53 26 59 70
352.98 497.219 1276.55 202 232 227
93.0012 -383.365 1175.48 179 178 174
93.0012 -383.365 1175.48 179 178 174
373.2 -20.7959 972.245 107 115 105
-431.236 -6.22556 1040.96 121 124 119
-335.132 23.3281 997.956 60 49 31
407.164 52.5723 996.117 188 199 172
251.127 58.9091 1003.57 194 191 157
-452.407 60.4227 935.626 168 128 94
412.876 72.3257 1038.94 241 248 236
172.302 87.5433 1026.45 101 44 29
-407.266 80.6891 945.063 249 220 194
217.526 89.1233 1029.14 254 253 218
217.526 89.1233 1029.14 254 253 218
-436.604 92.9863 978.891 254 243 228
-436.604 92.9863 978.891 254 243 228
232.545 123.368 1055.36 212 192 195
-335.809 120.46 989.047 229 222 203
269.677 136.426 1064.29 244 227 218
-635.647 136.104 1081.38 255 251 253
-377.581 141.547 1004.31 202 118 93
262.705 165.032 1069.64 255 240 225
-356.144 164.513 1008.75 239 231 215
293.433 189.946 1108.67 255 254 233
293.433 189.946 1108.67 255 254 233
277.342 220.712 1087.64 149 145 137
223.762 233.772 1076.41 217 214 184
-311.584 228.19 1009.47 192 136 98
-589.18 257.094 1037.08 252 252 240
426.628 354.432 1295.14 175 189 188
-499.278 305.782 1036.32 95 85 71
289.496 368.682 1231.83 65 88 118
289.496 368.682 1231.83 65 88 118
-574.413 320.082 1066.33 251 255 252
-282.443 350.845 1088.16 236 216 204
-508.685 403.379 1101.67 255 251 250
-508.685 403.379 1101.67 255 251 250
-263.432 427.657 1153.89 43 45 37
-268.196 421.813 1114.02 252 253 239
474.267 506.941 1313.37 162 180 177
434.681 521.639 1273.27 248 254 251
-253.394 580.862 1155.65 128 144 139
-324.1 -418.041 1222.1 78 86 79
-324.1 -418.041 1222.1 78 86 79
1136.91 -128.484 1527.14 77 72 58
1136.91 -128.484 1527.14 77 72 58
-340.714 24.0508 1017.92 51 42 23
154.897 24.4823 994.984 252 252 252
228.66 30.138 966.494 241 231 201
-333.947 71.4859 987.821 76 60 43
-421.871 69.9547 953.554 77 51 44
294.28 82.2107 1035.37 211 129 108
294.28 82.2107 1035.37 211 129 108
298.757 98.7708 1053.87 232 227 223
298.757 98.7708 1053.87 232 227 223
221.797 103.507 1039.67 159 62 46
209.911 114.536 1044.13 244 252 245
-492.692 110.054 957.193 209 122 105
185.881 211.649 1068.59 77 63 40
-300.443 217.393 966.111 213 151 118
-256.711 362.691 1245.2 151 155 139
-522.203 310.301 1045.18 254 253 249
-397.174 419.784 1129.48 169 189 149
320.75 514.727 1350.09 156 171 166
-357.688 462.332 1144.13 254 253 253
-499.866 523.91 1217.31 40 50 43
-499.866 523.91 1217.31 40 50 43
-348.562 -356.198 1243.64 105 95 82
-348.562 -356.198 1243.64 105 95 82
297.313 -118.149 940.96 60 59 58
241.835 -130.746 1069.01 211 192 180
396.063 -65.1178 959.176 152 158 137
392.005 -49.6192 972.979 127 150 125
-392.872 17.8872 969.271 64 89 102
364.458 50.8507 1021.43 239 234 211
435.857 84.1949 1053.01 114 136 110
-318.245 99.5213 1190.63 113 92 79
-599.614 84.1045 926.598 201 192 163
276.502 152.954 1064.82 93 68 61
178.635 158.962 1074.65 241 239 241
462.857 179.57 1093.48 119 110 105
-551.495 163.478 987.736 255 251 253
-551.495 163.478 987.736 255 251 253
330.664 197.226 1100.21 184 178 165
-291.286 274.965 1212.27 177 149 131
-291.286 274.965 1212.27 177 149 131
-553.443 295.792 1036.12 148 88 69
-450.565 310.876 1056.24 253 254 253
-551.134 351.02 1065.02 251 255 254
-551.134 351.02 1065.02 251 255 254
384.609 503.058 1273.38 204 227 228
-282.255 -445.844 1365.14 162 167 161
300.738 -692.761 2189 125 133 133
-380.563 -438.733 1421.5 155 163 158
-324.398 -538.501 1871.6 155 164 158
373.893 -112.044 943.703 62 110 128
317.263 -108.795 954.144 148 202 195
116.908 -82.394 1052.45 65 58 51
136.847 33.2831 1032.9 114 97 94
319.545 81.2351 1047.04 249 251 250
-545.722 118.102 976.976 253 253 249
300.157 188.469 1107.95 252 250 228
-431.233 166.894 952.127 129 82 73
-431.233 166.894 952.127 129 82 73
-448.914 209.45 1025.87 122 74 55
-502.438 239.551 1049.67 238 226 210
-515.901 279.618 1054.99 247 244 234
-531.574 439.259 1113.4 248 246 240
-144.478 -201.735 617.857 159 165 160
-591.919 -257.293 1154.78 87 99 92
231.768 52.9659 1021.73 111 83 70
-416.804 236.703 989.556 146 130 116
-416.804 236.703 989.556 146 130 116
-390.77 249.554 1043.94 253 253 244
-390.77 249.554 1043.94 253 253 244
416.39 325.037 1197.43 185 211 209
-34.3821 -292.672 956.356 119 95 78
408.756 47.794 1013.63 253 255 247
171.291 90.1817 988.548 163 143 117
171.091 93.6272 992.887 163 143 117
-316.99 276.294 1073.62 254 251 238
-457.326 409.265 1110.63 165 191 151
-244.532 -390.088 1644.78 94 73 53
-362.893 -20.3171 1149.78 92 82 63
-585.961 -4.20588 1163.34 152 132 110
-364.906 31.3438 1050.34 103 83 65
-464.103 77.964 966.98 239 199 184
-364.287 99.3465 987.474 234 212 181
297.185 139.176 1062.89 119 99 91
-1037.27 -236.425 1591.24 144 161 152
-433.381 2.11898 1023.45 32 58 72
-554.948 -250.42 1019.08 84 94 87
-282.201 310.815 1184.51 93 70 58
366.628 385.365 1244.68 200 231 234
-659.528 -188.546 1096.13 24 23 19
235.155 -142.505 965.707 164 183 177
-324.953 181.023 1181.16 79 56 45
370.458 171.041 1090.64 252 255 250
256.98 316.783 1231.36 91 79 68
256.98 316.783 1231.36 91 79 68
-444.517 107.193 961.138 235 193 181
-274.669 -330.566 1382.42 108 58 48
-384.981 365.455 1140.83 255 252 255
