338.157 -68.6214 917.452 210 218 185
344.638 -57.5812 955.137 123 140 104
-394.422 -25.6073 1218.64 126 106 94
-388.931 -7.33565 1157.55 115 104 85
338.616 -7.22059 983.517 111 132 116
-514.895 43.546 1009.28 63 46 25
-507.629 51.1512 995.801 255 254 235
327.392 51.0151 1001.21 140 128 120
-396.709 84.6721 898.347 107 53 28
431.254 96.242 1082.42 138 136 119
-422.776 91.0705 947.529 253 239 225
-383.644 103.581 997.15 154 116 80
153.129 111.051 998.341 104 37 23
-473.589 126.013 1128.47 244 218 204
150.355 140.7 1027.04 180 163 168
-445.929 174.551 1258.84 255 249 230
-387.418 142.717 938.676 93 44 31
-399.501 148.453 954.711 252 243 221
-375.011 166.061 950.906 253 232 215
-309.697 235.451 1283.33 152 116 103
456.032 248.729 1141.4 149 145 122
473.293 255.235 1161.31 130 128 106
-356.936 241.14 983.621 255 237 206
-309.532 302.757 1228.38 135 106 103
232.509 286.873 1097.95 183 165 146
369.569 416.183 1310.21 231 253 254
-250.054 438.669 1316.19 43 32 23
-529.185 366.268 1065.18 255 255 251
360.161 481.406 1279.78 224 254 255
210.574 -116.605 1101.45 144 95 82
210.574 -116.605 1101.45 144 95 82
245.784 -79.353 1024.16 42 55 60
319.188 -27.2284 976.757 49 53 44
227.238 -0.608558 976.064 69 51 32
227.238 -0.608558 976.064 69 51 32
214.009 10.6008 986.368 207 192 168
214.009 10.6008 986.368 207 192 168
-372.913 51.1013 1167.46 25 18 17
220.296 56.4408 1033.18 99 61 46
126.738 72.4376 1038.85 250 245 244
-376.631 79.6681 1083.31 174 166 147
-376.631 79.6681 1083.31 174 166 147
-356.33 95.9256 1284.48 135 103 88
-508.317 78.1475 1032.82 233 195 183
219.075 80.3727 1033.11 213 209 171
-439.146 77.5269 966.592 253 219 187
250.255 98.1393 1028.91 174 104 75
382.495 100.754 1050.98 235 245 247
-385.329 105.457 1030.33 255 250 235
-385.329 105.457 1030.33 255 250 235
128.926 104.259 1032.13 96 50 28
128.926 104.259 1032.13 96 50 28
-399.7 105.887 978.232 255 252 230
284.196 139.739 1054.17 201 189 182
-558.879 156.578 1003.17 255 242 233
-364.771 162.961 1038.14 247 238 240
-478.552 165.687 1052.94 153 112 92
-458.004 212.393 1166.3 102 65 55
-356.709 211.568 1066.3 255 250 222
-385.214 219.902 1054.95 213 148 106
-617.894 238.256 1108.56 246 216 188
144.232 247.056 1135.07 86 76 69
-589.334 224.323 1016.19 248 248 223
267.221 249.115 1105.69 174 166 104
267.221 249.115 1105.69 174 166 104
154.28 258.473 1101.7 75 67 63
417.432 275.457 1145.75 223 235 216
-381.278 253.163 1031.93 121 103 81
349.062 268.842 1058.15 252 251 230
-423.906 289.792 1067.91 203 198 198
-559.331 297.726 1029.66 252 253 254
-603.881 333.425 1142.67 120 103 104
425.715 401.674 1242.69 141 180 178
381.178 398.312 1218.93 90 112 111
-355.667 386.593 1158.37 212 151 111
-592.787 397.656 1159.3 166 166 158
-298.022 408.23 1117.91 254 252 242
394.956 513.216 1291.95 233 250 251
281.075 -128.495 1085.66 204 184 180
298.524 -108.312 1030.83 56 56 56
168.362 -107.566 1107.84 75 24 17
168.362 -107.566 1107.84 75 24 17
220.271 -100.997 1047.12 105 60 51
359.046 10.1038 996.764 250 250 241
-390.669 30.3861 982.766 125 95 65
334.148 43.8159 1001.76 40 38 27
374.353 49.0032 1030 206 221 207
374.353 49.0032 1030 206 221 207
-367.505 66.4729 1239.45 182 158 143
136.13 51.4052 993.591 252 250 245
-539.329 107.391 1019.55 199 131 101
180.318 111.492 1057 242 230 194
180.318 111.492 1057 242 230 194
-614.493 108.916 988.556 251 245 237
-426.078 124.016 1047.33 183 129 110
-418.005 129.886 1054.77 246 239 217
-591.661 133.409 1022.65 245 255 246
-419.899 141.333 1050.41 191 138 123
244.295 153.08 1111.17 58 33 29
-573.658 149.103 1009.1 255 247 230
-573.658 149.103 1009.1 255 247 230
228.353 156.781 1059.61 243 229 209
-521.721 154.542 1000.17 197 142 124
215.336 181.201 1083.3 102 76 69
239.865 242.238 1091.72 147 145 139
189.79 261.271 1113.95 206 214 181
189.79 261.271 1113.95 206 214 181
-275.461 348.417 1247.06 171 168 152
258.428 387.142 1233.23 87 112 124
-303.007 398.142 1198.14 165 163 162
-296.273 414.025 1149.78 63 56 45
342.291 459.604 1200.43 65 102 120
408.141 520.571 1293.03 151 167 160
417.783 520.141 1276.5 205 234 234
417.783 520.141 1276.5 205 234 234
404.945 547.162 1267.45 253 254 255
299.393 -142.852 1115.25 47 77 82
299.393 -142.852 1115.25 47 77 82
101.828 -137.995 1240.19 96 88 62
113.617 41.4128 1004.15 252 254 252
143.148 89.708 1049.89 158 157 125
364.56 127.145 1103.02 253 254 241
-384.677 166.703 1047.78 186 126 91
282.123 197.65 1077.82 254 250 242
-354.08 223.22 1040.51 221 161 119
-552.627 297.721 1081.31 255 249 252
-475.064 294.371 1066.84 253 254 254
-275.133 347.921 1246.02 163 160 145
292.574 329.143 1114.56 239 250 246
-294.102 367.763 1101.27 129 80 58
406.139 549.041 1271.09 253 254 255
223.961 -118.913 1097.84 200 176 159
96.9815 -98.4853 1133.9 168 159 160
172.415 -59.1106 988.07 42 35 28
367.116 -44.2778 968.128 222 225 202
-381.651 -32.2722 1230.31 48 39 29
330.075 74.1925 1026.65 253 255 227
-625.727 136.558 1011.19 253 254 251
-625.727 136.558 1011.19 253 254 251
134.637 171.452 1051.01 255 254 248
288.933 218.972 1089.86 201 186 174
-493.146 220.129 1057.18 255 244 223
-585.958 235.43 1063.22 228 200 170
-576.07 278.079 1060.57 155 119 101
-576.07 278.079 1060.57 155 119 101
-589.859 307.523 1099.58 252 252 250
-578.895 335.564 1102.25 253 250 250
-578.895 335.564 1102.25 253 250 250
-536.228 363.728 1088.56 255 255 252
303.623 -93.4818 1008.37 151 192 185
303.623 -93.4818 1008.37 151 192 185
-530.463 43.186 1022.18 112 103 90
-339.635 93.4664 1236.28 108 80 66
-480.204 168.162 1023.71 194 148 133
-396.7 188.442 1054.4 251 253 230
-532.089 192.3 1042.48 240 218 198
-476.879 198.504 1040.9 154 103 79
445.445 216.495 1127.33 115 107 100
-332.651 263.475 1193.28 71 56 49
291.389 271.655 1148.29 229 232 212
-360.46 42.6087 1209.83 68 68 64
188.216 71.2475 1002.86 114 84 72
-606.119 173.669 1021.06 251 254 254
-296.615 385.304 1380.72 151 148 133
-525.7 315.121 1110.87 254 252 253
374.529 341.899 1164.15 170 201 202
-377.463 354.178 1077.31 251 254 252
275.313 111.003 1037.33 249 244 240
-547.223 138.961 1058.3 253 255 252
-316.543 207.156 1263.7 65 47 40
-441.109 169.235 1021.79 233 202 178
-441.109 169.235 1021.79 233 202 178
-304.435 297.725 1347.65 67 57 57
-348.261 267.625 1077.89 245 241 230
-386.208 -25.7646 1194.79 119 100 87
-417.083 44.5466 1000.11 247 224 187
136.656 112.422 1030.33 175 141 123
260.29 163.259 1073.31 116 92 71
-318.986 242.403 1542.7 171 165 148
371.206 -50.5806 1012.13 139 159 114
-619.222 138.877 1042.56 239 252 252
-619.222 138.877 1042.56 239 252 252
414.871 209.157 1086.98 92 101 94
341.119 419.293 1270.87 200 230 227
331.614 191.657 1080.43 251 255 251
331.614 191.657 1080.43 251 255 251
-402.523 510.747 1181.23 73 79 74
273.424 -179.202 1197.42 70 75 71
-364.519 184.554 1244.87 78 61 53
-390.903 321.77 1080.47 253 251 250
