-515.458 -630.812 2649.34 63 66 52
-451.919 -114.241 1445.54 69 63 43
-421.627 -39.1503 1327.13 42 57 50
193.992 15.2438 1021.79 78 38 29
-434.934 20.8072 1297.18 88 54 41
-535.942 31.7916 1285.19 31 24 14
-512.655 37.4213 1205.82 96 91 86
-532.263 42.0143 1215.61 177 152 138
-436.356 58.3943 1303.75 210 198 188
-526.215 56.7984 1218.81 162 138 115
-533.218 57.8069 1256.64 18 4 1
-508.416 63.6517 1270.62 13 11 7
-515.419 71.1055 1230.09 26 17 12
-518.225 73.1213 1217.88 154 138 126
-657.463 80.0654 1274.14 157 141 132
-528.484 75.1731 1204.95 243 233 206
-154.944 64.5443 948.079 165 159 145
-539.093 86.5612 1212.59 126 106 78
-517.629 102.467 1271.44 20 5 1
-120.424 75.2529 935.188 129 115 102
-506.166 136.37 1281.68 20 12 7
-140.738 111.696 976.296 255 251 242
-499.946 147.176 1260.65 176 158 135
-37.427 106.72 905.255 125 112 95
76.8391 105.429 861.693 155 143 135
-477.458 191.799 1276.51 34 19 12
-394.015 212.863 1391.5 197 172 166
154.219 152.562 991.665 84 55 44
-77.6786 163.809 978.705 231 228 196
-453.649 212.65 1247.82 43 31 18
-62.2998 202.911 970.638 89 71 65
-386.311 318.219 1425.91 248 245 231
-445.65 297.411 1324.99 79 55 44
79.288 244.51 909.547 165 175 152
-112.686 324.888 1141.2 86 90 72
105.916 304.22 941.867 80 80 75
94.3461 319.185 964.835 253 253 245
-18.2895 353.028 1044.12 212 197 173
196.765 498.37 1140.17 50 87 110
113.904 565.962 1218.88 114 134 134
112.894 563.554 1194.93 242 255 254
-670.746 -519.152 2125.87 62 59 54
-573.833 -711.285 2886.86 69 71 57
32.2066 -76.3888 1019.15 66 76 66
142.447 -49.6867 942.167 143 142 124
-507.885 -25.0823 1264.78 35 18 13
-515.942 -14.5144 1154.82 42 33 27
-515.942 -14.5144 1154.82 42 33 27
-493.311 26.0934 1307.28 40 32 33
-391.693 34.195 1337.42 172 122 110
-196.433 23.3259 957.528 46 50 51
-539.11 35.4054 1197.76 129 78 46
-539.331 43.574 1180.6 254 224 201
22.0566 30.3174 826.816 247 252 241
-415.667 51.142 1330.43 43 28 27
83.2452 44.5781 889.188 48 49 45
-522.372 70.7813 1276.53 85 83 77
-80.8015 80.7207 933.044 143 124 106
-620.884 118.213 1279.07 254 249 229
-514.759 122.309 1242.54 115 83 61
-170.117 95.113 959.319 135 130 127
-366.499 155.44 1411.74 30 16 6
-366.499 155.44 1411.74 30 16 6
81.6429 107.323 977.904 43 33 27
-600.786 144.981 1265.59 255 253 239
21.0981 109.803 927.083 142 153 139
84.2624 103.506 875.075 38 26 21
84.2624 103.506 875.075 38 26 21
-371.427 171.393 1418.05 177 138 126
-506.721 158.614 1237.68 255 244 226
-357.43 184.038 1421.06 166 114 90
-423.635 181.102 1340.59 180 169 153
-530.024 180.88 1288.42 219 183 163
-142.978 154.067 1012.37 151 112 98
-629.894 214.293 1298.53 252 252 251
-108.014 164.509 980.159 254 249 219
-108.014 164.509 980.159 254 249 219
-10.4543 158.064 934.921 225 220 193
-429.499 236.962 1240.64 233 228 224
127.029 190.039 957.394 37 22 14
235.921 228.555 1095.99 163 118 96
75.2569 202.116 898.631 233 251 224
60.5381 217.691 932.395 252 255 240
-428.003 323.64 1338.82 211 203 191
79.9944 218.907 892.442 251 251 237
100.474 224.529 908.306 102 97 85
68.9212 236.784 954.372 245 255 234
-50.2023 291.872 1076.85 199 196 164
-113.054 302.969 1101.89 122 123 118
119.839 285.81 948.209 113 107 101
-74.2188 360.16 1091.62 167 163 145
44.5344 430.198 1141.78 248 254 250
150.442 454.282 1081.3 152 188 190
107.05 503.825 1135.39 254 255 255
97.7033 516.406 1142.61 115 138 142
106.451 -93.6778 1032.43 163 211 198
-494.468 -58.3388 1289.93 33 25 16
-496.048 10.1917 1218.92 65 49 34
-27.9731 24.3469 835.332 95 78 85
-27.9731 24.3469 835.332 95 78 85
-478.277 44.625 1243.68 108 107 102
-565.333 71.717 1206.93 178 157 144
-164.194 94.5407 984.361 251 253 254
-604.999 129.496 1280.29 151 119 100
111.627 103.866 915.478 61 40 31
29.5474 98.6352 841.154 148 163 139
221.415 128.105 1084.51 99 130 111
14.202 102.397 856.436 132 140 129
-14.2915 115.901 916.396 119 110 105
-400.882 206.223 1485.93 69 24 4
-621.28 202.531 1316.36 255 253 251
-117.51 195.034 1064.3 252 252 252
232.343 201.759 1084.33 71 47 43
-64.9202 242.272 1013.49 252 250 245
87.1475 243.389 932.444 254 255 247
-16.6393 326.901 1007.81 148 138 119
113.596 439.46 1120.08 246 255 246
103.527 492.744 1111.1 253 255 253
142.588 576.107 1203.62 192 198 197
142.588 576.107 1203.62 192 198 197
-730.126 -566.801 2327.17 73 66 60
-730.126 -566.801 2327.17 73 66 60
-27.5818 -95.0246 1078.54 58 56 50
-426.488 -114.549 1330.61 87 79 63
-42.3836 -35.9366 984.765 254 234 224
51.9009 -9.43276 852.283 77 157 163
-68.5429 -6.37486 921.515 170 179 185
-373.559 65.8865 1413.26 36 24 19
57.0364 38.8687 832.614 45 35 25
-673.51 72.7382 1246.36 249 249 243
-153.879 68.896 947.149 155 155 139
-475.164 134.507 1278.57 40 32 26
-15.6252 115.189 902.055 129 119 109
5.25365 161.571 914.283 255 255 245
62.4653 204.141 915.135 163 194 156
-8.13772 336.701 1070.7 254 249 251
55.2516 -57.5842 981.012 45 94 91
51.319 -36.0381 935.296 132 193 194
-577.391 -41.9908 1306.8 141 137 124
7.40499 -18.7757 916.619 74 71 73
7.40499 -18.7757 916.619 74 71 73
-557.752 47.8917 1209.98 252 241 211
-391.692 63.2159 1387.6 165 168 167
-382.42 69.0063 1449.48 48 32 28
-171.591 80.1264 969.148 106 95 92
-104.351 131.952 966.178 145 125 109
-513.667 232.418 1234.3 250 255 255
-513.667 232.418 1234.3 250 255 255
123.066 475.346 1119.66 238 254 249
-611.578 -469.213 1957.03 72 57 49
52.8282 -84.2096 1015.69 191 205 197
-526.063 -12.9595 1197.31 56 42 34
-526.063 -12.9595 1197.31 56 42 34
-406.986 51.7596 1330.41 42 27 24
71.5671 50.0373 876.725 148 148 140
184.635 94.1387 1023.48 96 74 69
-476.1 199.279 1207.46 255 254 222
106.818 194.015 924.342 160 127 99
106.818 194.015 924.342 160 127 99
18.4714 -42.5127 948.373 218 182 168
-476.873 -46.2615 1241.92 59 51 48
-476.873 -46.2615 1241.92 59 51 48
205.951 53.0813 1040.5 62 38 32
166.979 62.977 1006.69 166 125 90
-586.377 202.906 1274.9 241 241 241
-29.3899 187.673 960.322 253 254 255
-436.44 37.1331 1319.37 180 159 139
-436.44 37.1331 1319.37 180 159 139
-407.034 197.101 1380.2 193 154 142
-407.034 197.101 1380.2 193 154 142
236.425 160.045 1091.62 91 70 65
-423.894 257.943 1382.43 67 54 54
-41.4623 220.285 967.546 161 137 126
70.8289 442.955 1103.43 246 255 252
218.325 475.236 1161.73 144 174 170
154.823 533.896 1145.36 223 248 246
-428.633 -82.9863 1321.63 48 48 37
40.6277 33.1601 825.381 47 40 31
-48.08 49.555 881.696 136 129 127
-521.859 5.25261 1203.36 58 51 43
10.1951 52.8439 808.451 160 194 153
206.107 115.839 1055.55 53 42 33
85.3826 150.69 897.371 63 55 49
150.327 162.08 983.832 193 177 162
-457.383 -416.966 1881.12 150 156 151
-624.325 -389.08 1924.12 119 109 90
-605.998 43.1083 1206.49 237 223 222
-512.972 183.877 1188.68 195 190 177
19.2201 219.767 909.409 255 254 255
-396.806 387.489 1495.22 48 55 55
