-313.095 -80.1906 559.588 56 64 60
228.041 -179.823 1903.36 199 204 207
-427.145 -66.1635 739.452 133 142 138
-427.145 -66.1635 739.452 133 142 138
274.381 -125.31 1719.63 69 56 46
274.381 -125.31 1719.63 69 56 46
687.296 -8.48256 -1029.63 138 127 100
-271.837 34.9268 1264.18 93 78 75
-271.837 34.9268 1264.18 93 78 75
276.845 122.028 1821.19 37 16 16
-105.744 106.717 1062.12 182 114 89
327.93 250.626 1810.68 221 217 197
180.982 347.489 1839.6 24 42 44
-112.64 210.096 1025 15 9 6
176.409 445.741 2083.95 41 53 49
176.907 434.071 1929.83 52 63 68
-195.967 417.805 1130.35 41 14 9
-75.4817 423.283 1129.2 40 19 9
-134.864 455.067 1168.54 97 86 78
-178.38 485.061 1166.4 45 23 17
-55.4559 510.663 1229.66 142 141 127
-169.555 466.981 1090.69 6 7 3
318.941 -174.665 1774.68 210 237 232
-610.036 -72.267 1005.2 35 51 49
140.091 -56.2897 1784.16 78 79 54
261.097 88.8932 1725.84 113 90 86
279.037 91.4032 1746.61 254 251 250
240.637 102.362 1708.14 191 180 176
240.637 102.362 1708.14 191 180 176
15.8387 128.913 1285.43 254 237 220
-103.526 121.579 1093.78 251 253 248
19.0102 149.994 1318.84 255 231 209
-258.552 133.267 1133.85 52 11 4
-131.08 138.983 1050.55 70 15 6
-25.63 177.193 1253.45 131 100 82
231.057 399.301 1924.21 184 210 206
209.538 405.379 1900.31 99 129 134
-106.239 235.815 1066.96 75 60 58
-106.239 235.815 1066.96 75 60 58
-225.805 357.132 1200.46 72 35 25
-147.543 331.512 1086.31 57 39 36
-89.9994 406.121 1197.21 109 100 102
-34 499.321 1200.15 30 35 36
242.225 -34.5189 1561.39 254 253 250
258.928 -14.9378 1696.46 249 243 244
-138.665 14.0572 1336.39 166 161 157
-138.665 14.0572 1336.39 166 161 157
-232.686 23.8904 1267.77 26 48 56
338.636 92.7703 1659.69 159 161 151
206.147 159.325 1790.35 140 111 86
381.456 200.747 1931.49 156 148 124
327.975 240.922 1846.73 149 127 104
293.357 478.17 1923.03 181 206 210
-43.1963 371.901 1209 117 94 80
-74.5695 380.008 1103.73 254 252 254
-78.369 423.337 1163.58 249 254 251
-127.914 434.22 1148.95 39 28 16
-44.6732 479.016 1199.41 77 62 57
-44.6732 479.016 1199.41 77 62 57
-79.6039 459.639 1136.63 38 28 25
-33.4683 477.845 1173.88 249 239 228
-262.191 31.3805 1288.7 62 55 53
-262.191 31.3805 1288.7 62 55 53
-92.474 86.7853 1141.2 196 134 107
-71.3011 108.701 1127.45 248 255 255
247.875 391.75 1858.92 192 220 212
-61.8462 324.626 1164.58 252 254 253
-38.1352 392.566 1209.22 134 100 90
-53.757 416.385 1188.23 254 253 251
25.6055 144.179 1385.82 207 177 152
-46.1577 145.626 1183.03 252 253 255
28.2797 177.032 1358.42 252 255 248
-38.4406 191.869 1200.13 242 223 206
312.961 352.351 1876.76 250 255 253
-76.0628 253.425 1131.61 241 208 180
-92.6807 397.16 1125.8 90 53 51
-615.014 -77.4671 1073.38 49 60 59
-489.512 -50.6641 790.136 65 76 69
-204.225 126.103 1097.88 49 36 26
168.337 338.148 1839.84 70 84 100
-153.912 224.44 1104.73 76 58 44
26.2002 387.016 1333.4 249 252 251
322.028 -142.044 1820.13 117 106 97
-159.154 12.7206 1275.59 53 100 105
-159.154 12.7206 1275.59 53 100 105
-147.539 165.902 1077.09 174 125 109
-147.539 165.902 1077.09 174 125 109
-100.651 196.336 1084.5 254 255 252
-217.189 255.206 1162.13 155 98 64
-203.176 317.532 1150.6 150 106 95
-203.176 317.532 1150.6 150 106 95
-66.9856 408.807 1153.64 252 249 252
-41.3576 482.777 1312.86 123 110 103
-335.736 -70.8772 604.366 102 110 104
190.739 59.4265 1602.78 58 46 39
-233.966 64.7321 1195.29 161 138 112
-73.6008 26.0067 1190.46 90 119 131
342.746 132.488 1844.29 213 208 186
-121.002 341.808 1119.31 96 52 42
55.7922 132.599 1203.06 39 33 22
-11.3084 545.82 1239.12 95 97 95
-497.902 -87.5409 789.741 121 133 126
206.34 -67.7974 1666.37 68 61 50
206.34 -67.7974 1666.37 68 61 50
-305.235 163.369 1181.69 82 58 51
39.1601 234.719 1413.06 243 190 176
280.947 333.943 1806 129 143 143
304.992 43.1543 1639.56 236 236 233
-339.732 16.9213 1375.65 141 135 119
-48.7659 141.355 1227.85 254 254 255
-48.7659 141.355 1227.85 254 254 255
