278.372 -380.045 1117.04 69 65 54
-351.508 -473.034 1744.19 91 100 90
-134.961 -297.806 1265.39 60 59 55
37.798 55.2318 -569.435 172 168 163
-118.642 -130.823 1528.26 148 125 105
-139.427 -96.5885 1579.01 119 98 78
-296.885 -47.2409 1606.29 129 89 51
-112.858 -7.52976 1600.6 111 86 70
-151.366 79.3801 1029.63 170 171 152
-151.366 79.3801 1029.63 170 171 152
-67.8311 73.4576 951.124 187 207 208
-136.402 88.492 963.035 27 44 31
-100.202 91.4543 910.912 70 100 95
62.1272 93.5374 880.199 205 204 196
-46.2065 179.317 911.2 200 198 198
157.041 195.761 930.654 78 82 76
97.7034 250.416 929.518 101 80 76
119.496 323.829 933.239 61 109 112
-37.97 318.516 887.142 188 172 160
159.97 364.499 969.884 196 143 128
-66.372 358.361 946.123 241 238 235
-60.8871 367.527 929.056 248 246 240
241.372 460.797 1099.84 91 53 37
223.13 463.092 1089.68 72 26 13
-185.849 -168.418 1599.38 73 93 96
-185.849 -168.418 1599.38 73 93 96
-306.586 -150.034 1611.7 196 177 156
-278.779 -104.308 1392.06 199 191 173
-200.443 -61.2979 1514.83 170 155 133
-113.677 -21.0163 1553.33 205 175 160
-160.002 77.0311 1002.85 55 55 44
72.1923 89.5541 884.351 203 199 194
87.6349 152.687 896.364 96 76 67
139.431 166.029 944.403 139 100 80
-91.1832 180.781 857.631 30 28 20
-75.3197 184.576 858.304 46 47 43
-93.8033 203.484 756.698 249 247 241
95.9011 252.722 926.671 106 82 73
198.282 300.519 1000.88 170 123 100
103.991 306.671 953.369 30 46 63
103.991 306.671 953.369 30 46 63
41.2855 309.57 941.521 86 61 60
119.695 353.993 966.814 245 186 181
157.593 386.816 998.153 178 140 114
157.593 386.816 998.153 178 140 114
250.368 445.466 1080.27 45 21 11
-34.1198 402.869 943.993 102 101 97
159.184 503.74 1057.97 45 65 80
159.184 503.74 1057.97 45 65 80
159.184 503.74 1057.97 45 65 80
-120.07 -137.188 627.823 116 121 115
-144.064 -224.969 1744.94 174 157 137
-236.846 -89.628 1524.73 185 152 132
-236.846 -89.628 1524.73 185 152 132
-236.846 -89.628 1524.73 185 152 132
-219.894 -59.0435 1518.92 65 48 33
25.2391 27.3074 1003.02 185 162 147
-18.4319 38.4873 1006.5 201 188 175
100.207 95.4192 905.568 143 113 86
100.207 95.4192 905.568 143 113 86
-75.0277 152.303 830.622 26 26 22
-119.579 161.98 853.84 59 49 39
181.777 186.761 947.525 54 21 19
-55.9067 342.003 893.252 37 34 35
239.276 -229.931 906.42 170 172 167
-16.6719 41.7043 1059.33 216 205 194
-104.253 89.5698 920.963 93 119 114
94.7998 218.444 924.778 170 123 101
50.1342 291.166 949.478 114 50 46
50.1342 291.166 949.478 114 50 46
-254.067 -87.5365 1483.58 61 50 37
-29.1861 -18.5911 1499.57 54 42 39
110.133 85.6913 950.968 44 38 36
86.3937 101.259 899.662 43 45 45
149.048 171.705 932.385 60 40 30
-74.9195 192.129 872.305 58 49 49
145.614 250.452 947.119 170 147 130
11.5835 268.244 918.219 131 127 124
-73.5986 288.905 884.245 50 40 38
-176.881 -111.785 1505.44 54 47 38
50.1158 -31.7871 1105.56 187 188 175
-166.957 -77.27 1558.08 173 159 149
-166.957 -77.27 1558.08 173 159 149
-115.938 -19.579 1529.5 198 172 158
99.0409 10.5857 995.051 63 61 53
-65.7531 168.38 870.218 180 185 181
136.608 205.829 922.169 67 46 43
80.4132 248.194 928.105 58 44 37
194.703 -161.312 527.501 128 135 136
68.9651 -14.3099 1105.39 81 88 89
186.297 251.745 956.979 48 43 46
-34.2662 313.185 918.34 178 144 131
-34.2662 313.185 918.34 178 144 131
209.894 375.992 1027.77 173 138 122
236.411 409.682 1031.4 56 43 43
40.2491 430.539 980.465 142 72 58
-75.0613 -134.625 1481.88 64 65 54
169.559 200.535 955.179 54 39 36
80.2396 207.845 920.591 189 143 117
80.2396 207.845 920.591 189 143 117
127.617 71.5638 903.526 40 35 30
-105.045 144.089 840.764 42 41 38
-168.545 18.8044 1296.38 76 57 44
-33.8435 56.4137 903.143 186 137 125
184.737 297.114 976.813 70 38 27
84.5745 298.349 902.468 99 109 117
84.5745 298.349 902.468 99 109 117
23.0903 187.127 920.489 70 70 66
