626.812 522.217 -1563.57 8 8 3
705.201 -224.398 1276.15 124 126 123
725.592 -221.563 1310.33 184 187 182
-395.058 -65.9864 662.743 60 56 48
282.138 -179.418 1848.99 118 91 87
320.504 -138.746 1742.28 64 51 43
320.504 -138.746 1742.28 64 51 43
157.828 -97.6195 1816.37 19 15 2
184.831 84.2543 1794.43 140 138 117
-184.143 96.9154 1132.39 35 12 4
-184.143 96.9154 1132.39 35 12 4
-80.0835 121.294 1153.24 197 171 160
-260.917 127.186 1180.09 46 2 0
414.844 219.467 1938.61 170 153 125
-120.978 137.473 1104.36 147 49 36
-7.67277 184.722 1296.83 255 228 206
329.725 314.691 1876.97 139 164 164
48.0724 287.238 1399.01 194 155 142
372.495 435.332 1960.26 186 205 202
-286.412 621.507 1589.11 159 143 132
-286.412 621.507 1589.11 159 143 132
-202.717 493.72 1245.17 156 139 127
-169.355 471.766 1173.43 53 33 19
-235.448 604.886 1514.03 160 148 136
-217.87 700.703 1679.14 9 8 6
-301.018 -78.2164 560.013 33 35 31
-312.562 -52.8727 413.467 139 136 136
281.764 -196.45 1898.52 185 192 199
-239.374 -95.3573 925.758 81 60 46
328.035 -89.6163 1736.81 163 160 139
-93.3544 68.3021 1114 241 221 208
-88.852 106.243 1135.54 252 252 246
-88.852 106.243 1135.54 252 252 246
-16.4304 124.296 1269.1 253 252 248
-165.963 152.605 1135.67 171 152 147
350.562 331.336 1975.03 141 165 165
350.562 331.336 1975.03 141 165 165
-157.768 198.724 1102.32 44 14 1
30.5724 495.962 1332.16 54 56 51
-76.6062 468.085 1251.2 255 250 233
-76.6062 468.085 1251.2 255 250 233
-251.246 577.251 1456.28 7 0 0
-22.9421 508.569 1259.3 47 56 53
-79.9545 497.397 1147.69 164 152 141
615.63 -193.353 882.289 109 117 111
351.376 -190.336 1820.22 192 218 218
-281.509 -45.3917 464.553 137 148 141
194.887 -122.958 1696.62 6 11 8
288.65 -40.6428 1711.17 42 23 7
-118.634 4.35272 1241.09 153 150 152
-115.084 16.9515 1324.52 61 112 122
387.016 42.8035 1883.24 136 114 99
488.147 151.617 2168.86 255 255 250
-215.258 97.5342 1125.41 69 29 16
377.95 234.259 1879.2 137 121 103
-85.3947 151.673 1143.81 216 143 144
2.39228 215.449 1289.39 255 254 238
-18.1924 216.831 1256.16 255 254 245
-18.1924 216.831 1256.16 255 254 245
275.194 421.996 2064.2 108 136 133
367.034 431.004 2078.95 245 255 250
226.785 391.712 1873.78 141 160 160
-1.39333 287.438 1319.63 255 248 239
-77.5514 411.685 1163.83 245 239 237
-81.6356 468.851 1304.74 93 64 52
-243.012 497.223 1348.56 125 77 52
535.994 -191.355 922.36 122 126 121
74.5873 -347.018 1951.13 159 146 133
-252.498 19.0237 1327.04 83 67 66
358.444 97.0377 1765.59 248 238 223
-54.5635 95.643 1152.74 241 161 129
-54.5635 95.643 1152.74 241 161 129
228.061 458.858 1884.94 81 93 90
-79.4121 317.391 1177.02 183 86 71
-177.113 328.997 1207.85 68 38 34
-105.536 334.036 1158.04 85 38 28
-127.28 436.724 1189.49 54 36 29
-40.3983 484.922 1249.27 97 88 76
20.3977 4.6037 1286.38 231 215 199
-117.572 79.6199 1097.13 221 208 183
-206.971 120.272 1138.63 53 38 29
-40.7679 142.159 1223.3 254 247 255
295.258 235.937 1664.97 47 36 23
391.612 370.454 2044.57 248 255 247
18.0979 243.717 1325.65 253 254 254
-76.4417 257.686 1187.09 242 207 180
-60.0729 324.679 1194.73 252 255 247
-94.389 408.625 1194.22 84 57 62
-175.677 -112.036 336.739 25 33 27
-343.656 -61.0995 644.579 66 69 71
-59.2921 28.71 1204.56 172 145 154
88.8964 195.113 1616.88 61 51 45
226.428 350.082 1987.11 79 91 114
226.428 350.082 1987.11 79 91 114
-39.0746 462.061 1300.11 108 96 92
-64.0325 464.744 1203.39 253 255 255
1010.91 269.481 -1857.59 125 136 131
-235.464 -125.053 1111.14 49 41 35
363.062 -155.003 1805.35 132 118 108
363.062 -155.003 1805.35 132 118 108
-340.472 84.07 1247.02 121 91 72
51.5795 190.774 1514.88 196 179 162
-149.225 162.539 1116.69 173 122 101
-149.225 162.539 1116.69 173 122 101
-65.239 405.684 1177.25 255 253 253
18.6446 10.2343 1352.69 225 192 168
-230.789 54.0936 1190.62 162 138 113
12.0282 -230.329 1418.41 183 174 160
376.587 119.1 1794.68 207 208 188
110.061 -75.757 2038.85 97 91 82
-308.256 157.663 1242.34 89 64 53
-151.911 252.809 1167.82 81 55 45
-4.714 567.228 1308.33 89 87 89
289.988 196.992 1799.5 52 39 39
384.507 37.1751 1814.74 211 212 197
-329.849 2.53787 1420.9 140 131 117
211.497 83.7283 -380.843 27 20 16
-236.977 209.911 1229.2 167 125 108
