361.263 407.503 -1245.93 51 50 40
-207.866 -482.537 1853.16 11 5 3
-1844.7 -843.756 4168.42 40 55 51
541.315 -243.117 1404.4 25 20 9
-2389.76 -1166.57 6972.18 134 152 140
891.593 -304.619 1855.65 97 94 78
-7792.56 -3255.25 20567.5 46 50 43
-1882.69 -809.66 5273.72 138 133 118
-2194.1 -690.156 5173.08 39 32 20
-90.6354 -123.722 1422.51 138 149 149
807.844 -137.95 1744.94 131 100 74
898.452 -82.3222 1862.43 158 127 118
-48.2067 -45.2558 1216.85 25 5 0
718.049 -52.087 1640.32 192 163 166
6.66772 -6.54571 1255.28 255 249 231
945.77 144.647 1925.3 235 231 214
-65.957 131.818 1491.59 252 238 214
951.781 174.65 1934.85 234 241 243
695.737 154.068 1659.37 123 118 104
5.85671 162.563 1320.22 254 226 208
-61.3282 193.879 1507.03 166 138 120
17.4626 166.939 1288.92 98 72 49
795.435 258.129 1886.08 39 82 115
-12.8704 257.477 1367.05 255 250 238
-135.468 262.7 1263.77 246 204 175
-78.5791 324.712 1295.82 254 233 223
-95.5604 353.086 1315.22 252 210 197
-23.5883 381.739 1394.44 229 228 201
-82.1112 420.103 1371.66 73 43 29
-109.01 492.606 1361.93 176 161 149
-145.452 -2103.32 6314.4 180 167 163
759.305 -387.591 1783.87 66 36 29
940.853 -347.296 1697.94 246 250 235
736.885 -342.9 1686.83 25 29 29
801.326 -344.14 1725.83 148 148 139
736.088 -293.623 1627.69 111 97 97
-1223.7 -444.661 3206.18 246 251 247
-2339.41 -779.022 5891.3 242 250 241
-2339.41 -779.022 5891.3 242 250 241
-2006.85 -670.037 5520.45 141 143 116
-2006.85 -670.037 5520.45 141 143 116
874.33 -216.226 1805.53 131 114 101
872.135 -185.475 1777.44 131 122 96
872.135 -185.475 1777.44 131 122 96
872.135 -185.475 1777.44 131 122 96
641.053 -146.285 1647.72 142 120 117
-184.871 -110.382 1499.17 85 61 57
1009.24 -133.719 1839.66 201 225 203
706.39 -117.953 1690.67 126 84 84
-5526.08 -507.515 7864.38 90 98 93
681.491 -40.6604 1741.58 38 23 21
886.39 -29.1005 1809.69 248 238 237
-40.5296 -15.0403 1247.67 216 164 134
-29.1671 24.8268 1266.49 255 250 232
76.3005 31.8234 1290.57 255 240 221
-177.733 48.6735 1197.49 173 88 56
83.3042 53.6238 1315.21 245 224 212
-158.977 60.2471 1191.65 157 102 109
-158.977 60.2471 1191.65 157 102 109
91.4553 75.1725 1329.44 255 245 230
-121.615 73.9534 1206.32 254 253 246
101.939 96.3114 1387.65 255 246 229
8.02013 93.5745 1319.17 166 113 80
8.02013 93.5745 1319.17 166 113 80
7.47312 148.613 1286.7 123 68 47
25.1691 161.733 1326.06 255 250 230
48.2356 160.439 1306.49 165 133 108
808.44 269.921 2193.78 46 67 64
953.288 268.146 1958.38 174 189 190
-154.681 171.39 1212.7 104 70 59
32.6426 206.403 1335 254 250 241
822.935 333.539 2162.41 67 90 94
17.6988 204.763 1293.86 251 251 238
-144.071 220.379 1246.47 93 53 22
1036.23 390.32 2217.15 227 250 251
984.553 374.158 2060.83 242 253 248
-136.974 290.629 1240.54 246 251 251
68.5203 339.528 1420.13 255 252 240
-64.333 316.74 1311.76 253 249 242
-99.6738 309.01 1223.27 255 245 250
-99.6738 309.01 1223.27 255 245 250
-100.312 341.59 1309.53 167 128 125
-1186.03 -1290.4 5675.47 154 154 148
750.583 -364.339 1646.84 148 184 180
-1728.59 -909.568 5443.47 57 63 60
942.87 -276.518 1781.56 76 71 65
827.896 -264.598 1733.58 175 167 163
719.224 -238.488 1619.09 148 149 133
717.29 -242.907 1668.05 125 128 116
651.652 -227.801 1611.05 138 136 130
974.942 -181.683 1789.42 242 255 244
-15636 -2110.16 21442.5 4 7 3
668.965 -129.226 1634.97 253 242 238
710.267 -128.512 1622.62 119 111 85
760.931 -103.458 1704.73 148 98 87
685.593 -64.8854 1659.85 254 250 249
-21.1261 -36.9155 1234.47 199 135 108
688.957 -22.9021 1752.42 146 136 132
-173.73 73.3885 1159.51 88 74 63
750.226 177.896 1821.78 31 22 15
-189.152 122.311 1212.1 128 42 33
736.772 210.908 1881.46 50 87 95
-171.553 166.073 1229.74 254 254 255
929.856 317.318 1998.56 231 251 243
-162.09 234.89 1307.77 250 253 244
829.948 354.004 1959.8 66 101 119
829.948 354.004 1959.8 66 101 119
-10.5237 280.4 1344.07 253 252 251
181.55 319.573 1482.31 194 144 117
-95.675 287.15 1218.41 185 118 120
-25.7488 321.007 1321.37 206 144 140
-118.341 318.231 1284.46 174 123 118
16.6549 340.011 1364.33 117 103 90
-118.069 369.212 1323.59 253 255 254
-115.441 389.076 1307.37 252 254 250
60.2382 567.502 1386.56 48 50 46
-2029.76 -1668.96 5861.72 152 155 148
-1770.32 -1287.24 5360.33 140 144 136
-964.688 -320.066 1698.21 120 130 126
-964.688 -320.066 1698.21 120 130 126
-2487.76 -899.564 6566.45 223 229 228
-2487.76 -899.564 6566.45 223 229 228
-2450.37 -674.268 5134.37 69 38 27
-2450.37 -674.268 5134.37 69 38 27
901.854 -172.522 1755.45 182 176 138
901.854 -172.522 1755.45 182 176 138
-1.11861 -63.8144 1270.67 213 192 166
764.979 -87.6154 1737.51 253 250 249
878.853 52.3136 1810.35 252 251 243
994.463 61.9791 1892.23 250 252 240
-144.217 52.4002 1167.4 236 245 238
-88.6358 53.7636 1231.04 223 141 117
-172.662 61.5165 1183.62 215 227 219
112.317 81.4894 1375.11 187 119 81
872.872 160.072 1920.11 104 94 85
919.244 165.958 1933.52 242 255 253
745.136 176.332 1810.25 31 22 15
-17.689 217.918 1351.35 255 254 242
899.653 318.283 1995.41 153 188 195
-44.1511 248.466 1299.33 173 112 100
-44.1511 248.466 1299.33 173 112 100
940.771 448.938 2162.7 118 172 181
97.9143 412.605 1428.47 170 151 115
-51.0613 458.838 1374.01 75 70 69
-115.646 547.34 1457.26 42 36 31
2157.65 -4885.68 17089.2 62 39 24
-1285.6 -1461.58 5997.27 93 93 88
-1285.6 -1461.58 5997.27 93 93 88
860.923 -397.521 1751.46 141 183 178
606.59 -358.683 1696.29 92 67 59
580.34 -304.663 1701.81 20 19 16
819.511 -245.281 1772.1 91 73 66
658.568 -182.803 1659.61 29 11 6
595.692 -49.7833 1760.92 100 101 87
-33.0156 53.0861 1265.24 253 241 238
955.263 88.3639 1850.63 117 112 89
955.263 88.3639 1850.63 117 112 89
-117.823 103.812 1221.97 251 255 249
-48.7926 178.73 1267.77 241 222 205
-124.307 273.588 1265.32 137 47 33
-99.4192 313.48 1313.75 182 107 103
-99.4192 313.48 1313.75 182 107 103
-1902.36 -1554.24 5276.35 90 91 77
257.255 -2241.02 8008.42 72 73 72
-1650.43 -1439.97 5456.38 102 95 83
-2562.15 -814.927 4340.98 124 142 134
-2219 -797.017 4318.53 78 78 69
-3698.09 -998.495 6213.22 79 75 67
-3698.09 -998.495 6213.22 79 75 67
811.143 -183.357 1793.72 108 90 81
-199.342 23.7837 1152.23 200 180 146
-88.1218 39.1977 1236.93 228 155 126
-113.895 45.3855 1215.09 246 253 249
-182.135 95.4844 1184.54 248 241 228
-13.2278 103.827 1287.06 134 80 61
-13.2278 103.827 1287.06 134 80 61
-13.2278 103.827 1287.06 134 80 61
93.694 107.833 1356.66 240 230 214
-59.8692 143.269 1289.74 236 213 190
-72.3222 243.775 1312 248 225 209
-131.164 307.957 1307.15 212 212 207
-91.5043 353.656 1315.74 235 190 178
1672.56 -1643.43 5458.83 47 39 31
-1880.82 -1586.01 5657 138 147 142
-1880.82 -1586.01 5657 138 147 142
-2144.13 -682.689 3617.89 126 145 135
-2264.45 -821.296 4682.59 123 134 127
764.532 -172.83 1698.46 105 90 82
852.317 -73.5792 1773.06 158 127 118
1046.62 46.8323 1914.11 159 176 143
709.873 137.568 1961.28 48 43 32
145.19 207.234 1426.75 230 217 197
-35.8567 294.166 1331.74 255 253 253
-89.4566 440.93 1337.89 248 234 225
908.211 -353.683 1667.61 140 165 135
875.775 -344.454 1721.06 81 79 82
-55.9352 68.2637 1250.36 249 253 248
31.7001 110.248 1313.83 239 196 162
751.806 195.125 2284.76 155 145 137
-166.719 148.579 1233.02 246 246 248
-166.719 148.579 1233.02 246 246 248
0.131402 375.862 1330.9 162 185 138
-39.8085 431.65 1375.5 90 77 76
-1468.63 -422.14 3397.86 76 58 44
65.9912 -72.7069 1326.36 219 180 135
521.45 -283.639 1860.02 57 48 41
925.512 -17.1243 1816.11 249 254 251
908.673 232.814 1975.01 222 243 240
672.974 457.909 2082.69 205 206 199
617.504 -242.397 1653.69 54 43 43
844.267 -319.108 1749.02 91 61 63
-21.9147 25.7126 1235.77 248 235 220
10.515 609.395 1562.9 54 52 54
896.731 -84.6126 1811.68 251 246 231
-2.35573 159.801 1316 172 128 109
-2.35573 159.801 1316 172 128 109
