-223.649 -169.539 1198.91 205 210 205
-67.9975 -187.01 1543.76 18 12 8
-67.9975 -187.01 1543.76 18 12 8
-106.663 -169.196 1446.39 149 122 103
-43.0922 -170.244 1527.64 37 26 14
-188.67 -128.293 1419.14 24 7 0
-41.2328 -111.181 1478.72 1 5 4
23.0599 -46.4141 1061.56 123 109 102
-1098.81 -77.6155 2625.78 80 85 81
-1098.81 -77.6155 2625.78 80 85 81
2.39644 12.8172 923.394 130 85 71
233.587 41.6046 922.354 15 3 1
120.07 49.5758 846.469 191 190 184
69.5214 72.8724 846.954 8 3 1
199.116 89.8406 887.028 89 103 85
-8.25481 128.709 816.505 41 43 41
11.4225 180.618 886.306 38 31 33
119.491 214.563 928.367 131 80 59
276.061 267.943 969.372 41 9 4
154.35 251.826 900.171 67 91 89
82.454 260.334 897.955 49 28 14
9.24437 255.84 862.109 122 111 109
52.914 279.653 896.047 188 169 156
44.3728 277.951 889.079 99 76 61
281.012 412.987 1059.36 225 219 209
208.638 435.658 1033.99 144 150 143
142.648 436.148 987.217 24 22 17
136.314 457.025 1006.86 232 242 235
69.2601 460.698 966.531 40 36 33
205.27 514.631 1064.84 16 34 55
-170.958 -191.706 1418.33 74 94 98
95.1478 -52.793 1035.53 37 18 12
-59.4298 -69.4139 1471.06 61 24 15
115.212 -33.3659 1003.16 252 253 250
157.543 16.9919 847.105 79 73 68
217.134 53.1938 893.792 45 25 17
-176.65 185.919 1515.22 140 92 75
-0.60776 142.233 831.741 44 52 52
266.045 235.611 956.324 177 131 114
164.921 233.367 918.063 20 31 32
164.921 233.367 918.063 20 31 32
142.354 253.703 927.846 98 64 56
231.201 277.027 976.773 19 16 18
-25.529 308.893 1017.7 204 204 196
261.459 353.035 941.003 37 15 5
222.404 407.819 1009.13 29 23 16
216.427 417.934 1022.03 38 34 26
209.93 428.949 1035.72 45 40 37
-219.41 -172.309 1414.24 75 93 93
-215.408 -122.297 1408.26 192 165 142
-200.539 -94.9606 1416.09 44 33 14
81.8283 -21.3357 952.282 196 151 137
81.8283 -21.3357 952.282 196 151 137
74.2669 -17.689 979.381 100 69 52
24.3845 18.4392 903.48 207 186 156
208.422 109.247 904.616 130 90 77
126.034 213.504 902.975 45 18 12
119.686 223.622 902.037 192 191 171
119.686 223.622 902.037 192 191 171
-22.8659 360.209 1168.24 197 198 187
293.229 543.577 1118.82 40 66 73
129.574 550.421 1126.01 234 250 250
166.238 524.132 1049.51 139 177 171
-208.021 -138.15 1416.65 55 42 28
126.322 -72.7817 1074.12 55 50 44
149.938 -51.9051 1004.12 60 67 67
149.938 -51.9051 1004.12 60 67 67
122.17 -42.5932 982.663 94 98 82
203.65 -7.28997 858.163 13 8 6
31.6478 119.794 840.646 21 26 27
31.6478 119.794 840.646 21 26 27
74.6284 185.365 872.78 49 38 27
219.607 196.07 926.12 174 150 131
77.6036 248.117 894.835 167 143 126
-323.842 -321.111 1362.75 171 178 172
-235.781 -120.683 1389.98 67 51 42
-235.781 -120.683 1389.98 67 51 42
-68.7839 -37.2252 1427.17 75 57 50
-116.344 24.2896 1003.51 157 153 132
156.255 47.4542 859.054 35 39 40
222.352 116.375 913.43 54 25 18
90.6349 223.404 903.1 144 147 141
62.8595 247.151 895.033 47 39 30
-125.773 -164.862 1418.72 65 49 38
285.309 261.9 972.681 63 27 18
227.447 265.253 958.395 63 55 56
-149.244 -112.94 1430.04 165 153 137
-236.062 36.0554 1429.24 237 219 202
10.3827 122.202 826.63 164 175 169
-63.4903 -175.572 1455.75 15 10 4
261.537 198.523 949.826 49 43 44
127.733 197.155 861.697 80 56 48
44.7052 271.349 903.485 181 143 123
283.585 313.299 998.886 175 137 119
283.585 313.299 998.886 175 137 119
-230.768 -106.462 1405.9 57 35 20
237.894 141.577 919.535 64 58 46
-11.8252 185.047 856.749 55 48 47
-42.6795 56.2595 859.997 174 208 204
100.076 248.594 909.385 159 157 146
100.076 248.594 909.385 159 157 146
33.1024 19.3383 870.024 210 191 178
12.8013 220.677 862.76 50 48 48
81.1641 414.682 948.441 59 57 59
-129.777 -44.5863 1119.94 38 33 30
91.5695 145.84 854.983 63 45 42
