432.506 -237.603 1676.94 105 88 84
551.971 -215.78 1685.32 91 94 75
565.238 -159.121 1715.8 105 103 83
413.941 -141.064 1569.88 28 13 7
160.784 40.1092 -480.313 84 77 56
407.157 -74.8566 1584.56 186 173 156
512.187 -65.0479 1557.32 253 254 241
407.761 -61.5335 1584.94 99 53 47
470.012 -55.256 1609.7 255 246 223
103.396 67.2512 1270.23 255 242 235
107.386 87.1924 1289.89 254 234 215
377.072 121.023 1639.76 105 86 71
385.908 152.216 1873.74 148 158 132
47.825 117.173 1238.89 138 80 62
446.124 262.471 1739.25 239 253 253
446.124 262.471 1739.25 239 253 253
475.153 358.976 1869.25 75 99 114
475.153 358.976 1869.25 75 99 114
-3.40865 250.131 1184.03 98 50 47
29.8882 325.637 1240.65 254 254 241
104.543 420.234 1310.44 58 57 56
-27.6427 393.576 1206.89 255 250 230
-27.6427 393.576 1206.89 255 250 230
-192.274 502.323 1527.26 173 159 142
-172.706 493.738 1474.49 173 163 139
-172.706 493.738 1474.49 173 163 139
-84.8152 511.86 1441.29 40 27 16
-117.131 515.149 1446.72 230 226 211
-53.3199 665.422 1446.59 106 130 116
55.3958 648.974 1355.79 131 175 166
-421.249 -196.662 668.059 128 145 136
-506.135 -287.86 1130.69 115 118 106
-574.925 -312.715 1310.49 96 92 79
-681.211 -347.84 1734.45 167 159 147
-661.129 -244.28 1345.23 132 129 121
447.109 -192.074 1573.73 62 50 43
421.231 -138.707 1556.13 152 140 127
578.083 -110.525 1762.11 244 246 218
531.93 -87.3373 1646.75 191 189 155
461.396 -25.6945 1596.64 254 248 249
436.544 -12.5191 1587.31 226 223 219
542.569 136.696 1721.33 161 144 119
-62.6712 164.878 1150.72 250 254 252
415.594 289.403 1763.62 170 202 194
513.091 298.703 1807.32 176 201 202
513.091 298.703 1807.32 176 201 202
-66.0891 190.826 1137.45 92 70 60
-9.64736 244.143 1187.22 255 247 238
-0.792888 258.03 1225.41 125 88 89
9.01181 269.295 1235.5 97 57 50
-98.787 260.405 1150.57 60 26 18
-98.787 260.405 1150.57 60 26 18
30.1323 324.291 1238.3 239 237 218
-76.7919 381.437 1211.18 42 25 13
-158.139 497.005 1439.58 23 8 6
-3.95917 429.453 1204.54 135 110 87
-568.612 -266.314 904.275 66 85 75
-568.612 -266.314 904.275 66 85 75
-617.539 -300.871 1023.11 75 89 81
-1261.17 -265.203 1746.15 59 68 59
524.436 -233.385 1632.28 105 102 100
14.9453 20.8947 -176.556 125 103 73
-1196.28 -220.675 2500.01 138 121 94
562.382 -127.745 1700.15 145 144 113
562.382 -127.745 1700.15 145 144 113
64.0037 -8.91868 1239.73 136 63 37
-284.416 10.8713 1297.24 90 72 49
-45.0062 31.0027 1113.39 171 118 101
-60.2421 67.65 1104.49 249 255 254
-37.095 98.0385 1115.67 166 145 141
521.833 161.813 1745.36 131 117 99
67.1587 158.175 1251.5 254 245 229
454.064 243.486 1889.9 123 132 144
521.205 331.189 1899.83 238 252 245
400.123 382.033 1838.65 67 82 78
506.608 388.071 1856.65 160 183 182
-31.903 372.027 1214.39 254 253 253
22.6301 440.877 1252.49 237 230 222
497.42 -247.436 1655.77 184 205 205
521.805 -149.118 1841.84 102 80 69
435.794 -107.466 1568.47 255 255 250
525.083 -22.3245 1697.97 147 125 111
519.09 -3.03294 1675.05 143 118 96
515.825 30.4446 1696.29 238 219 205
-164.145 42.5233 1158.69 76 43 33
-22.1722 108.259 1160.47 250 255 254
-22.1722 108.259 1160.47 250 255 254
490.5 280.478 1795.19 236 252 246
12.0125 426.136 1250.22 83 65 60
12.0125 426.136 1250.22 83 65 60
-779.747 -94.9063 1155.06 123 139 129
-160.706 -43.4078 1303.16 104 82 78
354.852 21.8493 1733.6 122 125 114
-76.489 32.0766 1066.12 203 191 170
-153.696 66.265 1133.34 48 30 23
446.605 200.792 1668.12 220 234 232
-106.919 169.112 1144.5 78 56 40
4.82428 254.387 1201.03 145 87 76
4.82428 254.387 1201.03 145 87 76
-46.9739 333.717 1140.77 83 50 39
-25.3183 434.394 1197.89 45 30 24
-561.254 -218.237 1564.71 70 72 68
-634.234 -116.263 1017.13 76 88 81
-5.23977 98.9787 1201.87 227 139 117
-66.7202 97.3357 1095.6 244 255 254
383.709 254.468 1830.91 102 120 127
-161.063 456.444 1406.31 75 49 35
-77.2804 -253.834 1540.69 50 44 30
-656.732 -97.7287 1023.52 126 141 132
16.85 77.4816 1184.45 253 255 247
16.85 77.4816 1184.45 253 255 247
-57.8841 142.669 1111.44 248 254 245
-57.8841 142.669 1111.44 248 254 245
-155.431 183.284 1172.63 152 83 45
-68.9489 -53.129 1283.05 59 95 94
-68.9489 -53.129 1283.05 59 95 94
-72.6748 279.976 1139.63 84 46 32
-946.556 -108.467 1344.85 75 66 53
-946.556 -108.467 1344.85 75 66 53
-212.697 83.4322 1094.98 79 53 43
391.495 363.355 1959.92 65 59 46
-418.613 -208.391 1130.07 130 135 130
-108.995 67.1928 1093.15 58 40 27
58.2691 519.838 1333.44 77 75 78
501.35 -463.443 2373.22 184 185 173
-150.443 103.297 1029.53 166 140 116
-157.218 266.287 1324.45 124 81 57
327.254 48.315 1580.35 77 84 58
