61.8251 251.678 -833.432 15 4 0
-270.108 -257.639 987.456 152 142 132
-33.068 -23.7395 107.048 146 149 139
683.387 -299.741 1553.41 121 110 107
666.507 -251.97 1601.04 91 75 59
508.918 -197.704 1447.04 12 7 0
-342.216 -78.4099 572.964 42 56 46
396.706 -179.864 1470.08 29 28 8
521.836 -96.1159 1516.24 183 147 130
612.092 -66.7258 1502.55 248 219 217
689.123 -63.9864 1612.85 133 122 109
-179.569 29.9252 1099.68 50 29 12
634.437 45.4594 1628.53 224 226 197
724.851 85.5953 1672.06 142 135 117
546.675 112.996 1467.31 127 110 93
-9.74434 87.8073 1134.64 253 240 223
-9.74434 87.8073 1134.64 253 240 223
-36.022 91.8309 1114.04 181 85 72
124.143 135.559 1243.27 204 150 116
52.0061 171.743 1186.81 241 238 232
603.522 274.2 1684.65 193 228 255
603.522 274.2 1684.65 193 228 255
169.285 236.711 1295.17 185 156 123
-31.5719 217.681 1157.14 254 250 237
-23.7741 221.455 1150.58 121 89 79
157.799 281.334 1299.35 220 140 108
62.7284 272.177 1201.48 108 97 86
14.4594 294.561 1193.46 228 241 221
-110.373 450.108 1386.07 168 148 139
162.62 491.644 1418.97 240 239 233
-23.2744 404.099 1126.54 19 22 26
81.1967 645.995 1550.38 191 228 213
53.5968 542.175 1293.09 165 198 183
-15.8898 541.288 1196.95 67 88 82
-340.272 -205.042 606.103 145 149 142
-116.582 -380.693 1481.99 124 125 113
-242.778 -115.138 469.709 62 61 48
582.279 -322.064 1602.15 89 68 53
558.238 -259.41 1385.84 172 160 139
377.154 -284.829 1531.91 68 48 32
377.154 -284.829 1531.91 68 48 32
-276.469 -108.34 584.313 66 66 59
501.777 -232.383 1325.25 46 29 26
-429.539 -131.504 766.454 42 53 49
682.19 -250.005 1473.15 204 214 189
-407.599 -88.1324 598.822 41 60 54
581.424 -211.313 1488.18 155 152 133
537.54 -172.32 1452.87 255 250 244
-289.199 -67.5433 572.757 48 51 43
735.402 -144.274 1557.9 153 160 144
-570.079 -76.903 935.591 53 43 28
-979.561 -132.169 1892.81 175 171 154
532.504 -81.9996 1476.36 94 70 59
532.504 -81.9996 1476.36 94 70 59
114.242 -63.1225 1176.29 154 143 116
-4.6343 -42.2886 1090.05 236 230 232
440.319 -50.7867 1526.72 109 105 85
-275.224 -32.9682 1258.02 77 60 35
-59.8537 -27.9595 1058.44 121 91 72
552.577 47.9069 1515.71 26 13 5
-58.9564 55.6429 1101.15 255 254 246
-58.9564 55.6429 1101.15 255 254 246
503.951 111.398 1719.29 32 28 19
59.3189 128.647 1194.3 255 250 241
42.198 158.557 1132.77 91 66 52
613.223 279.944 1933.03 138 160 158
-101.187 158.186 1075.15 66 54 42
29.3927 204.014 1163.81 255 245 238
-19.7037 249.149 1145.6 250 254 250
87.2999 279.661 1242.24 255 250 245
-69.0056 272.455 1141.07 253 250 253
-9.16528 324.002 1163.16 255 249 230
-52.6392 358.931 1161.27 252 244 235
-131.737 516.045 1572 16 7 7
-160.293 -90.4936 264.738 140 150 142
146.328 193.123 -1007.26 150 117 84
211.747 60.1189 -329.73 65 82 74
417.167 -228.53 1464.25 134 138 120
503.711 -191.878 1397.43 132 132 113
775.245 -206.279 1695.04 122 127 101
670.275 -164.1 1491.66 255 254 224
670.275 -164.1 1491.66 255 254 224
-870.483 -136.171 1309.42 36 41 36
669.011 -150.691 1510.34 168 168 138
669.011 -150.691 1510.34 168 168 138
-32.796 -90.5555 1196.33 152 146 144
-32.796 -90.5555 1196.33 152 146 144
548.221 -67.0991 1488.37 217 218 214
23.1111 -44.4665 1127.08 201 142 98
528.376 -28.4914 1513.43 167 148 140
528.376 -28.4914 1513.43 167 148 140
-64.4769 -16.0684 1093.41 224 201 174
534.856 -16.7033 1489.7 26 9 8
-90.4795 -12.1322 945.379 125 92 68
-76.922 -9.92784 1104.24 215 193 171
-75.8933 -6.04158 940.957 218 200 179
-86.3086 -4.60435 1057.97 218 200 179
558.746 9.65774 1541.07 42 29 16
100.38 15.6786 1187.8 255 241 216
-30.7218 33.5777 1085.24 219 154 129
-98.7737 42.2253 1041.13 251 251 246
706.709 87.1441 1652.79 139 135 113
-134.064 105.317 1078.57 161 120 105
589.578 189.694 1628.15 72 113 121
-107.311 145.591 1085.43 84 47 42
694.764 242.832 1720.14 238 255 249
-83.866 180.377 1057.48 255 252 236
26.2959 229.698 1171.31 251 254 255
-50.3141 280.302 1144.25 254 252 250
-56.3738 307.513 1142.05 246 253 255
113.92 344.959 1267.38 178 160 129
-133.411 371.94 1275.6 90 55 41
-33.8313 411.837 1158.88 229 217 206
-168.457 -95.2744 273.889 41 47 42
-168.457 -95.2744 273.889 41 47 42
-323.21 -159.364 578.749 143 150 139
119.572 -295.238 1256.79 109 101 82
595.33 -319.336 1463.49 81 99 108
635.283 -318.382 1514.72 196 220 219
477.713 -307.804 1579.76 103 45 39
-238.054 -83.8188 436.197 139 143 135
441.599 -251.756 1484.14 7 10 10
-287.68 -107.07 648.422 123 137 131
511.793 -156.096 1447 34 17 9
-501.259 -58.831 745.741 60 31 20
34.3347 -63.0856 1090.96 253 245 217
566.044 -37.0683 1522.39 248 254 254
566.044 -37.0683 1522.39 248 254 254
763.08 60.5707 1706.59 129 122 99
86.4814 175.294 1222.1 206 166 131
86.4814 175.294 1222.1 206 166 131
19.3105 188.677 1242.35 254 249 248
649.394 326.462 1725.46 156 183 188
-6.31059 383.313 1179.22 63 54 57
-439.711 -255.654 755.008 54 61 54
8.07746 19.4051 -80.9571 141 149 144
546.63 -166.285 1467.16 217 217 218
48.1576 -87.9765 1147.23 45 65 78
112.987 82.3067 1236.61 254 243 230
-140.073 78.8221 1085.53 163 116 96
37.5339 112.502 1174.13 176 122 99
37.5339 112.502 1174.13 176 122 99
26.5445 137.55 1172.3 255 234 213
0.211889 145.318 1134.79 255 234 222
-34.1753 239.452 1142.59 247 254 249
-34.1753 239.452 1142.59 247 254 249
-67.8325 252.537 1121.25 248 253 253
-5.16299 278.771 1169.52 127 87 81
-72.6827 306.959 1127.45 92 75 75
45.5887 486.794 1485.61 251 253 249
20.3797 399.53 1206.55 243 232 216
-348.181 -155.139 625.561 86 90 75
-390.153 -175.309 810.36 101 98 86
-263.71 -19.074 1253.59 89 63 48
-120.02 9.67099 1028.7 194 178 148
-106.123 72.1194 1043.55 236 243 242
-38.9645 123.446 1092.13 246 194 164
49.2827 152.117 1178.06 146 113 94
-16.896 224.396 1149.63 181 124 115
-16.896 224.396 1149.63 181 124 115
-303.796 -171.324 531.316 120 137 130
118.972 -220.499 881.196 44 36 27
-32.8641 -72.8646 307.523 51 32 18
759.799 -322.86 1630.33 154 173 149
455.335 -113.934 1549.91 89 91 66
-230.583 40.8281 1178.23 95 66 53
-32.1928 68.7417 1081.39 218 126 104
119.612 86.7881 1191.1 250 208 172
143.656 164.677 1230.4 241 239 230
-46.1298 -77.6841 283.341 124 122 116
672.318 -289.833 1542.78 85 75 75
672.318 -289.833 1542.78 85 75 75
-302.715 -109.605 596.07 129 140 133
-250.848 -84.7138 520.185 87 71 59
87.2269 -73.451 1158.1 232 185 156
-6.31104 47.1053 1100.09 255 254 252
-93.9728 117.702 1069.4 254 251 253
-120.494 162.212 1116.85 99 68 49
39.4274 326.364 1212.42 177 196 153
2.89835 361.845 1198.51 87 73 71
711.197 -116.881 1615.82 241 238 225
711.197 -116.881 1615.82 241 238 225
528.468 -76.3195 1611.46 59 43 37
-141.768 47.7545 1103.12 67 44 32
501.642 145.026 1840.05 165 154 143
-84.989 -113.46 424.73 139 139 132
372.041 -217.086 1584.54 50 46 38
696.229 -15.1371 1597.89 251 253 251
467.18 38.3532 1808.27 33 27 22
552.48 285.928 1843.14 81 71 64
505.398 374.743 1802.8 207 203 193
477.821 -202.923 1445.85 49 44 37
-20.4504 -68.0284 1093.91 67 98 103
111.047 122.294 1213.11 205 170 159
262.157 177.475 1545.98 149 139 120
675.359 -83.9973 1577.25 154 137 125
20.9267 609.417 1572.23 56 55 52
38.8168 119.827 1211.45 183 130 105
38.8168 119.827 1211.45 183 130 105
