-14.373 -283.367 798.457 170 154 149
-203.796 -184.183 658.195 149 144 138
-977.347 -474.176 1762.07 138 159 151
-307.817 -201.523 810.975 50 60 53
-611.961 -367.867 1897.6 121 133 131
-94.2893 -58.3519 269.609 65 61 54
-425.297 -177.894 1088.99 217 220 218
491.192 -174.731 1284.88 90 79 60
510.774 -167.726 1246.94 221 211 196
427.167 -135.948 1317.58 115 104 97
563.152 -98.5892 1400.94 203 178 147
664.49 -80.0784 1346.49 150 160 142
483.599 -66.7499 1297.31 255 252 237
500.969 -40.1481 1318.65 249 239 240
697.023 -23.1618 1415.67 226 236 223
-212.656 -18.7184 1061.56 89 63 46
458.634 -18.7927 1314.06 92 77 81
624.162 31.2944 1427.35 247 247 237
479.703 33.4758 1355.19 77 68 55
474.902 80.6818 1386.41 196 185 154
626.211 132.514 1458.28 104 94 73
488.361 225.229 1598.11 31 40 41
643.047 265.906 1535.71 235 249 248
-218.862 353.508 1123.37 254 253 233
-184.2 377.428 1154.53 252 243 239
-184.2 377.428 1154.53 252 243 239
-180.564 419.986 1204.46 28 11 7
759.615 -428.597 1416.85 164 126 98
-319.902 -191.833 789.059 33 42 38
-336.96 -165.029 718.972 44 55 51
-504.657 -200.747 902.954 36 39 31
606.053 -306.642 1404.57 179 204 207
-539.411 -141.963 722.705 87 93 88
630.691 -233.276 1318.96 203 241 213
612.512 -218.321 1256.48 116 138 114
628.089 -210.657 1285.92 228 238 229
389.379 -194.306 1219.9 216 209 200
-679.081 -108.009 984.449 102 107 105
558.668 -110.493 1317.92 142 114 99
-195.599 -101.431 1205.35 119 123 123
531.058 -104.479 1326.64 196 187 156
437.12 -43.6889 1327.34 66 43 38
524.946 -38.4733 1305.65 96 72 56
534.08 -26.0907 1340.98 253 233 225
413.811 6.93645 1309.08 123 115 109
580.753 6.77261 1367.19 255 251 239
469.336 15.8165 1341.17 70 53 64
-173.227 17.7329 1006.31 255 202 183
-165.376 34.6355 1041.45 49 20 11
-165.376 34.6355 1041.45 49 20 11
-276.192 44.3729 978.157 113 45 22
-250.297 48.3895 1027.29 165 93 112
-243.814 54.0219 1040.5 250 253 243
592.463 80.6471 1418.22 252 253 231
-246.052 60.5807 1018.28 123 85 65
-282.279 68.5298 992.504 42 8 8
-151.985 83.726 1036.83 175 118 107
-46.1735 91.3457 1105.45 255 246 231
631.541 143.069 1459.38 255 255 250
503.361 213.441 1685.47 61 65 67
-137.972 158.473 1078.66 255 246 226
554.939 230.848 1522.22 215 242 253
-112.929 207.257 1246.13 255 250 243
-50.3576 188.365 1152.53 86 50 32
-126.892 183.848 1114.31 103 78 70
-302.1 186.166 1111.33 112 115 104
-107.916 180.889 1073.85 253 248 241
672.074 354.317 1555.99 252 255 252
-81.8864 270.085 1138.9 248 252 252
-195.52 259.984 1089 250 252 249
-247.81 353.231 1156.72 251 252 253
-219.583 356.039 1103.82 44 29 11
-231.335 355.495 1099.55 226 211 197
-218.78 497.591 1219.3 39 33 30
-142.381 -135.119 392.139 140 144 138
-142.381 -135.119 392.139 140 144 138
-416.631 -200.544 754.749 66 80 74
-20.2033 -684.933 2604.15 139 114 79
-119.512 -135.997 533.288 157 160 150
-119.512 -135.997 533.288 157 160 150
-463.971 -217.314 1084.08 50 51 50
657.16 -246.321 1315.94 248 248 227
157.585 142.074 -790.648 165 147 124
625.932 -223.286 1279.98 117 139 115
-299.17 -122.093 743.595 223 227 224
416.022 -158.361 1268.91 128 124 112
-730.396 -114.331 1047.07 6 7 5
437.045 -130.757 1280.06 255 250 252
665.786 -137.861 1354.33 247 255 242
623.061 -125.181 1342.45 245 249 220
424.253 -118.77 1320.49 27 8 7
441.616 -77.8152 1321.84 238 226 219
503.077 -55.244 1338.15 141 89 76
-150.114 -21.9665 1047.98 169 115 84
438.441 -12.1223 1321.83 64 49 50
587.137 6.24551 1376.59 255 253 245
621.381 50.0644 1384.37 251 252 238
620.015 60.0134 1432.87 169 171 126
-239.669 70.7649 1026.47 242 240 234
-235.607 91.6429 1028.11 255 248 233
-323.314 98.7197 1072.33 159 134 118
482.682 172.688 1423.09 28 19 12
707.044 200.115 1645.08 154 171 172
-271.829 197.769 1060.33 255 246 228
546.181 311.91 1600.82 28 64 81
666.852 315.92 1613.27 109 127 165
666.852 315.92 1613.27 109 127 165
6.42526 239.567 1132.53 198 131 113
-245.112 332.472 1149.29 248 255 255
-78.2046 343.453 1168.82 143 160 114
-78.2046 343.453 1168.82 143 160 114
-186.846 337.396 1121.18 254 251 246
-186.846 337.396 1121.18 254 251 246
-239.658 494.209 1288.26 38 37 27
-337.211 -316.996 1011.92 145 148 140
-567.246 -277.712 1049.32 69 82 77
-782.435 -340.206 1513.45 115 120 108
-782.435 -340.206 1513.45 115 120 108
-427.517 -188.797 848.382 79 80 70
418.331 -117.699 1303.59 27 8 7
574.456 -88.0638 1327.92 250 248 243
473.432 -42.2117 1342.53 111 106 79
-215.163 -23.8892 1054.62 80 57 42
-116.805 -16.0536 1060.16 81 32 18
467.214 -15.3286 1333.28 95 75 82
551.715 -11.1981 1367.03 111 69 54
551.715 -11.1981 1367.03 111 69 54
458.578 4.85299 1341.19 248 255 254
458.578 4.85299 1341.19 248 255 254
565.101 21.7518 1374.81 254 249 239
-18.4321 146.273 1150.06 224 162 121
-18.5914 147.98 1164.43 224 162 121
516.691 347.72 1661.02 62 60 54
660.664 367.601 1645.55 217 242 241
602.629 374.569 1624.46 131 167 171
-101.647 348.775 1008.32 251 250 250
728.942 -401.311 1332.09 102 54 30
-74.7587 -197.482 695.626 48 27 20
-155.485 -194.791 722.33 92 95 87
-252.908 -171.8 713.535 136 142 137
346.91 -241.775 1349.33 168 163 164
599.031 -179.57 1369.37 105 89 84
-177.086 -36.5664 1056.46 46 33 29
-161.769 55.8241 1061.01 252 245 238
-253.2 74.5458 1026.8 187 226 205
-171.724 200.264 1105.42 253 254 249
-241.548 239.049 1065.88 135 42 27
-240.395 298 1096.04 239 243 245
-252.16 -266.168 796.658 96 93 82
6.77847 -272.726 942.211 83 75 75
-432.617 -165.606 740.6 128 142 134
-379.329 -125.792 633.479 73 69 58
-379.329 -125.792 633.479 73 69 58
525.595 -214.684 1266.42 88 68 66
665.264 -134.942 1351.3 250 255 246
-190.743 17.7618 1038.3 225 160 137
-206.826 41.7187 1029.83 212 125 103
-228.642 45.5692 1012.72 250 232 233
-291.82 87.7082 1011.82 232 219 206
-146.619 102.246 1113.1 106 62 57
-146.619 102.246 1113.1 106 62 57
-146.619 102.246 1113.1 106 62 57
-51.8525 104.191 1124 255 230 219
-136.754 134.263 1113.75 104 55 41
-136.754 134.263 1113.75 104 55 41
-136.754 134.263 1113.75 104 55 41
-222.102 143.863 1069.06 223 181 149
-196.989 213.224 1093.58 241 220 199
-194.825 238.254 1095.09 121 81 62
-263.406 282.237 1156.62 212 211 208
-263.406 282.237 1156.62 212 211 208
378.414 -363.751 1167.83 47 37 29
-238.862 -222.193 718.897 139 146 143
-238.862 -222.193 718.897 139 146 143
-353.179 -194.094 1138.32 164 142 115
450.035 -123.813 1309.57 221 223 223
708.545 71.9583 1450.36 140 159 123
643.917 106.784 1438.98 130 120 100
643.917 106.784 1438.98 130 120 100
-122.651 172.615 1122.11 142 118 109
-9.07254 193.069 1214.35 251 245 227
-211.449 380.086 1120.05 239 221 209
569.142 -27.0768 1373.02 149 113 100
697.037 -1.94914 1414.64 147 169 144
-212.019 91.2375 1048.1 196 112 91
-274.292 128.711 1031.56 245 248 246
-274.292 128.711 1031.56 245 248 246
-136.289 341.021 1161.61 164 189 139
-426.506 -191.516 763.711 83 82 79
-426.506 -191.516 763.711 83 82 79
-426.506 -191.516 763.711 83 82 79
-382.644 -268.695 1413.07 175 152 132
-382.644 -268.695 1413.07 175 152 132
493.006 -241.041 1345.71 106 111 100
630.286 -253.449 1398.87 96 86 96
-439.522 -163.883 1046.74 76 60 44
-74.1967 -48.0202 1075.59 212 184 138
483.113 187.868 1765.45 146 137 119
610.02 10.5495 1355.42 255 255 250
610.02 10.5495 1355.42 255 255 250
597.61 210.864 1496.77 216 244 248
494.832 302.561 1675.73 89 75 62
-179.863 -66.8972 1113.9 47 73 79
-425.632 -131.517 872.396 70 58 42
646.567 -33.9857 1483.92 255 255 251
-102.416 286.461 1259.1 203 213 195
-136.269 139.774 1056.38 176 142 117
