-1035.16 -317.48 1341.43 43 48 47
-236.956 -147.912 740.094 144 148 144
837.644 -294.734 2104.75 129 125 113
591.503 -167.142 1655.18 180 197 179
576.188 -103.228 1655.64 254 255 228
576.188 -103.228 1655.64 254 255 228
73.831 4.4962 1183.56 255 235 201
529.092 74.511 1630.87 188 188 163
-20.0368 81.741 1145.9 255 253 240
498.212 180.193 1611.57 250 250 240
126.54 156.464 1265.52 255 227 205
91.7207 159.462 1238.01 148 118 105
512.111 256.602 1780.23 213 246 247
512.111 256.602 1780.23 213 246 247
65.9995 195.512 1231.67 101 82 58
36.8662 323.076 1226.42 251 253 239
-9.61718 381.74 1215.43 254 254 246
-9.61718 381.74 1215.43 254 254 246
-21.4558 385.146 1208.41 72 38 18
44.3055 413.854 1251.47 129 105 78
118.919 532.198 1362.54 41 42 35
-603.777 -310.513 1048.7 138 140 136
-193.417 -54.8899 211 143 148 143
-412.546 -239.555 1427.36 137 145 137
-424.951 -191.174 1229.47 148 152 148
450.253 -122.38 1521.74 92 76 71
362.658 -84.83 1710.24 121 121 94
592.684 -44.6766 1903.87 182 147 132
475.539 -21.2696 1552.79 254 250 244
277.175 -14.9595 1694.96 92 90 60
514.972 -1.96157 1715.25 147 124 123
-1307.62 6.16155 1739.22 76 73 53
126.029 63.9153 1304.57 191 127 100
396.89 298.138 1711.43 137 159 152
450.922 319.494 1841.25 84 109 112
47.9525 230.618 1198.12 255 247 241
3.16758 248.061 1166.97 124 85 65
85.1638 289.421 1258.46 253 253 254
-94.4135 282.232 1194.54 97 85 73
94.6839 318.48 1302.79 247 252 240
-34.7526 298.495 1159.04 253 255 253
-14.8527 371.833 1151.92 125 89 63
-488.626 -242.888 821.279 76 84 78
-506.031 -284.857 1399.59 159 152 146
530.244 -265.901 1716.25 115 124 131
530.244 -265.901 1716.25 115 124 131
540.865 -243.011 1614.72 187 218 220
583.943 -122.453 1661.57 144 151 121
434.87 -97.0455 1544.61 42 8 0
-29.3763 -51.434 1271.54 176 168 174
-29.3763 -51.434 1271.54 176 168 174
-848.421 -15.9907 1177.44 42 36 17
70.2057 -7.23007 1211.47 71 0 0
-22.1901 10.0773 1100.11 223 211 190
-43.9188 21.6252 1097.08 236 219 194
-43.9188 21.6252 1097.08 236 219 194
-38.6534 30.8887 1058.66 193 111 91
-156.654 42.9017 1133.42 72 33 17
-55.0544 68.6374 1095.57 248 254 248
527.617 161.986 1673.13 123 106 88
-68.9114 118.375 1070.34 107 40 14
-68.9114 118.375 1070.34 107 40 14
-57.7254 160.794 1103.31 251 247 250
524.08 386.337 1809.03 150 176 179
524.08 386.337 1809.03 150 176 179
12.4352 362.162 1211.06 252 253 246
-27.3085 345.439 1124.29 245 239 238
-7.07656 442.837 1180.86 254 250 236
-514.519 -188.355 673.865 134 143 137
299.888 -420.879 1703.11 188 174 161
274.823 -298.231 1272.28 158 150 148
515.993 -238.702 1610.71 193 216 212
362.58 -183.523 1586.97 7 7 2
532.475 -143.463 1534.99 129 121 114
510.066 -136.045 1604.1 116 93 79
-149.243 -41.8882 1307.65 46 37 32
-149.243 -41.8882 1307.65 46 37 32
551.58 -21.1872 1682.91 141 110 105
544.299 1.78426 1661.11 140 117 94
531.529 33.2839 1649.57 233 228 207
629.525 85.9042 1735.73 162 164 137
-28.3644 83.1129 1116.21 254 253 255
45.7624 164.636 1189.03 243 234 213
495.335 272.231 1706.86 236 249 246
-28.6097 259.216 1146.76 170 91 83
-3.30235 271.447 1192.8 255 237 247
-3.30235 271.447 1192.8 255 237 247
20.7507 312.009 1214.52 131 101 88
-19.0704 436.192 1198.81 60 48 39
-537.466 -197.317 691.213 40 48 44
-537.466 -197.317 691.213 40 48 44
-537.466 -197.317 691.213 40 48 44
-562.2 -122.983 732.558 148 158 149
-562.2 -122.983 732.558 148 158 149
-382.493 -299.177 1936.13 52 37 21
-393.241 -170.674 1179.17 69 70 71
-655.604 -91.2402 1025.57 126 141 134
-72.1816 32.9006 1060.52 226 206 188
55.6089 141.175 1197.71 159 105 81
55.6089 141.175 1197.71 159 105 81
142.627 203.228 1291.05 255 255 240
-24.1029 200.648 1146.87 241 202 168
10.3618 253.431 1182.14 160 106 89
10.3618 253.431 1182.14 160 106 89
-33.0864 282.766 1153.84 248 250 251
-42.3289 342.347 1162.44 66 42 37
3.59542 345.083 1161.02 255 253 253
-586.485 -120.568 999.761 88 94 89
-586.485 -120.568 999.761 88 94 89
-586.485 -120.568 999.761 88 94 89
-0.198299 96.5286 1153.02 228 140 119
-160.782 106.505 1157.73 151 112 81
-160.782 106.505 1157.73 151 112 81
128.399 128.608 1289.77 252 224 203
-143.504 262.818 1256.54 156 113 100
-143.504 262.818 1256.54 156 113 100
-50.2822 253.168 1120.85 159 159 152
30.8824 268.424 1174.89 250 253 253
-664.153 -209.422 886.06 81 90 83
-33.5868 -252.993 1506.92 49 43 36
-916.864 -160.082 1227.12 80 79 69
-609.131 -102.815 1008.17 127 139 132
24.2867 78.2142 1176.01 255 247 247
24.2867 78.2142 1176.01 255 247 247
508.487 211.981 1676.01 245 253 248
-622.982 -136.537 837.768 122 143 131
-622.982 -136.537 837.768 122 143 131
389.763 -218.02 1580.64 189 160 155
-117.399 336.904 1266.05 137 92 57
-842.183 -111.264 1266.89 79 69 56
-213.362 84.6612 1150.19 82 53 38
-94.11 193.681 1147.4 81 61 43
-377.882 -210.767 1117.39 132 134 130
-105.597 69.204 1108.15 59 39 31
388.114 447.495 1903.52 219 217 209
404.555 -139.525 1557.93 59 54 52
404.555 -139.525 1557.93 59 54 52
442.761 121.851 1645.06 48 40 34
-145.546 99.4674 1045.55 169 138 110
335.657 50.9778 1505.78 80 84 55
