196.545 -655.636 2093.79 79 54 40
-969.947 -277.513 1883.9 54 51 36
-1042.6 -269.897 2092.52 49 48 31
232.174 -131.979 1095.35 240 182 177
232.174 -131.979 1095.35 240 182 177
126.54 -88.2606 1056.42 41 42 37
166.033 -53.8728 978.881 165 157 141
377.3 -24.46 886.768 225 226 203
-309.605 -34.3145 1275.76 156 139 116
-330.328 -32.5871 1214.72 149 127 104
328.906 -12.1903 879.624 99 130 101
-467.213 22.4716 1119.19 255 250 228
-305.907 30.9717 1234.36 55 46 42
-398.002 30.0954 1026.65 255 236 233
-347.703 53.5775 1133.06 254 238 200
239.546 58.8344 1057.35 248 238 228
133.628 65.8646 1016.24 178 170 169
245.144 84.8344 1026.54 212 206 170
395.922 82.1037 942.491 247 255 237
395.922 82.1037 942.491 247 255 237
-504.431 123.194 1318.41 176 142 133
283.373 105.462 1024 174 112 84
61.8956 59.0549 432.722 200 172 153
-358.532 129.236 1185.58 255 244 224
-300.371 238.425 1358.56 133 126 110
-300.371 238.425 1358.56 133 126 110
-445.599 242.41 1250.03 253 254 250
-521.556 263.285 1321.23 255 254 241
-311.322 300.11 1259.45 213 166 135
443.88 238.542 979.409 149 156 145
-209.048 371.862 1425.63 14 11 9
-218.273 367.834 1401.5 207 209 188
-209.35 347.468 1311.09 201 200 189
306.904 364.158 1156.73 101 116 119
-209.414 460.14 1275.63 62 77 71
443.724 470.662 1230.5 235 250 249
367.836 -620.999 1932.46 253 255 254
238.575 -166.617 1138.8 64 39 38
330.327 -125.508 986.988 123 169 167
139.6 -102.631 1092.25 183 177 170
-2335.83 -289.35 3913.76 161 164 156
-2694.34 -237.743 4648.24 172 172 163
-312.434 -53.2606 1259.53 114 106 87
355.509 -34.1548 878.863 139 154 116
92.3313 -28.14 975.903 49 51 47
-363.117 -4.13004 1175.78 139 120 95
301.71 15.2128 910.129 82 71 62
282.966 27.0574 922.003 96 77 69
-346.973 42.2266 1137.72 115 65 29
-316.561 46.2026 1223.96 58 44 40
-559.33 71.3781 1255.57 253 252 242
249.23 100.741 1035.34 186 198 156
-391.339 183.477 1242.81 255 252 229
191.939 171.967 1060.92 253 252 251
393.178 164.95 1009.52 11 19 16
-172.919 264.667 1509.35 61 55 40
-490.084 260.072 1307.11 254 247 237
449.155 243.607 1032.16 240 242 237
418.756 269.239 1062.01 253 252 238
-270.948 322.435 1264 255 245 234
429.481 275.134 1038.56 199 213 192
-265.989 348.623 1286.46 255 216 188
-164.163 493.411 1463.85 58 64 54
444.898 411.395 1213.43 170 201 206
-463.867 574.286 1606.74 240 240 236
-191.072 610.791 1562.19 90 110 106
384.573 504.781 1216.96 221 248 247
220.735 -614.909 1880.38 72 31 16
266.152 -108.258 1033.68 96 47 35
279.142 -89.42 952.684 60 64 64
279.142 -89.42 952.684 60 64 64
-895.214 -100.697 1513.32 98 104 97
-323.941 -55.7302 1246.67 51 42 30
-385.758 -19.9223 1111.43 58 76 81
-260.91 -13.2442 1379.46 48 40 38
-340.988 -10.8254 1197.58 152 132 112
368.507 12.8521 935.887 76 102 87
-496.889 62.596 1175.12 225 154 133
210.789 52.4379 955.694 238 239 230
210.789 52.4379 955.694 238 239 230
-221.681 82.64 1369.33 22 21 18
233.764 57.4503 987.342 112 86 67
368.546 58.0331 919.17 235 250 244
368.546 58.0331 919.17 235 250 244
412.439 94.4516 971.649 167 180 152
298.95 117.988 1063.19 213 141 112
414.936 132.891 1000.12 187 206 196
401.429 138.323 974.569 105 121 98
261.311 150.23 1049.43 73 46 40
245.727 183.402 1070.14 85 59 54
245.727 183.402 1070.14 85 59 54
255.654 189.985 1064 253 241 230
255.654 189.985 1064 253 241 230
173.028 212.23 1109.38 99 87 80
286.699 257.479 1126.92 152 149 129
412.951 285.77 1044.15 255 255 228
-257.877 401.25 1314.16 252 251 242
-1763.91 -373.071 2927.21 92 92 81
-244.115 -7.65557 1377.98 187 182 169
-274.802 21.8833 1340.58 155 130 111
-513.492 62.3938 1136.13 253 251 246
-241.068 89.8716 1366.33 129 130 127
275.997 81.83 982.653 142 116 103
-548.153 110.471 1223.38 255 251 242
229.085 105.222 995.01 156 118 99
280.164 110.706 1006.74 210 131 106
207.084 122.49 1038.01 167 110 88
278.983 124.214 1003.53 228 219 217
-402.842 174.679 1180.39 255 244 224
173.674 176.801 1101.79 244 241 246
-465.282 227.176 1361.31 134 118 101
400.987 287.727 1102.14 177 171 134
-240.102 368.405 1345.53 152 144 130
405.447 452.002 1464.5 237 250 244
318.606 -128.637 1014.79 208 180 174
318.606 -128.637 1014.79 208 180 174
262.307 -122.196 1026.82 200 178 164
311.568 -103.619 944.776 49 45 42
-1511.32 -123.199 2756.84 170 182 169
362.666 -10.2417 939.228 116 146 123
145.692 8.42166 981.48 137 135 116
137.563 39.237 1025.98 249 254 254
349.109 84.131 979.75 254 254 232
-464.193 135.636 1251.46 159 102 92
-351.857 150.21 1177.27 255 252 253
-351.857 150.21 1177.27 255 252 253
-272.168 290.732 1275.93 109 84 66
329.858 305.946 1167.11 130 117 88
-345.681 371.104 1342.59 253 254 248
-254.128 364.387 1314.8 128 74 45
-430.56 480.812 1456.58 86 88 86
-430.56 480.812 1456.58 86 88 86
-236.691 518.173 1450.49 70 73 71
455.913 428.154 1198.97 224 246 240
455.913 428.154 1198.97 224 246 240
-319.285 -654.812 2154.94 101 107 99
-274.995 -481.331 1735.55 32 31 28
-1173.6 -232.621 2549.63 89 85 73
110.899 -55.4339 1008.34 70 50 42
-396.252 213.806 1261.29 255 252 250
284.244 186.462 1103.14 118 91 87
-484.184 274.451 1306.31 254 252 254
328.971 278.75 1125.54 231 231 203
-468.095 400.831 1365.7 89 84 81
-468.095 400.831 1365.7 89 84 81
-302.446 -8.68373 1241.38 146 135 122
-478.54 108.574 1332.64 248 242 230
254.845 127.776 1030.06 221 194 180
-321.459 251.448 1292.99 253 255 252
-275.267 -4.98577 1366.14 70 66 59
-373.85 61.4132 1181.31 250 210 180
-340.976 169.503 1225.62 253 226 192
-643.86 -542.383 2319.46 157 166 159
406.626 88.9591 978.7 202 213 193
297.248 172.777 1077.81 150 124 111
297.248 172.777 1077.81 150 124 111
-197.141 259.649 1483.6 68 56 52
269.784 219.284 1077.6 188 174 132
-159.44 178.491 1505.93 181 172 152
395.622 418.605 1217.34 206 233 233
-474.07 -542.968 2088.57 27 26 24
-1944.79 -402.419 3739.02 109 103 84
-418.089 60.2251 1123.71 238 233 221
362.301 194.223 1042.98 252 255 251
-210.216 445.146 1415.25 59 58 55
