-365.404 -252.164 825.521 38 50 43
-327.205 -609.203 2388.38 132 139 130
29.2949 93.279 -445.774 90 73 53
-605.747 -279.992 1477.12 109 97 71
331.587 -193.554 1198.21 41 48 21
427.334 -99.3822 1178.94 87 71 64
535.169 -59.2564 1164.33 156 108 83
-217.545 -1.41748 1002.05 121 72 60
542.168 22.2006 1231.23 82 61 44
594.648 30.5244 1300.95 84 69 58
-120.39 35.4304 1007.13 255 240 230
-120.39 35.4304 1007.13 255 240 230
466.104 87.6649 1249.04 93 82 59
-227.315 72.3432 1007.65 231 166 132
646.406 99.6539 1350.02 255 255 224
698.389 136.54 1333.77 206 208 193
644.63 168.19 1365.23 244 252 247
-166.61 138.676 1093.2 255 248 221
-178.148 310.552 1102.4 247 251 230
-206.296 315.047 1091.04 253 235 226
-39.2996 380.142 1157.46 7 11 8
-188.172 -294.155 890.973 78 77 64
-415.173 -558.716 2701.41 97 88 67
-314.115 -204.575 1133.35 173 166 142
203.771 -153.566 921.067 43 45 18
-571.782 -142.143 964.482 90 100 92
631.232 -98.4328 1136.8 246 249 237
-192.082 -103.392 1205.01 124 132 133
-192.082 -103.392 1205.01 124 132 133
675.117 -95.2281 1228.21 178 190 171
-265.657 -92.8311 1206.11 75 60 49
469.312 -74.3035 1219.9 59 54 52
522.432 -71.078 1206.85 103 104 79
-79.7707 -38.7626 1037.18 255 233 193
-288.38 -33.3595 1075.14 67 59 55
517.178 -21.0463 1193.16 254 246 238
562.83 -1.95641 1286.2 251 244 234
469.564 23.2006 1201.18 255 250 251
-192.242 43.8258 1028.91 249 222 204
-305.592 73.8092 996.821 86 79 71
-305.592 73.8092 996.821 86 79 71
-32.0632 86.5854 1129.25 237 229 198
501.324 106.467 1261.26 246 242 221
501.525 121.409 1304.66 156 161 142
-307.78 99.6828 985.431 255 250 240
-327.013 114.989 1059.58 84 37 28
-272.456 120.648 1020.57 248 254 254
623.537 175.906 1363.86 236 244 235
-122.528 177.666 1111.63 254 250 240
-75.7629 179.725 1089.65 251 246 240
-64.1514 205.357 1180.37 64 31 11
556.492 246.915 1403.84 226 254 255
-127.658 211.213 1187.61 255 253 247
573.997 259.384 1419.98 39 75 118
569.143 332.692 1455.08 40 74 81
656.124 439.759 1894.82 50 54 49
-271.709 283.701 1086.6 248 247 250
-238.323 357.089 1115.22 251 241 226
-225.711 361.64 1121.42 25 27 19
-225.711 361.64 1121.42 25 27 19
-245.86 373.108 1133.56 31 7 0
-211.139 377.887 1138.15 25 20 20
-211.139 377.887 1138.15 25 20 20
-208.841 387.915 1140.46 255 253 246
-276.858 -160.28 545.817 53 66 60
-608.605 -291.933 1259.96 60 65 53
-285.045 -55.7509 338.239 3 2 1
455.548 -110.388 1215.16 251 253 254
509.002 -50.2698 1180.5 134 98 85
586.044 -45.3136 1199.57 189 186 170
-319.35 10.3544 993.531 86 72 47
-264.357 12.5379 948.472 205 181 150
-264.357 12.5379 948.472 205 181 150
721.361 28.9747 1307.51 69 74 67
551.158 30.4811 1279.45 255 251 243
-52.4961 31.9705 1091.24 152 114 68
524.591 43.3282 1179.75 255 255 242
-270.937 54.8428 1022.52 147 100 95
-129.666 56.925 1055.64 199 132 101
-129.666 56.925 1055.64 199 132 101
628.294 76.2188 1272.85 252 252 243
-299.358 60.9077 979.059 236 253 244
-271.537 68.7428 1036.13 148 95 83
-271.537 68.7428 1036.13 148 95 83
-56.1591 104.363 1103.19 247 237 237
633.386 179.99 1385.65 237 250 245
510.776 174.318 1292.79 130 127 119
690.404 220.585 1468.51 148 174 173
-306.93 215.302 1117.32 253 253 240
559.906 328.892 1506.12 37 73 92
-196.213 270.109 1089.47 251 252 242
-255.951 277.618 1062.3 92 58 61
-179.874 297.793 1131.38 205 154 145
-273.014 340.658 1164.24 250 254 255
-39.9755 101.663 309.5 248 252 250
375.933 -206.322 1251.33 2 2 0
341.762 -228.229 1446.21 28 28 21
608.408 54.7561 1297.64 193 187 179
496.983 206.418 1447.84 114 133 125
-10.9915 198.834 1149.48 255 255 243
637.8 306.035 1449.4 213 240 244
-225.477 246.811 1036.14 254 251 249
-90.6522 422.145 1228.87 254 250 251
-106.408 427.468 1225.41 255 252 252
-254.771 -171.977 784.124 108 125 118
635.595 -79.7653 1271.38 155 153 131
635.595 -79.7653 1271.38 155 153 131
568.82 -60.0727 1195.88 250 252 247
568.82 -60.0727 1195.88 250 252 247
-180.603 18.4024 1012.38 236 182 161
461.036 27.8417 1241.79 242 240 244
-313.575 65.2845 974.814 86 53 48
-91.284 207.731 1152.29 176 140 105
-263.646 246.725 1069.91 145 57 47
-260.681 303.662 1096.31 231 231 230
-205.779 408.994 1158.95 31 22 24
-428.252 -225.85 882.432 128 145 136
519.071 -85.1648 1226.5 113 87 77
-225.003 48.3958 1023.22 214 137 100
-156.826 106.117 1055.23 121 70 64
388.291 128.893 1225.64 72 71 57
-202.553 136.243 1059.16 229 200 181
-147.34 137.495 1057.01 100 48 30
-147.34 137.495 1057.01 100 48 30
-147.34 137.495 1057.01 100 48 30
-147.34 137.495 1057.01 100 48 30
-103.241 178.99 1092.14 252 249 236
-216.283 249.69 1104.41 132 91 70
-216.283 249.69 1104.41 132 91 70
-247.915 -356.934 1055.86 140 145 143
-247.915 -356.934 1055.86 140 145 143
-247.915 -356.934 1055.86 140 145 143
447.935 -96.7216 1194.77 254 254 255
-119.878 -68.1152 1084.35 47 86 99
-133.685 176.185 1069.04 115 90 70
-234.424 394.607 1141.05 242 226 214
-271.387 -380.316 1436.43 101 79 64
-271.387 -380.316 1436.43 101 79 64
578.067 -0.746857 1269.89 136 109 103
446.554 66.8897 1270.74 50 41 39
-198.292 74.0065 1043.36 252 234 225
714.44 99.9447 1329.14 134 154 125
-221.039 94.5083 999.369 194 103 85
-296.112 133.71 1035.01 247 253 252
-296.112 133.71 1035.01 247 253 252
-158.434 355.444 1157.75 148 170 131
-381.471 -232.891 822.859 81 83 73
-381.471 -232.891 822.859 81 83 73
-246.638 -282.105 1281.46 172 152 131
-246.638 -282.105 1281.46 172 152 131
-382.386 -213.8 1134.59 73 60 37
664.047 -227.724 1214.71 136 174 137
314.75 -187.282 1268.82 57 51 44
-82.9619 -37.5781 1028.41 253 226 188
481.804 197.516 1581.31 137 126 115
6.2854 160.699 1216.39 152 140 119
-191.015 -122.39 439.722 137 147 140
566.602 348.061 1723.38 85 78 66
-457.438 -214.997 1161.48 74 55 44
365.755 -121.899 1212.8 24 17 15
-102.557 287.948 1189.49 218 223 214
-151.096 147.901 1047.13 137 107 87
