-204.925 -19.0678 1556.61 108 108 91
118.602 17.6873 1023.59 254 252 249
-74.6987 106.236 923.655 117 168 158
-42.6497 175.764 885.393 38 41 30
35.3673 182.224 899.545 27 24 21
225.353 224.296 913.419 42 19 7
19.3111 222.105 901.075 48 39 46
179.912 238.63 968.767 64 22 8
-2.06503 239.634 914.472 212 203 195
4.93701 243.828 909.774 227 218 218
150.126 300.01 1004.56 46 21 13
383.541 -502.145 1535.45 81 74 62
335.553 -320.027 1345.37 161 154 143
-100.549 -213.238 1762.86 174 160 144
-192.32 -91.9901 1533.37 37 27 21
-92.5799 -86.0012 1583.69 111 95 78
-160.853 -50.5208 1570.79 178 158 138
-239.553 -32.0051 1530.12 144 94 48
-165.668 -20.8099 1651.72 45 31 22
-23.5866 -14.2516 1635.93 50 20 13
-23.1653 93.5971 945.489 57 74 78
-23.1653 93.5971 945.489 57 74 78
-77.484 103.623 979.001 205 232 227
-68.3395 138.177 888.895 157 179 183
212.866 154.769 982.22 78 88 90
152.036 167.027 916.24 130 82 70
152.036 167.027 916.24 130 82 70
-20.9347 185.79 905.058 61 59 55
-28.9275 193.168 892.468 31 22 15
-11.7143 199.047 903.845 29 40 41
136.906 212.35 939.376 116 48 29
-17.4767 218.624 912.323 177 163 147
-17.4767 218.624 912.323 177 163 147
158.233 249.975 988.024 192 150 133
311.25 320.172 1066.2 36 13 6
68.8969 298.173 962.673 219 217 205
181.515 326.146 991.215 39 51 72
181.515 326.146 991.215 39 51 72
718.275 -461.153 1498.29 142 150 147
354.383 -265.036 981.039 41 27 19
-201.602 -137.78 1620.37 84 109 105
-307.903 -136.638 1691.13 199 189 168
89.727 27.2587 1034.43 188 163 142
218.939 43.6715 951.08 16 15 12
173.029 95.6139 927.488 143 117 96
13.1908 97.1335 910.735 63 60 57
212.109 169.384 957.797 143 100 84
118.216 293.894 974.371 186 185 183
118.216 293.894 974.371 186 185 183
276.781 309.965 1017.39 168 113 101
226.235 341.127 1034.41 32 48 60
1387.64 -881.406 2777.53 21 21 19
725.626 -466.522 1514.02 132 139 136
328.768 -247.516 915.5 46 33 23
-38.6641 -113.415 1396.18 43 36 27
-182.411 -93.3802 1536.95 36 26 13
43.9867 42.2677 1059.32 216 199 189
152.759 330.097 999.21 176 198 186
-220.775 -79.1058 1569.01 61 50 48
-220.775 -79.1058 1569.01 61 50 48
171.63 -0.378074 1114.27 91 96 85
160.742 103.15 934.799 38 41 38
-10.259 203.746 901.93 48 43 49
77.9932 234.021 936.399 126 60 43
77.9932 234.021 936.399 126 60 43
228.4 268.409 997.517 159 145 128
84.1536 285.248 955.033 161 158 155
59.3464 48.5263 1005.31 234 199 188
234.195 341.045 1020.38 57 56 56
-121.869 -65.4735 1571.03 169 158 145
-121.869 -65.4735 1571.03 169 158 145
-1.27646 177.967 900.048 186 190 186
-45.2818 192.07 886.175 66 51 49
157.136 267.026 976.389 59 41 42
157.136 267.026 976.389 59 41 42
-29.0292 -124.906 1497.6 48 40 35
134.025 -14.0552 1146.17 88 100 106
278.668 275.678 1032.5 50 44 45
-212.13 -61.5537 1562.19 58 44 34
254.984 213.153 1008.17 67 55 47
205.504 69.6641 944.241 44 38 32
-51.339 110.293 976.888 172 205 202
27.2671 61.2142 905.441 223 203 177
251.782 131.981 928.501 161 152 143
2.08871 283.593 931.205 57 52 50
-136.131 40.5278 1443.66 69 54 48
