-880.026 -302.98 1591.59 85 91 86
-347.09 -92.7546 725.478 152 158 147
314.761 -98.6665 895.954 186 212 204
139.043 -103.127 1059.79 184 175 172
-352.132 -57.6276 610.596 58 58 43
-308.286 -112.262 1338.33 67 54 34
-305.058 -67.1303 1237.04 116 97 82
-805.239 -58.9135 1276.35 91 88 66
-822.343 -36.7672 1304.76 99 112 103
389.294 -16.5931 895.999 215 228 215
246.878 -10.3514 917.61 209 189 182
-485.783 21.8211 1119.39 254 224 223
-418.584 41.5288 1102.68 255 231 211
-342.989 50.3969 1077.91 255 236 186
-377.35 60.3837 1054.8 252 211 177
-559.918 67.4804 1128.81 255 254 248
-559.918 67.4804 1128.81 255 254 248
-345.91 85.6812 1104.95 151 99 70
274.805 82.2846 997.847 254 242 213
227.803 104.623 1008.36 255 253 236
-326.769 131.553 1138.1 252 234 205
-1096.76 284.261 1702.52 192 192 175
-257.474 187.235 1072.47 116 112 94
-252.772 239.23 1303.72 103 64 48
-261.118 219.629 1110.09 58 30 28
445.311 195.386 1005.7 113 124 107
340.03 170.417 815.011 213 234 225
340.03 170.417 815.011 213 234 225
-221.735 330.299 1302.65 87 54 39
-210.681 328.544 1270.14 203 207 196
-227.109 357.971 1356.82 196 191 173
272.917 301.986 1125.64 86 64 50
-219.605 342.527 1282.35 198 207 191
479.858 405.56 1195.37 117 153 150
393.313 457.353 1186.74 227 250 253
457.14 553.401 1371.19 238 254 254
425.133 498.552 1227.3 39 75 93
432.506 499.015 1213.98 223 241 240
-212.985 611.525 1468.79 234 234 225
377.452 531.589 1273.41 125 155 157
193.526 -112.734 1044.88 230 228 225
277.068 -94.4026 954.704 194 221 216
294.499 -86.0632 925.532 235 249 244
306.999 -82.1921 899.868 123 148 136
165.974 -55.1001 915.944 197 183 164
320.676 -48.6164 895.208 236 236 224
-311.101 -51.0558 1186.35 133 117 102
-311.101 -51.0558 1186.35 133 117 102
-308.28 -42.1162 1253.5 138 115 93
101.09 -32.4443 951.974 49 48 44
-312.543 -28.8342 1267.04 117 96 76
-330.656 -19.0335 1149.4 45 40 27
280.499 -11.1276 916.455 70 50 52
247.241 -2.40973 916.834 74 55 41
-463.012 7.01145 1087.53 255 252 233
270.377 11.3965 921.718 173 162 159
-412.16 55.2799 1148.91 253 212 179
-294.895 60.3393 1283.88 191 169 155
-363.656 62.2447 1091.67 254 223 198
150.741 60.3357 971.279 255 248 255
-319.647 75.0839 1010.27 172 133 95
-336.609 84.3375 1105.75 255 252 224
204.386 77.9661 981.171 217 197 170
155.123 92.408 978.364 129 83 63
281.053 97.4292 989.889 185 108 86
-348.362 123.477 1105.32 255 253 228
-271.656 214.086 1205.21 65 54 39
427.057 187.615 995.287 237 250 240
170.001 218.151 1041.97 72 62 48
424.213 217.015 1024.1 96 111 99
224.198 252.074 1081.88 238 238 209
224.198 252.074 1081.88 238 238 209
466.209 243.473 1026.36 150 150 126
361.423 273.885 1107.53 254 254 246
325.201 278.086 1105.62 253 255 232
304.858 293.582 1131.75 237 226 201
-327.183 361.942 1244.4 254 254 240
525.631 444.568 1252.42 97 122 123
457.163 448.61 1236.97 229 255 252
161.558 -68.3372 990.709 23 19 14
-326.456 -53.9734 1197.84 44 40 33
-651.917 -42.4952 950.36 162 167 156
-663.979 -44.2594 989.773 83 90 83
-378.805 -45.7009 1142.12 57 92 90
-337.458 -10.9437 1142.14 149 136 112
-337.458 -10.9437 1142.14 149 136 112
-279.653 -10.947 1360.31 24 31 32
-411.363 26.5144 1052.72 109 42 20
-320.526 39.7828 1143.77 153 146 140
238.669 36.91 1034.67 113 67 54
243.616 51.6226 981.904 101 71 55
-491.287 61.082 1112.14 194 125 98
-476.276 68.9967 1131.26 141 104 88
298.985 118.236 1021.58 254 246 244
386.811 127.803 1024.48 255 251 247
386.811 127.803 1024.48 255 251 247
215.052 131.492 995.506 214 202 203
215.052 131.492 995.506 214 202 203
267.506 145.091 1043.67 61 30 29
250.984 148.098 993.44 243 229 222
-367.702 168.951 1112.96 242 218 190
402.657 160.695 1020.48 40 44 43
432.681 158.535 987.422 124 147 107
244.37 173.734 1038.76 68 40 38
244.37 173.734 1038.76 68 40 38
262.826 186.911 1069.04 253 234 213
262.826 186.911 1069.04 253 234 213
394.286 269.464 1051.1 252 252 229
238.482 315.209 1150.44 93 87 84
-246.041 361.774 1279.88 168 152 138
-247.953 390.341 1257.2 81 78 71
-252.147 380.106 1207.95 255 254 242
539.964 497.111 1268.93 133 138 143
-205.604 580.595 1447.78 97 111 98
529.886 562.516 1319.77 149 167 171
325.608 -131.965 1019.23 199 182 174
54.8647 20.5605 -156.935 95 93 83
256.79 -104.123 993.902 102 61 55
-616.017 28.8628 1149.7 228 219 200
-616.017 28.8628 1149.7 228 219 200
125.465 37.9037 981.893 112 94 91
-257.605 91.2423 1341.62 161 157 152
278.347 74.5425 959.602 126 108 86
409.436 74.7921 982.896 247 245 234
171.721 81.2622 1020.07 165 162 138
228.816 96.627 962.579 136 88 78
294.735 106.42 1025.9 208 132 105
200.654 126.69 1024.27 252 252 250
-427.3 182.875 1201.99 255 252 234
172.376 201.336 1069.74 93 70 69
-573.202 252.589 1291.82 166 117 106
-209.868 329.805 1417.22 172 163 146
179.848 246.135 1054.86 97 89 86
264.365 -123.798 1021.97 197 173 159
306.906 -101.897 907.747 53 57 60
359.463 -16.3977 905.48 112 143 114
-526.555 100.157 1154.77 202 142 124
-453.319 130.556 1166.15 143 93 81
-435.677 156.411 1145.33 142 97 75
-435.677 156.411 1145.33 142 97 75
-468.813 185.269 1214.28 248 243 230
-281.339 293.616 1251.14 99 66 55
381.697 265.873 1051.28 189 177 131
-513.337 338.226 1280.88 255 252 251
427.883 324.788 1131.36 98 95 71
427.883 324.788 1131.36 98 95 71
-568.236 -87.0569 1033.03 84 83 72
231.34 -67.4536 931.324 47 40 29
193.184 -61.6213 924.859 60 48 48
-293.47 -77.3695 1281.3 48 44 33
385.645 -35.1786 895.837 171 173 153
124.591 18.5389 968.318 84 74 69
124.591 18.5389 968.318 84 74 69
-504.831 108.305 1124.65 204 124 104
221.43 185.359 1073.83 148 124 117
-292.604 259.936 1245.91 125 84 66
309.828 257.425 1057.62 227 226 199
-385.184 -96.5384 610.73 70 67 58
373.535 -89.0989 892.448 41 106 127
-310.224 -8.22283 1211.2 145 136 124
-310.224 -8.22283 1211.2 145 136 124
-289.997 46.0245 1290.82 166 140 122
-535.035 97.6183 1242.1 252 255 251
-505.451 108.635 1125.88 204 124 104
255.268 119.577 1001.3 221 190 173
-495.991 281.421 1277.77 254 251 254
-421.759 339.5 1213.09 183 207 170
-323.263 -52.8841 1215.46 73 65 55
-352.705 55.6291 1071.83 231 203 169
302.706 109.486 989.642 246 242 234
-379.475 281.155 1228.42 249 255 251
-88.6797 -42.9888 189.652 154 162 156
-374.708 6.47395 1069.39 255 225 197
413.691 81.8766 980.027 215 226 206
-338.348 164.533 1167.4 249 203 171
-248.584 -153.051 657.443 158 165 158
-197.926 195.606 1574.68 177 167 151
465.537 225.752 1066.16 64 78 69
370.293 397.214 1167 196 230 225
-112.229 -57.25 290.992 26 25 24
374.575 196.069 1063.02 254 254 251
-615.878 -104.832 992.691 109 105 85
-412.806 57.9031 1070.85 252 254 251
-270.653 124.933 1195.72 69 56 43
-230.433 448.05 1360.54 62 60 62
