-112.483 -679.636 2533.73 91 80 58
406.906 -281.037 1181.88 169 158 143
344.197 -240.383 1162.09 177 171 168
372.506 -66.3648 1048.11 77 66 62
613.629 -47.1466 1101.3 255 255 237
636.269 -43.1228 1020.05 205 207 189
389.574 -35.6485 1070.41 232 217 209
436.999 -33.8662 1036.7 217 193 170
-249.403 -30.0546 970.213 51 27 15
-285.263 -11.2004 975.528 122 80 66
393.25 -1.79972 1070.29 252 242 245
393.25 -1.79972 1070.29 252 242 245
-252.931 31.1538 981.419 253 233 220
683.721 40.3994 1150.26 106 131 120
-271.177 36.554 955.972 183 100 70
-210.752 64.6955 1008.68 201 159 150
410.832 108.453 1283.15 45 44 24
478.362 95.427 1104.9 193 186 161
439.492 114.218 1138.23 69 65 58
-207.611 147.782 1010.97 255 247 233
548.611 284.197 1289.02 109 153 155
-79.8852 281.676 1118.05 254 206 178
-295.1 288.827 1089.55 255 220 197
-259.168 290.045 1073.29 245 230 213
513.55 344.885 1265.08 104 120 118
-300.459 346.931 1138.07 63 42 34
-73.2998 498.944 1254.5 139 169 161
-88.3764 528.247 1307.59 157 196 181
-182.627 -296.195 883.408 38 56 51
-440.293 -536.527 1642.24 121 121 113
611.775 -254.897 990.728 130 141 135
-119.551 -243.843 952.62 180 166 147
543.285 -226.981 926.579 78 146 162
482.152 -145.388 981.712 69 63 44
482.152 -145.388 981.712 69 63 44
377.885 -105.655 1053.9 102 87 78
370.073 -65.736 1072.85 143 131 125
488.717 -56.6814 1049.65 186 181 150
517.066 -54.5262 1048.88 161 104 80
628.108 -55.116 1053.8 96 132 115
388.643 -49.0105 1070.7 251 240 236
636.109 -47.1449 1054.81 227 251 244
-252.547 -38.155 960.872 103 90 76
575.498 -39.9413 1152.88 253 239 222
-260.804 -24.1278 935.837 29 16 11
510.981 -15.3874 1106.6 242 216 210
485.812 -6.70084 1046.4 72 50 46
533.156 53.0965 1132.23 248 239 216
491.372 54.44 1067.08 155 146 115
-138.89 50.8362 996.113 182 92 61
-162.446 56.0111 1052.5 56 15 9
-162.446 56.0111 1052.5 56 15 9
-224.742 55.648 991.542 253 250 246
-156.664 69.9353 1049.88 61 16 6
426.559 79.9922 1126.97 130 124 108
-148.556 80.5652 1022.81 59 26 12
-148.556 80.5652 1022.81 59 26 12
-326.499 101.724 977.139 242 254 251
-361.171 105.612 978.729 250 246 244
555.954 122.81 1115.26 179 166 150
-106.459 130.134 1033.86 205 122 72
616.936 185.948 1184.4 219 242 239
602.335 214.636 1260.56 80 120 138
-107.001 185.138 1001.75 62 42 27
-101.073 193.533 981.18 33 19 6
526.525 262.014 1304.4 87 119 113
-38.6271 298.033 1238.13 150 104 78
-164.061 259.215 1029.1 104 85 69
-86.9852 291.186 1132.99 44 21 8
-304.485 290.082 1065.87 255 250 255
-257.094 317.296 1099.7 255 246 235
-465.442 -611.177 1841.86 122 123 119
-402.121 -399.103 1309.04 71 70 59
-118.622 -548.549 1839.08 54 51 43
-74.7954 -684.846 2438.18 170 152 129
524.077 -155.409 953.475 45 50 55
599.306 -154.901 1003.93 91 115 102
633.129 -114.644 1049.67 237 253 246
535.849 -77.4796 1065.54 119 100 81
413.401 -67.4269 1045.98 64 55 55
459.724 -60.8746 1008.93 98 85 63
410.234 -54.565 1039.08 142 146 120
447.396 -46.7373 1065.95 87 71 44
531.18 -36.3433 1075.05 247 228 214
-232.848 -11.1916 968.098 254 229 204
579.752 -11.5637 1113.61 255 255 244
523.542 -7.26657 1117.64 71 52 49
-182.178 -4.06663 971.978 253 202 170
-160.396 6.58717 910.796 110 63 36
-160.396 6.58717 910.796 110 63 36
-110.521 23.0714 974.273 146 95 59
515.954 35.2503 1133.38 255 248 243
555.172 36.538 1132.83 125 96 86
-240.69 31.4391 975.57 54 29 17
-240.69 31.4391 975.57 54 29 17
-144.19 33.6911 996.596 146 76 61
-331.153 40.9828 982.553 159 96 106
-189.85 45.4507 992.062 201 138 115
-189.85 45.4507 992.062 201 138 115
-318.545 61.8192 979.547 243 254 237
611.646 83.2927 1128.44 253 253 238
-118.31 73.6879 1006.99 255 230 202
424.632 89.5451 1103.97 74 77 61
-80.7983 144.752 1064 197 123 70
-111.303 171.048 994.43 48 19 13
-331.311 171.097 985.323 251 245 236
566.054 320.548 1395.88 35 61 83
-309.224 252.732 1051.71 131 84 85
-62.7591 288.078 1110.38 211 122 89
-23.3598 324.51 1126.95 222 209 195
-276.243 448.583 1272.86 46 44 39
-18.942 534.499 1316.79 115 147 138
-332.233 -361.346 1104.89 135 145 139
-369.461 -364.662 1195.93 71 70 59
-301.865 -378.121 1397.09 73 36 20
-245.145 -43.2371 986.143 19 32 23
473.054 -44.0509 1071.89 219 203 181
-231.113 -22.286 983.972 163 113 78
-190.255 -14.7319 960.338 83 48 38
-377.165 50.2985 967.997 65 54 50
443.569 67.7456 1102.67 136 139 110
-282.099 70.5371 1021.66 255 242 236
-282.099 70.5371 1021.66 255 242 236
-85.69 149.255 1110.1 197 123 70
-264.466 230.495 1061 131 67 64
662.267 329.834 1345.1 61 106 130
629.849 395.553 1432.72 98 140 143
-142.626 317.317 1099.72 136 167 119
-290.898 392.25 1154.49 82 71 54
-19.2044 528.365 1302.55 115 147 138
607.158 -86.818 1072.06 234 240 210
651.786 -57.2547 1059.03 107 140 110
542.708 -53.375 1053.49 250 254 243
686.924 4.11366 1110.39 108 121 99
686.924 4.11366 1110.39 108 121 99
-243.206 9.13959 964.83 230 182 159
-243.206 9.13959 964.83 230 182 159
511.369 21.439 1091.44 89 69 64
-234.964 49.7016 979.661 247 240 234
561.538 57.9602 1111.88 164 166 151
561.538 57.9602 1111.88 164 166 151
-230.167 183.736 1077.88 253 253 242
-316.853 219.929 1046.18 143 69 53
-206.108 222.352 1051.83 250 250 243
-313.194 275.919 1082.45 242 239 244
-251.148 370.646 1122.32 70 59 59
595.01 -68.1938 1086.56 154 155 119
-379.313 13.6958 945.1 189 166 137
-308.601 39.5948 971.526 238 234 222
-308.601 39.5948 971.526 238 234 222
548.074 99.9945 1118.85 211 215 194
608.552 130.349 1110.11 105 102 88
608.552 130.349 1110.11 105 102 88
-210.476 124.598 1043.71 114 71 47
-263.373 191.719 1026.86 244 219 208
-246.701 -368.662 1179.05 128 136 132
387.37 -96.9819 1112.89 56 50 44
-171.823 -75.4468 1005.46 51 81 94
478.799 -77.7315 1075.52 103 87 79
-238.32 236.957 1055.82 252 244 236
633.241 -89.8985 1041.88 224 234 222
-282.416 80.3334 973.298 192 110 83
-204.743 317.234 1097.19 142 172 126
-249.148 362.772 1156.8 53 53 48
-275.223 -432.396 1632.79 80 58 37
532.266 5.26504 1089.58 135 112 105
586.711 -199.947 958.044 115 150 113
533.288 -181.572 966.35 65 68 69
-732.69 -153.937 1058.2 123 143 133
520.761 -321.631 1232.38 149 191 191
586.119 29.249 1080.92 250 252 247
586.119 29.249 1080.92 250 252 247
606.265 235.554 1268.94 190 219 213
-224.709 28.2279 991.141 196 156 140
-171.769 -183.836 704.313 91 67 50
-171.769 -183.836 704.313 91 67 50
-139.022 265.685 1121.33 255 254 253
516.143 154.997 1398.12 65 54 53
