-488.172 -570.715 1882.31 158 161 158
-457.483 -317.44 1162.91 103 109 104
-82.5977 -142.894 541.802 94 89 84
537.079 -247.001 1042.28 134 160 166
483.841 -241.434 1091.73 209 173 164
543.988 -227.707 1032.88 160 199 192
436.914 -241.617 1134.89 236 218 205
318.687 -200.272 1111.25 90 84 72
-305.392 -74.0965 456.258 18 17 14
-267.325 -105.579 1174.42 49 51 46
-245.267 -112.877 1282.39 115 136 150
473.363 -82.5655 1015.39 210 181 158
-208.304 -50.0419 944.416 47 79 89
-259.875 -45.86 1050.81 62 87 89
361.408 -42.5901 1067.39 178 156 149
370.008 -8.57784 1077.63 212 162 148
-249.59 -4.5635 947.16 243 222 213
554.497 3.16125 1075.66 196 183 168
517.358 11.7024 1001.29 237 227 216
398.933 17.6223 1118.83 239 213 208
421.916 21.1237 1059.42 169 160 158
448.293 45.0091 1045.52 246 239 227
-216.466 44.86 1013.24 212 192 183
523.778 54.7453 1089.91 255 240 236
-173.781 63.0562 1048.23 255 217 211
-133.816 65.1196 994.935 234 221 206
549.211 80.1741 1050.12 252 252 249
549.211 80.1741 1050.12 252 252 249
-239.139 78.6754 1020.96 255 251 243
-367.072 82.8469 980.118 246 247 238
412.845 104.095 1100.34 156 156 142
483.594 119.515 1160.64 222 215 194
483.594 119.515 1160.64 222 215 194
-139.334 147.598 1096.96 227 183 159
-87.3888 141.265 1031.68 252 241 215
-229.858 140.665 1013.24 247 226 211
518.134 171.805 1163.01 84 80 62
518.134 171.805 1163.01 84 80 62
612.715 180.564 1195 173 163 150
-213.439 163.341 1013.75 107 94 71
-114.937 200.858 1023.5 255 231 214
723.152 300.065 1357.07 226 252 254
580.955 326.339 1340.02 120 162 156
-186.687 270.311 1101.35 255 253 251
-186.687 270.311 1101.35 255 253 251
-200.924 274.129 1068.37 255 250 238
733.012 407.913 1470.12 233 255 255
-296.964 315.803 1074.75 52 29 24
-76.1131 335.742 1090.94 255 229 191
-59.443 354.643 1145.62 208 166 122
-298.914 343.345 1059.61 251 247 234
-96.877 389.163 1139.8 60 71 66
-104.344 -109.223 307.622 69 80 72
-104.344 -109.223 307.622 69 80 72
-17.4091 203.224 -706.538 75 69 63
-82.4027 -422.338 1505.84 63 58 51
-248.051 -289.829 1125.72 99 37 25
573.184 -194.499 946.12 130 150 124
120.754 103.495 -521.758 92 93 81
388.768 -215.74 1111.93 248 252 246
335.777 -215.526 1146.29 176 161 159
503.983 -131.892 1030.31 78 68 66
503.983 -131.892 1030.31 78 68 66
477.892 -134.22 1072.18 176 156 138
460.154 -111.626 1018.49 155 146 132
-282.659 -114.146 1212.35 146 140 130
647.021 -95.9361 1071.38 239 255 241
647.021 -95.9361 1071.38 239 255 241
-223.653 -97.4086 1123.49 144 146 142
-223.653 -97.4086 1123.49 144 146 142
-295.462 -93.8141 1181.86 62 48 35
555.433 -70.2963 996.24 135 134 105
-257.445 -81.876 1255.46 149 141 140
607.582 -53.8756 1079.62 175 181 147
607.582 -53.8756 1079.62 175 181 147
490.076 -34.2952 1059.66 195 179 150
-714.465 -24.4939 940.237 46 47 33
-257.755 -7.89197 953.61 59 26 19
-195.99 18.4384 972.926 253 214 190
383.183 20.7179 1059.88 250 235 231
383.183 20.7179 1059.88 250 235 231
-324.551 32.5177 1033.58 157 81 59
492.941 51.1293 1103.5 61 29 35
402.01 56.1578 1138.57 148 131 132
-118.531 53.3042 1039.36 255 246 213
-255.052 53.6331 987.781 58 41 27
-148.191 61.4341 1027.97 246 235 210
-383.416 60.0437 989.433 145 90 62
-364.143 69.6539 983.239 100 99 91
-244.511 103.659 1023.92 174 110 104
-154.353 114.263 1059.28 255 225 206
393.594 162.609 1160.6 157 152 137
-116.123 165.022 1056.14 255 250 232
644.879 198.798 1219.39 243 251 249
-221.406 172.912 1026.55 255 251 234
-221.406 172.912 1026.55 255 251 234
-76.7514 175.989 1050.48 255 244 213
-190.075 181.677 1055.07 245 249 241
-182.81 196.495 1042.41 255 254 251
-188.316 209.264 1059.45 155 121 109
-105.715 216.268 1055.9 187 129 115
-105.715 216.268 1055.9 187 129 115
-227.518 227.572 1051.94 254 244 238
714.257 314.759 1317.52 212 234 232
-211.283 276.525 1098.69 204 162 157
695.345 344.855 1353.79 132 154 160
667.537 344.288 1307.42 220 243 250
-179.042 289.716 1056.29 120 113 98
-275.061 298.022 1076.66 211 161 150
-187.634 279.84 998.349 102 85 76
-96.4247 331.434 1127.47 248 248 235
-265.325 338.799 1099.66 240 232 222
-265.325 338.799 1099.66 240 232 222
-70.1441 378.607 1166.71 47 52 42
-70.1441 378.607 1166.71 47 52 42
106.902 -447.828 1276.06 161 164 159
106.902 -447.828 1276.06 161 164 159
-103.873 -103.544 324.095 80 76 69
-170.764 -163.554 557.99 84 84 77
17.0735 -709.672 2623.83 194 176 150
-4.50995 -640.348 2391.33 187 171 144
-52.6343 -150.07 571.31 126 103 80
526.918 -240.986 1043.29 56 70 81
570.934 -189.672 1005.38 190 207 197
330.735 -142.712 978.196 125 126 125
623.818 -131.918 1029.57 244 255 248
638.727 -112.992 1055.92 195 224 200
-186.469 -117.251 1129.5 58 80 77
-271.89 -107.579 1150.82 147 143 133
-213.902 -60.4182 963.066 115 124 138
480.151 -47.5594 1037.83 176 178 148
480.151 -47.5594 1037.83 176 178 148
376.363 -36.1515 1077.48 107 83 80
440.16 -14.691 1043.69 245 236 205
440.16 -14.691 1043.69 245 236 205
629.863 -6.69821 1106.37 251 254 250
-233.962 0.520984 935.669 180 125 96
556.801 11.1576 1068.36 251 252 242
-337.145 14.625 1033.22 217 202 180
489.828 15.3257 1052.76 90 75 69
-129.759 36.8541 982.726 183 116 73
505.82 58.681 1111.25 255 248 234
-307.508 54.3897 988.384 208 112 87
-157.002 56.6585 999.68 182 110 87
568.013 64.5138 1126.32 254 248 252
-148.093 62.0726 1021.28 218 195 185
-355.743 62.8192 983.805 254 254 247
-355.743 62.8192 983.805 254 254 247
-345.147 63.4795 992.475 172 112 104
-151.65 74.617 1005.82 200 112 69
-327.459 83.5293 972.194 250 252 248
-132.499 97.5376 1022.25 244 237 224
435.233 116.01 1131.38 100 86 73
-271.986 105.677 989.916 202 130 106
-124.304 112.079 1002.47 254 251 244
469.422 134.9 1131.54 197 192 168
-337.598 128.44 1010.97 140 133 129
-337.598 128.44 1010.97 140 133 129
557.95 158.03 1182.95 205 198 174
-92.4443 173.78 1096.96 209 140 97
-210.303 195.702 1053.41 121 96 83
-220.601 221.131 1071.2 222 175 169
672.159 278.858 1285.09 159 182 183
599.298 366.279 1445.51 64 92 111
-307.718 266.449 1022 153 122 121
597.08 382.637 1293.04 183 216 215
-280.018 388.866 1083.59 96 90 82
-248.998 379.983 -1114.65 150 127 97
-74.2421 -57.3994 180.937 157 164 158
-130.799 -344.771 1332.95 244 243 242
-140.71 -379.685 1468.28 244 243 242
-291.549 -411.958 1604.33 90 42 32
-313.915 -172.215 808.537 23 21 15
343.466 -161.762 1010.15 52 53 40
602.804 -159.329 1008.54 113 143 119
382.308 -105.829 981.912 122 118 106
359.943 -105.856 1021.86 129 128 115
381.383 -78.348 1022.3 251 254 253
381.383 -78.348 1022.3 251 254 253
653.718 -76.752 1071.62 249 255 237
469.919 -21.8375 1038.02 145 106 89
-261.556 -20.2631 1001.76 33 15 17
447.542 -1.12694 1052.56 152 91 75
663.409 1.77201 1077.97 159 189 143
-205.413 7.54379 971.327 98 57 40
-388.233 18.353 988.273 131 107 87
-376.843 26.433 1043.38 220 204 181
-281.483 54.4602 989.064 211 120 98
443.347 67.3225 1133.51 67 64 77
510.09 107.724 1131.26 253 252 247
-321.52 104.269 973.211 255 247 239
-274.908 253.352 1066.93 143 92 78
-118.374 366.92 1129.79 170 146 109
-134.814 381.875 1095.78 253 251 250
468.77 -243.252 1127.93 211 190 180
461.326 -190.377 996.632 49 40 42
333.12 -205.581 1119.25 161 162 163
619.301 -166.752 1005.95 118 150 121
598.443 -65.078 1054.84 235 237 214
671.454 -34.9052 1082.11 114 149 114
-254.243 30.5336 962.937 247 197 181
-254.243 30.5336 962.937 247 197 181
-392.16 36.4762 945.637 201 177 154
-392.16 36.4762 945.637 201 177 154
512.514 45.0968 1094.01 97 69 71
569.446 83.1558 1120.22 175 177 165
-116.119 101.002 1011.5 172 106 67
-235.843 200.682 1046.72 252 254 245
-325.901 242.21 1051.75 151 96 73
-270.459 298.169 1109.07 123 84 69
-315.366 293.105 1066.72 248 253 254
-315.366 293.105 1066.72 248 253 254
658.432 404.259 1349.59 198 226 220
658.432 404.259 1349.59 198 226 220
-267.061 412.65 1182.01 91 85 80
-118.574 -164.371 486.877 154 160 157
-113.191 -164.349 547.014 152 155 151
548.965 -209.74 905.815 66 118 138
602.146 -46.5755 1097.87 144 145 114
537.98 -30.973 1044.08 255 254 246
668.658 28.4971 1069.92 116 134 117
413.149 55.2394 1098.64 253 254 255
-318.924 59.8037 966.806 255 252 250
-227.89 113.561 1008.3 150 86 74
583.865 132.882 1180.79 233 237 213
-218.821 145.682 1030.95 135 78 61
-218.821 145.682 1030.95 135 78 61
-310.921 153.583 1028.22 233 201 175
523.597 264.557 1294.47 136 180 172
-273.253 213.276 1027.53 252 247 232
-301.403 355.041 1170.27 253 252 253
-42.6356 -148.332 562.355 188 157 131
364.659 -70.5007 1071.22 69 61 54
-182.445 -51.1427 990.941 56 96 107
451.053 -52.3421 1023.57 118 90 91
-202.32 182.538 1036.54 143 114 97
-202.32 182.538 1036.54 143 114 97
-29.3874 -281.749 866.732 116 87 72
505.992 -164.979 1030.24 80 73 71
391.543 -68.495 1045 210 208 210
660.336 -71.7762 1077.28 237 251 233
410.725 -5.93062 1053.38 128 86 75
-205.577 34.8194 962.907 250 243 235
-292.448 102.685 976.566 208 128 116
567.707 235.758 1226.26 163 194 193
-45.0113 354.474 1180.6 212 193 163
-212.751 341.136 1105.04 169 191 148
-156.647 -266.766 1063.41 93 72 52
-163.789 -21.9993 997.689 253 233 198
-236.438 17.2633 949.052 224 179 160
533.919 28.9964 1091.17 138 117 116
605.874 -190.257 989.266 128 159 123
490.804 -151.933 898.04 81 80 79
-524.97 -106.652 800.809 138 155 146
-225.433 -88.3935 379.926 84 90 85
-240.341 -70.5522 1137.69 123 133 133
628.834 270.754 1295.71 197 224 220
596.691 53.5484 1091.23 253 255 251
382.785 -143.487 1160.8 68 60 58
-144.973 287.722 1110.73 246 241 249
512.144 185.14 1367.33 79 60 59
-230.473 137.039 966.501 250 233 210
