-124.998 -632.924 1824.95 153 154 149
-91.2479 -396.184 1198.13 182 181 170
-315.461 -263.714 1167.08 149 125 104
-187.746 -29.8275 239.234 181 191 183
380.944 -96.117 1054.68 226 231 229
387.049 -25.8258 1098.28 185 170 163
218.999 24.4576 1068.3 99 72 60
393.277 27.7676 1156.98 101 88 64
302.056 38.0374 1134.01 110 104 94
447.238 108.683 1161.49 167 189 185
179.105 122.186 1073.95 252 240 241
179.105 122.186 1073.95 252 240 241
309.651 133.686 1156.28 66 33 27
309.651 133.686 1156.28 66 33 27
-402.873 118.927 1030.81 252 236 224
-368.594 195.762 1046.46 72 32 22
212.974 218.522 1163.87 150 145 122
-308.992 224.156 1084.84 255 247 216
-430.389 251.949 1037.44 255 247 233
-566.936 300.116 1071.94 237 216 193
408.466 372.106 1298.54 119 144 156
-281.36 328.964 1123.37 255 234 213
468.968 401.604 1330.76 215 235 235
-503.578 368.244 1083.14 226 192 184
-544.093 389.75 1116 255 246 234
-484.457 395.109 1133.21 236 255 231
456.506 483.268 1382.57 127 149 153
-423.182 399.942 1124.19 163 176 159
-534.006 432.312 1117.44 60 62 43
-292.87 581.642 1207.29 128 163 149
-325.233 601.846 1210.69 194 216 205
-245.747 -282.398 845.52 77 87 80
-85.7263 -88.5104 301.633 66 75 69
352.601 -158.163 1212.56 230 212 205
247.033 -136.803 1172.77 227 198 192
143.802 -148.546 1284.84 80 76 51
385.56 -81.1487 1047.61 246 245 234
343.541 -75.4263 1026.2 134 134 132
150.709 -50.2851 1066 153 155 148
-356.562 -26.7198 1222.83 63 56 39
-326.564 28.1487 1009.13 157 143 123
297.408 34.6932 1103.11 99 88 77
-355.541 46.9103 1314.88 76 66 56
-355.218 35.8502 973.367 196 173 133
450.347 41.6271 1107.63 254 255 249
450.347 41.6271 1107.63 254 255 249
430.64 67.3051 1179.78 189 189 159
-479.454 58.9745 982.8 240 240 219
-341.81 91.8711 1037.1 233 187 144
-331.762 128.524 1238.3 196 181 171
-582.308 139.875 1009 147 136 141
-363.853 211.703 1072.64 255 238 223
499.402 258.674 1239.55 200 222 197
-583.19 221.045 1033.17 113 88 78
474.06 270.736 1250.88 179 179 166
-305.3 241.283 1096.22 255 248 246
-338.227 253.607 1083.86 185 131 99
-577 263.953 1043 254 252 229
-342.379 282.93 1088.33 255 238 212
-509.366 338.658 1081.51 254 251 248
-483.846 339.697 1042.24 244 253 250
-448.68 368.357 1100.98 187 165 151
-448.68 368.357 1100.98 187 165 151
-544.701 380.011 1101.66 149 135 128
-576.89 412.159 1160.39 250 253 254
-337.669 433.273 1187.39 251 254 238
-585.914 726.496 1512.49 215 218 206
-48.4474 -17.0792 42.5072 186 188 184
-36.0784 -151.544 460.278 116 112 101
-210.828 -239.528 820.031 102 100 98
-137.784 -276.133 1215.02 108 90 65
455.382 -17.9041 1122.49 249 255 248
178.486 31.4738 1100.22 113 89 77
455.207 33.6389 1138.51 138 159 141
302.348 62.4344 1124.4 188 195 153
307.166 93.7834 1182.43 122 103 70
261.535 97.6892 1147.13 255 251 217
261.535 97.6892 1147.13 255 251 217
-324.741 136.281 1253.69 66 56 47
-332.258 116.636 1014.75 146 102 71
-332.258 116.636 1014.75 146 102 71
-319.421 121.164 1007.53 227 225 211
-342.499 115.197 955.114 176 112 93
313.388 144.932 1163.87 242 223 215
-574.096 118.247 930.365 78 64 58
306.684 176.391 1170.66 254 244 230
306.684 176.391 1170.66 254 244 230
-633.333 163.758 1034.5 154 153 144
371.461 189.41 1197.74 251 252 241
-339.576 167.651 1025.66 250 250 243
-383.023 228.609 1114.14 127 76 74
-383.023 228.609 1114.14 127 76 74
-439.759 284.437 1058.17 223 197 190
-453.07 301 1071.21 255 246 242
338.85 394.517 1386.1 208 218 212
327.224 399.45 1343.37 54 104 107
-552.553 347.619 1082.85 127 121 122
-418.931 368.935 1102.59 250 253 232
478.433 526.328 1393.96 167 180 173
-192.605 -176.485 763.207 78 29 17
291.628 -165.523 1222.91 159 130 121
291.628 -165.523 1222.91 159 130 121
294.849 -126.98 1157.34 95 51 40
369.397 1.52752 1102.37 110 89 78
-326.815 113.544 1278.36 104 87 74
338.075 100.731 1129.89 239 234 220
266.353 111.276 1153.51 150 69 55
-498.135 115.756 1009.16 196 124 103
-488.81 167.007 996.237 189 123 106
228.483 229.993 1179.86 87 75 64
-595.366 266.314 1070.25 226 227 205
-346.653 470.971 1143.25 255 251 251
-136.787 -109.47 374.444 155 161 156
269.463 -133.403 1126.7 206 183 163
253.678 -83.2266 1085.2 19 15 16
453.309 -73.2318 1070.21 196 198 189
421.406 52.1003 1140.58 253 253 234
-335.455 103.415 1233.57 191 172 156
-485.728 95.9195 1034.81 254 217 195
231.446 148.297 1167.22 72 51 64
329.863 167.498 1196.23 115 88 75
329.863 167.498 1196.23 115 88 75
-622.006 158.727 1038.17 255 255 252
530.607 194.811 1231.68 101 96 87
368.52 214.311 1274.65 255 255 235
356.761 199.375 1139.69 180 175 164
362.953 254.614 1205.66 249 249 223
-453.748 267.965 1048.12 255 253 253
-543.893 303.122 1044.92 137 92 68
-563.374 338.562 1101.83 252 250 249
-480.491 354.289 1063.28 128 109 101
-546.434 363.096 1082.55 252 254 255
-546.434 363.096 1082.55 252 254 255
-546.434 363.096 1082.55 252 254 255
-85.0301 -75.7235 244.926 161 167 159
-147.771 -45.7429 221.393 105 113 107
-408.471 15.0329 1071.07 56 89 101
170.137 34.3689 1118.42 105 86 79
390.642 70.8126 1111.62 156 150 114
390.642 70.8126 1111.62 156 150 114
-461.095 90.9482 916.716 210 155 137
-450.667 184.016 1046.09 130 99 79
-438.056 215.074 1047.75 131 84 63
-438.056 215.074 1047.75 131 84 63
442.587 296.522 1224.17 117 111 99
-506.414 314.16 1077.65 200 146 142
313.562 -57.1179 1084.35 91 70 66
266.141 53.1946 1091.66 103 81 71
367.157 87.707 1147.06 254 251 245
-427.837 258.609 1068.64 123 102 94
-363.484 -17.8759 1200.19 96 82 66
-361.276 27.0852 1109.38 134 119 100
217.135 100.457 1108.61 160 135 112
193.601 198.454 1137.15 78 55 47
-178.15 -180.254 564.672 100 102 93
-70.0793 -336.744 1371.97 183 162 135
-70.0793 -336.744 1371.97 183 162 135
-173.084 -189.562 850.152 100 73 50
-369.78 44.4311 1009.28 255 238 204
-460.847 79.9593 1009.3 239 196 180
-348.148 99.881 1005.41 241 218 180
342.493 148.022 1162.55 130 110 102
569.374 120.64 -871.249 141 158 149
-434.032 -1.97357 1079.35 80 113 110
508.391 193.606 1214.58 116 123 121
-256.799 476.382 1347.7 72 64 58
-256.799 476.382 1347.7 72 64 58
410.855 413.943 1357.95 208 232 231
-142.119 -46.0779 197.924 81 94 86
12.6849 16.56 -89.2086 23 22 20
-441.969 112.037 1001.86 233 208 196
-130.08 -103.48 464.271 92 66 54
185.106 -36.2832 939.086 155 154 156
-377.137 379.953 1168.82 255 254 254
-502.699 239.913 1144.18 61 44 22
