-385.027 -84.1548 1260.31 174 168 160
-404.582 -37.8908 1339.78 49 28 8
-423.502 -32.586 1368.67 63 44 33
-393.579 -21.6717 1326.87 110 95 73
-692.194 -19.0863 1372.61 41 32 13
-559.647 16.503 1317.53 255 253 235
-390.973 32.144 1366.79 213 192 177
-942.822 55.6947 1725.38 142 149 144
-496.175 61.8951 1318.75 159 140 116
-359.796 66.7553 1399.12 23 13 8
-396.012 70.4637 1379.46 69 49 38
-478.846 84.4256 1250.58 255 244 227
-478.422 94.695 1360.09 93 83 70
-464.497 102.001 1250.39 97 66 54
-464.497 102.001 1250.39 97 66 54
-584.218 129.97 1389.51 255 248 235
-584.218 129.97 1389.51 255 248 235
-134.325 105.675 925.02 254 251 249
-134.325 105.675 925.02 254 251 249
-368.279 200.634 1373.43 194 176 166
-368.279 200.634 1373.43 194 176 166
-359.651 204.042 1391.06 24 2 0
-91.4122 139.828 960.077 150 134 113
-441.388 193.126 1302.52 107 84 67
35.8129 157.488 888.298 252 253 239
-41.4492 180.983 965.547 243 237 215
-59.0898 189.041 986.908 231 224 196
215.628 198.883 1020.92 23 48 43
-102.806 212.397 1051.61 166 155 147
54.6504 234.6 937.058 166 182 168
60.9413 229.251 896.111 154 174 151
65.3124 252.787 925.377 114 125 117
-299.353 434.596 1461.73 50 63 56
22.2016 302.925 888.938 190 188 158
94.6168 332.059 977.894 235 247 242
-279.751 548.78 1575.07 246 246 239
-283.13 514.803 1467.94 112 141 130
-279.237 515.104 1441.08 254 252 252
103.825 346.41 947.598 252 255 249
103.825 346.41 947.598 252 255 249
92.6817 408.886 1021.14 250 248 228
95.8289 456.448 1103.6 243 247 241
203.049 538.685 1130.73 236 252 252
146.104 593.845 1191.42 97 118 117
-676.204 -66.2536 1194.68 71 75 57
136.781 -63.7343 1026.14 191 236 223
-383.898 -58.658 1328.24 134 111 91
62.2862 -27.4466 984.7 197 180 174
-466.181 -14.7246 1258.16 26 22 6
-336.419 49.4145 1418.44 198 160 152
-336.419 49.4145 1418.44 198 160 152
-491.172 45.5039 1250.83 141 90 52
236.928 52.9211 1061.69 65 26 8
-511.471 67.1543 1263.92 242 223 206
-507.819 84.4797 1278.39 254 242 225
-507.819 84.4797 1278.39 254 242 225
215.456 76.1428 1014.42 143 103 95
73.7012 69.7487 868.876 26 31 23
178.226 87.4186 976.421 184 130 96
61.2821 77.9037 844.766 163 160 150
100.077 94.1201 908.468 54 49 49
-62.7865 104.145 925.358 145 127 108
-62.7865 104.145 925.358 145 127 108
-304.242 175.444 1480.84 35 6 1
-304.242 175.444 1480.84 35 6 1
44.353 111.763 845.808 250 248 242
75.6234 115.406 859.601 168 148 133
-647.29 222.368 1531.18 255 252 253
-67.8758 153.747 984.914 129 119 101
30.7871 151.461 885.515 149 152 131
-48.8946 194.804 990.437 192 148 118
-82.3992 197.879 996.13 172 133 120
-495.494 356.331 1511.04 254 253 235
-495.494 356.331 1511.04 254 253 235
-259.568 399.277 1638.57 158 152 141
59.2654 219.148 886.056 254 253 247
-43.5545 258.02 985.589 255 245 236
67.0581 248.061 936.255 244 255 251
-29.0331 311.833 1061.83 197 194 169
273.438 309.874 1050.98 191 182 161
130.987 319.653 943.581 115 106 105
-278.526 520.806 1515.71 105 129 122
115.826 320.827 936.233 209 211 192
122.076 342.508 939.045 247 246 240
164.187 421.418 986.378 244 255 254
128.647 503.644 1082.82 176 178 176
159.185 555.518 1140.87 247 255 254
-376.992 -85.9573 1427.62 104 102 79
180.073 -11.6098 982.808 52 47 41
-467.878 -4.43139 1291.31 190 163 141
-467.878 -4.43139 1291.31 190 163 141
-447.312 43.6828 1277.94 196 185 171
-1304.77 72.4268 1863.76 236 247 240
-602.03 54.3644 1326.01 255 253 245
-433.445 56.1424 1330.56 135 123 115
-1322.82 105.898 1795.62 153 177 162
-540 89.5377 1296.41 255 254 241
-540 89.5377 1296.41 255 254 241
-1380.37 156.703 2049.66 222 228 223
-995.911 115.506 1472.93 222 228 223
-1333.31 147.644 1878.97 58 56 48
-133.135 90.4991 958.579 160 153 139
-113.193 162.605 1002.88 193 194 167
-590.205 260.718 1474.02 195 179 170
50.1093 193.696 895.004 254 252 255
-24.7256 221.559 991.098 252 249 252
-109.042 244.231 1072.98 253 252 254
54.1355 216.722 847.172 154 173 152
-263.111 510.286 1541.41 82 97 89
-279.143 539.331 1531.48 250 250 245
-1062.42 -119.795 1575.28 111 117 110
128.483 -72.4685 1028.06 65 91 83
128.483 -72.4685 1028.06 65 91 83
-1182.52 -63.2154 1622.75 205 215 208
-16.6968 -10.9285 996.672 255 236 229
-1248.19 45.3904 1674.48 74 88 80
-586.493 69.5868 1319.48 249 252 247
-663.841 81.917 1421.56 255 249 255
-591.055 121.223 1375.14 252 244 233
-150.747 102.899 995.106 115 104 96
-560.35 145.72 1333.55 253 251 246
-529.06 168.696 1286.54 254 253 254
-491.078 176.881 1284.32 254 253 247
-399.907 209.046 1354.72 55 43 37
10.4006 361.642 1065.68 249 252 247
81.8897 -30.0548 990.811 44 92 95
-326.467 78.5431 1437.36 155 164 162
-75.61 127.074 968.315 134 109 93
183.367 217.975 1008.05 141 72 67
159.104 229.24 973.21 165 153 151
-372.474 317.912 1297.78 165 107 71
85.8405 -58.8805 1035.79 202 211 205
-395.429 -55.5623 1306.47 64 55 50
-348.601 66.2574 1393 58 43 35
-78.26 42.4989 912.776 63 60 54
-554.324 273.041 1513.27 251 252 254
201.687 524.64 1119.49 185 208 205
-425.296 -34.6684 1304.58 57 51 42
-425.296 -34.6684 1304.58 57 51 42
40.2556 -15.8941 952.16 204 166 144
40.2556 -15.8941 952.16 204 166 144
-1280.13 130.421 1805.58 86 86 77
180.808 157.961 1000.32 68 48 36
-13.5609 214.641 963.887 255 252 254
201.577 -51.3856 1012.16 51 50 46
-834.887 -39.0666 1618.72 84 84 69
-376.677 51.1064 1369.57 187 162 142
-376.677 51.1064 1369.57 187 162 142
-345.914 213.171 1426.38 196 158 140
-345.914 213.171 1426.38 196 158 140
-345.914 213.171 1426.38 196 158 140
-355.02 265.43 1387.06 67 55 48
-24.0088 250.674 990.626 150 130 121
157.746 482.903 1085.47 183 215 220
50.0514 59.65 837.321 48 44 34
-44.054 377.428 1108.51 130 117 103
-44.054 377.428 1108.51 130 117 103
63.275 366.805 1058.21 252 254 252
-473.562 15.3749 1263.83 49 33 31
186.708 525.965 1165.19 156 181 182
-611.208 -32.9664 1170.69 79 76 66
-568.421 46.4275 1301.03 255 242 233
-395.758 526.574 1441.31 245 251 246
-480.886 197.427 1283.99 203 198 188
-341.154 426.36 1607.03 56 53 50
-341.154 426.36 1607.03 56 53 50
33.8483 245.707 903.49 251 255 254
154.452 297.611 922.668 74 58 50
-714.207 -302.801 1916.37 170 178 172
