-944.98 -208.888 1940.69 118 126 120
-352.178 -83.4911 1453.42 70 66 48
-398.808 -48.2062 1423.8 164 135 113
-465.247 -27.7154 1381.03 36 19 9
-465.247 -27.7154 1381.03 36 19 9
-598.79 41.4432 1432.02 212 192 179
-348.55 67.3774 1515.48 219 179 170
-438.82 58.9717 1158.28 21 12 5
-384.385 76.4645 1430.45 141 118 112
-426.661 100.015 1199.54 126 123 105
-560.969 128.813 1565.84 20 12 10
21.8146 91.7707 877.453 218 225 215
-287.383 104.43 983.232 83 79 54
-673.951 197.221 1731.98 255 250 243
-172.294 105.886 885.619 229 245 243
-475.722 188.717 1335.79 255 247 240
-101.105 173.913 816.829 26 47 49
-148.492 172.482 800.299 25 16 12
118.687 267.682 947.234 39 40 33
118.687 267.682 947.234 39 40 33
-92.5678 263.642 901.793 245 239 242
31.5914 286.198 941.966 45 15 5
100.563 325.705 972.902 31 31 31
78.3642 331.014 943.675 81 118 112
-180.091 351.699 986.916 247 247 236
107.39 361.006 1007.16 53 29 33
-31.9526 320.405 890.561 195 158 150
8.14198 368.898 948.619 167 100 87
-75.8159 348.599 871.016 113 87 74
61.7803 379.958 943.236 130 99 85
160.308 456.707 1087.73 56 24 8
-646.937 -230.801 1478.31 111 113 108
-802.058 -212.408 1580.24 130 140 135
-466.218 -47.9312 1516.45 42 29 28
-647.297 -40.44 1517.7 205 196 174
-367.891 -15.281 1476.61 65 85 71
-388.066 -5.25561 1425.76 176 171 152
-539.64 47.7164 1270.74 255 249 243
-516.262 58.3793 1229.22 255 252 250
48.5258 90.6278 886.879 157 131 105
48.5258 90.6278 886.879 157 131 105
-190.947 100.982 918.281 201 214 211
-190.947 100.982 918.281 201 214 211
-273.776 118.035 946.106 68 69 55
-150.37 112.557 851.863 80 101 95
-468.175 335.749 1494.57 114 69 50
58.8815 229.529 937.566 71 32 19
-113.395 197.07 800.868 34 34 25
-100.32 203.152 820.625 30 29 33
16.5575 226.528 896.16 135 35 15
35.0072 238.431 921.095 224 185 163
84.3502 256.063 948.21 134 107 87
84.3502 256.063 948.21 134 107 87
55.499 261.126 942.773 110 86 82
55.499 261.126 942.773 110 86 82
153.317 285.963 1008.81 72 40 24
142.752 296.824 1023.09 192 129 108
25.8482 310.937 926.512 94 78 84
122.125 353.452 980.736 84 40 26
42.4804 354.85 958.309 214 220 218
76.8912 361.651 969.321 245 202 192
44.758 355.673 937.106 44 34 40
44.758 355.673 937.106 44 34 40
-82.3999 341.55 848.568 155 138 131
-590.536 -81.9358 1553.87 130 132 129
-538.957 -51.6625 1470.55 87 109 112
-510.8 -48.903 1393.81 87 109 112
-452.511 -38.7981 1421.07 29 15 4
-471.769 -16.463 1378.14 202 179 160
-519.272 48.0708 1304.42 164 121 78
-211.985 111.442 934.083 136 166 142
84.6872 164.127 955.764 154 117 95
-169.446 153.269 783.601 250 255 250
-141.483 182.366 792.607 56 45 39
-75.2683 193.714 824.639 32 32 41
47.0257 237.454 928.896 45 18 13
-79.6662 231.849 811.081 44 28 32
-79.6662 231.849 811.081 44 28 32
12.5898 280.127 942.98 39 16 8
61.9626 310.559 946.836 36 58 62
172.016 349.711 1052.98 78 56 41
-154.809 338.809 954.821 255 254 254
16.2467 408.43 958.108 65 49 37
-590.323 -26.7183 1431.1 96 120 114
38.2862 97.4431 889.945 43 48 41
-162.125 111.414 866.684 120 119 124
-226.781 126.355 871.371 89 76 67
-193.921 146.068 851.789 101 103 101
-43.5353 308.618 882.152 46 16 10
-34.0837 324.976 878.803 41 26 21
-34.0837 324.976 878.803 41 26 21
-734.123 -336.392 2065.08 89 90 78
97.429 255.225 973.531 193 164 151
-128.447 217.201 805.029 45 37 35
-137.976 225.34 800.962 249 251 247
158.374 323.237 1033.31 69 35 24
-420.511 -45.9736 1423.04 64 47 44
-322.746 60.8028 1511.08 51 46 44
-362.731 82.8821 1480.41 68 49 48
103.439 321.472 984.101 75 59 66
103.439 321.472 984.101 75 59 66
-437.76 10.7349 1408.82 172 167 154
-494.213 234.449 1410.24 250 250 245
14.7103 321.77 914.866 167 91 61
149.733 367.395 1026.11 193 145 132
178.348 406.222 1056.15 72 54 52
-396.383 66.165 1456.88 211 187 171
-396.383 66.165 1456.88 211 187 171
-396.383 66.165 1456.88 211 187 171
-89.5031 177.206 798.715 189 196 189
-89.5031 177.206 798.715 189 196 189
-57.0203 221.791 877.081 46 44 38
63.1356 255.112 944.477 48 35 30
63.1356 255.112 944.477 48 35 30
-107.97 232.731 785.662 60 49 49
-128.002 159.831 777.822 54 49 46
-331.866 346.658 1247.18 103 107 107
128.231 126.791 948.221 182 172 153
-88.2697 281.054 841.159 59 54 51
-41.4697 393.064 891.075 59 55 53
-643.569 -146.476 1590.78 196 206 205
-310.13 64.0528 983.728 68 45 44
