-244.872 -364.544 1268.09 148 151 139
-702.827 -236.022 1480.34 105 97 81
-707.908 -218.268 1537.82 102 92 73
103.95 -129.63 992.637 63 74 66
103.95 -129.63 992.637 63 74 66
-471.431 -143.73 1249.1 156 166 155
-54.8864 -116.433 1049.46 134 127 135
-488.661 -131.395 1242.57 174 168 159
-488.661 -131.395 1242.57 174 168 159
-449.216 -140.889 1377.24 15 18 8
-449.216 -140.889 1377.24 15 18 8
-391.476 -109.607 1263.98 29 28 16
185.29 -81.0888 970.585 35 35 28
-514.903 -86.6961 1244.17 51 45 19
110.069 -51.0434 848.861 215 226 209
-528.402 -61.7258 1187.65 21 21 9
-527.409 -54.3279 1168.6 144 130 118
138.44 -33.3709 887.933 130 116 97
-480.66 -48.6998 1445.43 30 10 9
-402.099 -13.5725 1358.35 185 144 133
-402.099 -13.5725 1358.35 185 144 133
-523.657 1.80645 1213.23 170 140 117
-523.887 1.33558 1234.69 9 4 0
127.786 1.59505 882.839 248 255 240
-507.665 21.1667 1286.41 26 21 20
-399.245 28.6757 1440.26 50 58 52
-522.844 31.2823 1269.51 20 8 0
-504.737 45.6234 1242.35 40 31 15
-669.102 60.3155 1672.61 31 15 9
-24.5391 50.135 986.721 255 251 226
-510.756 91.1131 1237.63 255 244 221
-630.743 103.564 1300.69 255 252 239
27.3936 99.0387 994.11 179 135 103
-429.23 145.295 1368.63 187 165 161
-429.23 145.295 1368.63 187 165 161
-424.114 161.908 1398.32 246 216 197
-422.7 174.314 1410.42 89 52 34
-39.3291 158.043 1068.37 255 247 251
-582.6 221.042 1276.69 253 252 230
-635.975 251.244 1440.94 253 253 241
-477.293 244.458 1353.55 238 233 211
-57.9415 216.488 1139.76 101 96 88
-436.26 265.165 1349.86 67 37 21
-434.259 262.392 1315.92 183 129 114
-441.773 268.668 1289.91 248 228 209
23.3447 306.443 1186.49 184 169 152
150.602 373.664 1218.15 166 183 187
117.614 396.767 1267 144 156 154
159.787 -180.971 1059.83 155 203 187
212.671 -144.088 1001.62 154 139 122
29.9166 -105.151 1001.35 111 61 53
-471.96 -127.378 1345.97 106 83 72
-472.006 -93.8571 1272.25 30 12 7
-483.06 -90.1591 1321.09 175 162 144
-629.022 -49.0028 1182.04 252 245 235
-464.159 -26.1471 1344.51 215 192 175
-667.962 -1.694 1244.36 208 147 128
-663.529 0.496056 1186.41 255 247 239
135.02 53.677 901.084 133 169 125
-506.15 81.0439 1243.7 102 70 39
-455.47 84.3292 1194.92 120 114 101
-87.6656 94.6966 1046.25 198 199 174
-40.9111 99.4854 1025.22 255 247 232
-40.9111 99.4854 1025.22 255 247 232
307.476 117.451 1174.56 73 45 37
-465.061 160.539 1313.18 154 162 145
166.42 122.935 948.18 235 242 218
-611.843 203.706 1314.41 251 252 250
-438.387 200.424 1293.18 213 203 195
-403.185 197.065 1204.28 220 216 212
-469.926 227.237 1335.33 135 95 80
-448.345 249.834 1289.35 252 244 232
31.2959 219.338 1072.34 255 250 249
-445.181 299.45 1404.8 117 77 51
172.376 337.543 1135.52 243 252 237
-613.764 518.568 1691.5 241 243 242
284.895 446.814 1245.42 196 215 241
284.895 446.814 1245.42 196 215 241
196.072 455.402 1252.08 246 254 249
-936.914 -396.579 1816.71 88 94 86
152.658 -190.154 1090.05 61 94 83
40.7302 -178.882 1120.02 87 58 55
-82.3113 -85.7676 1031.36 156 138 110
-491.008 -83.7027 1216.77 160 148 129
-78.6037 -65.2095 963.967 29 25 16
120.218 -47.4618 865.764 21 13 9
-517.599 -62.69 1232.55 197 176 156
-517.599 -62.69 1232.55 197 176 156
144.743 -42.8784 906.887 53 51 44
-531.121 -53.3293 1175.46 152 130 109
-132.348 -39.1741 938.297 60 61 60
113.526 -36.2697 853.456 243 244 223
-693.887 -43.8861 1225.36 253 243 225
-693.887 -43.8861 1225.36 253 243 225
-511.191 -38.5603 1266.94 70 57 42
-504.09 -12.8395 1248.42 191 178 169
-516.734 -9.51202 1155.83 139 87 47
-489.109 -8.5559 1252.31 46 38 36
110.097 21.5786 903.083 126 140 128
-763.935 67.4114 1376.12 251 252 250
-722.036 216.19 1450.95 255 254 254
8.94109 177.587 1067.46 255 245 231
8.94109 177.587 1067.46 255 245 231
-63.0938 189.445 1113.87 98 92 87
-370.302 268.441 1563.2 20 25 25
23.791 207.283 1061.11 197 188 149
-615.945 262.252 1315.82 253 251 251
-646.927 298.207 1421.88 252 253 249
-646.927 298.207 1421.88 252 253 249
-426.529 295.065 1387.19 180 168 157
-0.99032 317.13 1261.68 118 107 99
-325.953 453.054 1520.76 74 74 68
-602.845 -369.405 1434.52 162 165 158
42.5499 -128.936 1027.17 202 189 179
-555.922 -135.534 1321.55 67 107 113
-653.621 -114.82 1430.59 62 92 96
-744.342 -41.2598 1229.24 253 250 228
240.764 -10.0945 1066.74 168 128 109
-384.46 16.5095 1433.17 17 18 19
-624.035 42.1859 1164.3 195 135 132
217.505 56.3223 1029.14 148 149 127
-109.459 60.358 994.969 174 165 153
30.8227 80.4535 984.24 174 149 130
29.2999 104.22 980.827 244 165 143
-69.038 151.709 1068.36 253 252 254
-508.649 190.178 1272.76 202 161 156
176.782 160.464 964.634 245 253 246
105.32 291.58 1099.45 157 145 122
351.887 479.232 1329.93 94 86 78
-423.43 -343.972 1242.12 87 90 85
116.789 -142.589 1017.89 44 87 84
-805.816 -236.395 1722.75 174 180 175
78.2984 -100.306 943.972 82 72 72
155.018 -33.6511 918.511 157 158 147
236.483 -32.0141 1048.35 170 139 117
-399.761 -19.1559 1415.77 64 43 36
106.678 -1.8757 854.61 149 167 134
-610.863 43.5492 1264.15 244 243 229
-610.863 43.5492 1264.15 244 243 229
94.0348 89.0851 979.087 254 254 236
84.398 105.425 990.199 197 194 148
84.398 105.425 990.199 197 194 148
-566.004 142.349 1289.89 249 254 253
-60.0509 140.075 1093.8 132 111 108
-443.404 216.183 1280.71 125 116 91
-442.527 293.675 1366.1 148 98 66
73.5546 272.06 1155.17 251 255 252
-403.128 411.664 1437.56 68 86 79
212.149 419.941 1228 220 237 241
-19.4454 -58.4642 928.281 55 47 43
-537.105 -62.5587 1228.73 66 56 46
-537.105 -62.5587 1228.73 66 56 46
-410.993 14.2997 1440.95 159 165 162
-20.7184 27.5475 967.711 131 106 95
306.034 77.8299 1174.72 110 84 79
-484.701 238.518 1227.31 253 255 253
-749.761 -461.822 1847.33 146 156 149
-728.429 -410.603 1680.52 60 53 44
130.96 -46.4827 889.074 64 52 46
-538.428 -41.6295 1115.2 235 218 192
120.463 96.1771 -377.652 144 152 146
-452.429 -13.1041 1369.49 182 155 139
-452.429 -13.1041 1369.49 182 155 139
-411.839 155.11 1418.46 182 148 132
-411.839 155.11 1418.46 182 148 132
51.4387 117.399 1010.72 253 252 255
-538.44 196.547 1262.71 253 255 252
-193.665 -303.201 949.464 159 165 160
-463.944 -143.985 1399.8 35 36 24
34.9252 -27.0522 881.414 113 108 106
279.087 25.88 1164.44 94 70 59
-528.581 107.49 1260.32 247 237 214
144.754 93.1306 946.717 251 255 238
20.6531 203.084 1061.18 190 188 161
-528.05 -41.7477 1226.21 61 50 40
-346.467 103.253 1619.93 188 189 174
-2.91315 290.973 1152 127 112 102
232.359 373.995 1174.48 186 218 216
-529.486 430.141 1543.89 83 93 86
357.417 -110.929 1289.54 177 166 154
-639.889 5.85039 1273.93 255 250 244
190.314 -81.8074 1012.9 96 94 88
-70.8278 -48.9529 1085.99 126 120 118
-70.8278 -48.9529 1085.99 126 120 118
-633.258 7.78915 1254.48 244 246 245
-481.21 152.975 1130.02 181 176 152
98.1933 157.419 957.683 252 255 251
257.952 223.277 1005.32 113 94 79
-386.558 349.191 1483.18 63 60 61
