-442.012 -27.5284 1488.44 148 130 108
-500.018 7.6228 1369.96 49 25 7
134.68 15.3726 996.4 196 196 177
21.6347 18.8826 996.818 30 62 58
21.6347 18.8826 996.818 30 62 58
-452.564 60.4353 1420.91 42 47 42
-142.314 47.4559 1028.48 120 101 76
-83.0835 57.769 968.915 110 96 90
-518.553 86.3328 1372.11 113 102 91
-554.367 94.9946 1422.81 196 171 149
-385.949 98.1446 1476.69 20 6 2
-526.958 86.6943 1236.22 216 172 148
-829.536 107.559 1289.2 109 116 109
-463.236 110.149 1335.55 158 155 153
-420.477 118.858 1160.29 101 97 84
11.8293 122.803 883.088 163 155 141
11.8293 122.803 883.088 163 155 141
176.1 159.882 1051.62 81 46 32
-25.8038 133.183 869.747 178 197 165
-538.934 257.265 1480.98 255 243 227
-126.426 246.868 1053.66 172 164 149
-60.5486 231.829 963.463 188 178 171
-348.596 367.293 1383.53 231 221 215
37.4595 292.318 913.35 169 183 154
37.4595 292.318 913.35 169 183 154
28.7079 285.726 880.484 246 252 234
45.5149 294.663 909.837 249 253 238
49.1775 354.368 964.104 238 248 227
217.277 424.985 1118.85 156 168 156
68.9743 414.802 1015.63 255 254 247
-654.617 -30.7644 904.272 121 130 121
-906.841 -15.1883 1297.78 204 212 203
-806.06 0.341748 1162.58 230 238 231
-412.753 1.59767 1493.82 135 130 115
-539.372 13.8507 787.195 120 127 118
-561.439 21.0536 1334.29 175 180 170
-561.439 21.0536 1334.29 175 180 170
-886.938 30.0336 1334.49 129 137 130
-344.424 20.7791 487.001 250 253 248
-534.217 30.6169 1343.14 43 28 14
-534.217 30.6169 1343.14 43 28 14
-505.77 37.3324 1422.99 106 98 78
-853.15 43.3005 1297.21 127 136 129
-458.422 30.7968 669.345 240 250 243
-2251.35 142.117 3522.97 125 134 130
-675.64 60.0044 1401.5 255 252 235
-714.908 54.4714 1078.45 241 247 243
30.4504 48.9259 884.561 113 165 171
-423.366 89.3604 1502.34 208 183 162
-88.7395 63.8333 962.739 53 109 99
-743.391 95.6641 1164.89 248 253 245
-106.296 77.522 935.257 250 230 217
135.842 97.5797 1017.44 139 89 67
-845.766 124.451 1228.32 94 111 107
-23.1874 97.5877 835.408 250 255 240
-487.682 188.119 1513.74 81 76 72
-487.682 188.119 1513.74 81 76 72
-472.351 186.967 1436.66 26 21 12
-161.448 140.98 991.357 178 181 163
-534.505 227.372 1469.17 255 248 222
223.183 171.887 1107.3 47 39 33
-13.4533 151.521 856.691 152 172 142
-22.7269 163.098 894.241 255 255 245
-22.7269 163.098 894.241 255 255 245
148.994 210.907 1007.42 48 14 5
-467.006 333.963 1554.99 232 232 221
-467.006 333.963 1554.99 232 232 221
-650.232 378.42 1671.66 253 252 240
184.438 246.227 1055.65 30 51 64
-3.52877 220.989 916.417 252 254 254
-139.095 277.257 1141.07 255 253 252
-473.945 395.748 1521.36 255 242 227
-18.1327 262.321 997.375 253 254 231
-403.506 362.497 1345.1 163 109 70
305.58 348.724 1196.14 62 43 28
-84.4098 312.438 1048.8 239 223 207
50.7902 316.357 936.138 253 255 242
-39.6519 389.789 1080.26 254 255 242
224.098 397.716 1100.08 43 33 14
217.293 426.822 1123.15 126 135 115
-7.73327 451.886 1170.62 254 255 229
195.099 424.284 1089.27 59 50 39
216.205 532.789 1174.39 43 61 72
216.205 532.789 1174.39 43 61 72
-757.427 -26.0888 1036.55 184 193 189
-916.796 -19.6898 1329.8 132 138 134
-916.796 -19.6898 1329.8 132 138 134
-472.15 -12.7133 1408.42 39 29 14
-486.052 9.62916 1371.59 188 170 151
-24.5759 11.6301 1067.36 215 189 181
-506.183 30.9629 1354.28 180 158 127
142.763 24.6819 1005.83 54 54 50
-496.431 81.7219 1378.18 210 200 185
-496.431 81.7219 1378.18 210 200 185
-526.313 79.9772 1302.72 148 102 61
-488.902 91.1133 1406.53 54 40 43
-98.2825 74.6516 939.582 30 44 36
-1077.68 135.842 1624.17 50 49 38
-150.013 92.0798 958.576 214 205 184
-69.114 91.6506 884.705 71 81 71
-69.114 91.6506 884.705 71 81 71
51.157 116.194 913.978 33 43 41
-361.261 206.075 1344.79 44 19 10
201.683 185.901 1110.75 52 16 5
-2.75534 162.473 852.265 215 230 210
-22.0353 174.49 897.684 149 154 143
56.449 185.375 936.384 50 43 36
56.449 185.375 936.384 50 43 36
-15.2755 178.53 875.476 252 252 243
-15.2755 178.53 875.476 252 252 243
-3.25212 189.906 882.089 174 184 152
-77.2722 226.967 997.932 163 148 124
-29.0327 235.891 954.557 255 254 238
89.7115 250.008 965.561 43 20 10
89.7115 250.008 965.561 43 20 10
100.902 268.382 971.724 41 24 7
100.902 268.382 971.724 41 24 7
-88.8339 295.001 1052.1 254 254 242
-104.699 291.588 1008.84 141 129 122
29.2879 263.682 830.01 145 169 139
95.3412 -39.3186 1081.41 92 111 101
-1148.11 -47.9495 1689.27 206 220 212
41.9245 7.44655 1028.67 50 98 103
31.3376 12.8726 1019.1 45 81 78
-74.9257 19.5018 1077.94 54 45 32
-60.7341 28.2105 1037.72 251 241 223
19.4451 58.9252 913.815 86 154 158
-659.32 112.496 1476.65 253 252 255
-625.588 159.471 1440.86 255 253 236
187.074 205.744 1043.1 66 40 35
187.074 205.744 1043.1 66 40 35
119.623 232.936 1001.61 112 110 113
236.979 288.624 1112.07 69 48 50
221.027 252.326 1093.15 62 55 62
221.027 252.326 1093.15 62 55 62
-438.048 400.211 1487.17 168 113 80
193.022 537.555 1163.42 66 98 129
-449.696 -24.3887 1445.86 60 49 35
-536.562 34.0803 1373.26 59 42 30
-398.468 106.271 1555.28 47 39 32
-127.848 83.8427 944.835 65 59 51
-569.692 308.632 1534.29 251 252 253
-476.155 -0.146552 1418.49 65 56 42
-459.109 35.6828 1423.98 175 170 154
-939.782 111.141 1415.11 85 84 74
142.549 201.066 1020.09 64 44 33
142.549 201.066 1020.09 64 44 33
-57.1678 256.368 980.814 255 251 254
46.7437 251.133 915.319 60 54 46
-67.1409 301.989 1042.22 164 139 126
240.346 528.515 1178.04 129 158 147
-408.589 -40.7124 1497.45 54 54 45
-414.191 88.5264 1462.66 207 183 163
-414.191 88.5264 1462.66 207 183 163
211.536 124.536 1078.86 70 49 45
154.481 142.162 1029.94 175 129 104
177.422 185.431 1050.09 75 57 51
177.422 185.431 1050.09 75 57 51
-405.025 330.931 1549.71 82 57 52
20.1678 256.54 931.481 249 252 246
71.1484 -5.25066 997.333 119 186 178
-140.817 71.1209 959.784 85 69 69
90.9098 118.281 953.321 47 40 30
-663.439 93.1093 1512.17 255 250 235
-541.815 246.419 1421.24 225 225 216
-8.24152 281.513 910.924 255 255 251
96.7155 121.939 971.376 47 40 34
