-29.5506 149.72 817.176 242 242 234
-94.0344 -42.436 1605.75 255 246 237
80.4997 249.19 897.284 234 215 204
257.122 360.223 996.893 244 217 210
71.355 -8.17983 1057.84 251 250 247
-93.0923 -5.49722 1782.62 251 231 223
73.7153 307.425 897.553 219 220 214
-0.843725 204.991 824.451 185 180 181
100.362 314.649 909.785 225 208 209
-60.5248 5.66952 1443.15 237 222 220
-110.296 -138.405 1652.01 202 190 170
141.918 -8.25273 981.263 255 252 239
-151.273 -106.72 1488.46 206 177 159
202.299 24.1801 868.785 173 191 186
-197.511 -104.641 1626.59 232 206 194
-3.83574 -14.2026 1537.11 222 191 188
230.542 219.454 928.992 7 12 12
111.844 267.508 957.44 221 201 186
-167.857 -113.618 1568.79 212 186 164
114.255 274.632 911.623 219 192 190
155.357 333.219 952.668 199 210 212
161.061 340.128 935.658 162 167 166
313.379 503.237 1171.49 202 192 177
108.129 20.2828 989.968 234 238 240
19.1959 290.211 887.193 249 228 212
36.874 -11.5199 1412.29 246 246 237
105.883 261.859 902.009 203 195 201
-18.993 -75.6266 1460.76 178 213 212
-196.681 -97.3157 1530.21 187 157 141
190.727 329.628 918.15 244 196 198
116.61 16.4523 978.413 112 109 109
112.083 13.9197 942.688 53 55 53
118.005 472.285 964.577 196 201 194
128.791 3.09795 1061.3 241 242 235
-32.7177 -20.2742 1618.75 145 138 129
-25.6561 182.896 818.541 171 187 180
161.64 -10.1079 1082.4 229 232 225
70.1617 290.142 887.134 196 180 167
29.8903 -57.3483 1698.79 56 55 44
65.2023 14.9366 1099.43 228 198 191
0.388185 33.7065 1052.64 164 137 135
-32.6709 83.6405 866.782 37 64 60
-184.118 -36.129 1572.68 193 179 170
-81.0578 111.879 957.279 184 213 210
-19.4072 76.5851 878.493 68 112 112
252.408 343.81 960.203 81 45 28
12.7209 224.931 892.898 91 82 81
-186.403 -50.0187 1577.37 232 201 185
15.6851 71.7602 863.506 190 190 178
-198.21 -90.1323 1561.58 187 156 132
256.808 170.326 932.35 40 13 11
156.718 0.155448 996.949 202 216 210
-21.4531 185.556 826.859 20 26 21
190.427 339.584 950.718 238 172 172
105.107 -12.6288 1036.06 76 22 10
3.29681 211.731 825.667 170 168 168
-145.428 -106.438 1382.49 183 155 132
10.2716 148.952 860.414 74 83 81
-40.4282 145.567 789.507 159 153 142
23.8542 81.6736 868.831 182 183 181
119.501 -33.7589 1206.17 154 152 144
199.755 273.7 950.337 132 139 131
175.1 255.317 945.808 161 156 151
10.1637 -50.282 1399.44 123 123 106
-25.6144 174.748 818.453 58 66 56
192.749 363.114 986.769 149 151 156
-35.114 73.6311 941.65 87 119 116
341.762 417.642 1049.77 100 89 78
90.8057 262.92 881.266 170 166 164
54.1448 14.7193 1097.64 225 192 176
157.705 238.36 834.457 61 64 60
2.72777 -104.177 1462.98 60 56 44
45.8313 440.994 905.769 70 70 64
19.616 -75.9843 1624.57 68 63 48
95.9276 248.942 817.263 150 146 140
-61.7977 121.176 784.708 193 199 189
242.694 222.408 930.908 122 123 124
216.683 234.334 951.718 92 59 34
21.1924 156.132 862.8 36 62 60
94.4107 324.479 942.154 39 40 41
19.6718 -60.1131 1626.85 188 184 172
159.303 68.716 883.754 177 168 149
220.909 239.227 919.531 168 152 144
-11.5351 165.072 848.435 75 86 79
-35.8754 -54.3403 1536.22 130 108 102
109.648 244.913 863.447 166 133 124
171.69 311.63 914.422 50 47 49
253.045 224.098 1014.48 158 137 122
52.3058 53.1884 927.491 60 89 84
221.764 248.886 953.017 164 138 129
40.1587 167.125 843.331 121 121 122
164.448 -23.5203 1082.79 180 167 161
101.66 -15.4447 1072.7 213 152 143
303.918 331.106 1003.45 139 98 89
-18.1321 -111.199 1707.5 165 186 178
205.909 227.753 937.356 160 132 112
-226.232 17.5017 1566.7 162 129 103
246.815 517.043 1081.8 48 70 74
187.887 349.527 940.643 48 50 54
52.8122 280.553 875.483 203 175 158
221.55 209.436 866.273 111 109 111
34.5223 309.496 867.525 193 175 168
88.2443 261.853 888.956 165 163 161
221.504 168.696 962.121 152 118 107
203.079 0.198165 1011.13 93 96 84
158.873 -3.8021 853.057 109 106 93
304.411 291.849 1012.08 108 81 72
125.848 267.528 947.3 177 175 159
171.594 442.203 1022.7 145 137 129
252.163 265.501 967.188 110 113 116
-200.916 14.5177 1358.84 238 212 196
-20.5168 164.304 805.641 36 34 22
284.308 268.752 962.532 103 52 43
231.892 345.475 947.291 180 138 118
239.324 85.6423 929.932 80 47 34
-2.56813 146.441 829.541 77 95 92
-229.678 2.30066 1563.33 141 115 99
143.616 270.059 941.469 61 55 35
61.0932 278.271 884.953 56 24 14
-233.216 -5.48805 1561.13 204 188 172
274.314 230.058 1017.85 140 127 118
216.731 239.084 951.893 186 147 121
166.808 285.065 903.368 37 74 83
112.551 257.55 880.156 158 156 152
147.534 210.086 907.751 122 73 59
133.433 198.243 846.74 128 83 62
-222.634 25.0472 1569 227 193 172
-145.694 -28.7398 1550.84 136 134 126
23.6714 317.283 888.595 181 160 152
141.056 255.958 897.857 53 29 9
-334.473 -165.091 2040.44 160 158 143
136.484 204.032 861.239 114 68 50
122.264 283.611 905.822 169 152 133
35.4665 40.2825 967.587 135 106 89
-231.267 -101.132 1550.11 73 57 46
38.3848 32.0146 970.231 153 128 114
-15.8798 79.1696 826.171 164 192 189
-275.189 -132.361 1626.76 181 187 185
-31.586 76.2054 908.474 168 209 210
269.018 244.057 926.501 26 14 7
46.4987 48.6565 890.566 225 200 188
114.158 224.426 911.057 174 118 93
103.612 21.8176 1074.18 89 87 77
-75.6309 -138.418 1594.16 158 125 104
-236.59 -21.0044 1557.9 208 187 161
-49.7925 164.304 878.29 149 137 124
-206.869 -5.60471 1353.63 174 154 136
210.188 112.002 897.03 67 27 23
150.617 -23.2774 1080.83 210 167 151
59.9728 295.376 894.958 76 49 41
204.404 291.803 926.146 39 67 79
45.4076 35.9505 969.863 236 196 187
-206.931 43.4552 1506.1 165 129 111
