-22.3546 323.354 1242.66 35 20 15
-62.1036 344.586 1179.84 254 252 226
446.335 -152.481 1449.35 255 250 251
516.812 306.928 1787.31 218 251 251
-10.0758 -56.5155 1161.29 251 211 200
467.847 -232.67 1592.83 208 209 197
21.4841 98.8909 1265.42 96 56 35
324.067 113.49 1823.38 38 36 25
-64.4931 37.7202 1158.22 60 29 20
-73.198 113.037 1162.22 74 28 22
384.979 137.319 1738.03 252 251 247
-17.6008 -51.2604 1268.69 208 191 190
38.8075 117.099 1239.42 164 122 92
-113.477 25.5577 1053.56 248 194 166
-16.5086 354.074 1216.34 199 191 185
-58.445 18.5585 1040.18 96 59 57
41.9758 129.552 1241.14 80 58 43
-73.36 183.543 1167.3 251 228 208
-98.081 28.2798 1057.02 252 251 252
35.6001 95.3428 1236.83 255 246 225
17.5875 102.786 1206.89 255 246 234
-118.219 16.1231 1096.45 255 215 190
-19.2941 307.868 1242.29 233 223 210
39.8079 -48.4706 1258.14 71 20 10
98.016 369.898 1310.78 75 77 72
-87.5293 128.497 1133.34 89 63 50
25.4356 122.736 1183.38 179 160 146
26.6536 166.29 1241.26 114 106 102
497.625 224.83 1677.98 71 107 114
10.9077 72.8178 1229.87 255 239 218
-52.9622 365.358 1238.42 154 143 118
-292.118 -11.3409 377.944 217 226 221
479.152 -55.2085 1621.68 252 244 246
-109.422 77.1002 1125.82 253 246 233
-108.442 46.6893 1056 144 40 24
29.6968 153.958 1240.83 255 249 232
43.2603 135.266 1187.78 242 231 215
30.8684 74.2506 1265.64 255 241 215
-16.1827 336.355 1244.86 219 218 213
-12.9975 412.203 1250.2 71 73 72
-28.4653 382.698 1245.04 112 109 107
50.1665 134.916 1273.66 172 141 118
412.999 -284.578 1652.91 210 186 178
-50.4681 306.437 1180.27 76 66 60
7.44762 6.79461 1170.28 184 136 130
654.974 261.853 2152.14 227 255 255
-28.4272 366.619 1269.02 91 90 89
602.605 268.313 1987.52 81 110 117
457.436 -87.9019 1534.68 111 65 50
-82.7323 48.9389 1182.29 142 131 128
-31.5835 266.241 1236.72 114 110 108
-63.3847 297.717 1077.7 244 241 237
455.026 -125.682 1527.3 202 187 180
-558.84 -31.6834 809.25 206 212 201
25.0799 300.055 1311.35 213 214 189
633.833 -284.858 1690.11 208 224 205
1.44406 287.406 1214.14 246 251 229
-96.9479 46.4583 1103.31 126 132 127
46.8857 100.664 1297.84 137 92 69
-49.5124 422.886 1214.57 202 195 185
50.1673 -37.7656 1203.84 254 239 205
-131.677 441.642 1348.32 145 140 135
468.007 -78.5367 1638.22 190 158 151
2.32011 309.287 1247.03 236 224 199
-114.822 57.3111 1123.54 255 237 215
-1110.89 -44.9978 1572.92 185 194 192
21.552 121.13 1266.91 252 209 187
-90.6268 239.014 1167.06 78 81 75
-45.1793 398.085 1368.96 243 240 229
100.067 164.631 1349.88 126 117 104
477.062 -25.9565 1547.9 251 239 248
630.9 -57.6689 1836.96 238 218 214
43.6432 -41.4848 1171.58 228 165 135
-64.7811 246.298 1123.25 172 164 161
522.006 -3.94037 1730.45 103 94 90
-95.7313 74.9492 1154.25 63 60 57
-49.9421 425.234 1242.62 236 230 211
610.707 247.9 1982.32 223 246 247
-80.9491 25.0099 1081.38 108 110 81
-77.3938 33.6009 1061.7 219 226 215
497.025 -21.7431 1550.27 244 238 223
-25.4879 56.6443 1252.48 254 255 251
-9.66624 192.448 1181.59 255 246 238
-14.4993 232.29 1259.51 182 145 125
-30.0921 221.097 1179.33 234 211 193
638.821 -276.786 1692.11 56 75 55
-50.6576 377.871 1111.6 90 71 49
2.36102 -0.715567 1144.76 123 73 55
56.2256 543.91 1365.36 174 188 172
69.9586 121.157 1245.77 135 125 109
538.996 -154.382 1686.46 220 216 214
-113.411 129.372 1105.28 70 49 39
-14.9657 263.272 1221.92 172 148 149
-42.4027 282.519 1106.91 147 91 72
-86.5608 180.397 1114.57 253 251 231
612.211 -211.207 1594.64 233 240 231
49.2233 -54.8827 1259.47 105 44 8
522.266 -73.0425 1624.82 250 241 225
-74.1452 332.436 1231.51 191 179 170
38.1957 300.94 1314.18 150 147 131
551.957 -70.883 1623.42 245 239 233
-55.6997 416.871 1301.59 225 218 205
-41.6649 76.2804 1166.14 253 232 217
391.176 -244.433 1671.34 76 74 70
-111.859 11.3785 1001.82 170 101 68
-31.5933 -42.7098 1135.39 230 207 184
515.562 220.026 1769.83 93 129 140
-65.277 409.55 1298.81 155 150 141
576.825 -18.5576 1710.17 255 246 233
-38.8185 220.567 1177.44 244 218 199
-71.1159 326.415 1231.82 115 108 107
65.6716 554.535 1404.41 65 84 69
-64.7925 254.798 1123.73 169 150 137
-91.3855 -2.94304 1100.92 254 238 226
-94.2561 70.9029 1080.88 204 153 167
-101.698 159.236 1159.11 86 73 65
51.4341 151.84 1244.93 168 154 145
-64.5344 91.3695 1113.44 132 94 90
-20.1413 220.079 1151.82 161 108 109
386.25 -91.9903 1403.42 182 165 153
504.662 -104.215 1696.4 123 81 68
398.94 -260.699 1669.45 75 76 79
485.895 -12.9403 1724.33 143 123 103
571.412 -68.0844 1725.24 244 235 235
37.4826 364.368 1241.18 234 224 208
-149.081 457.689 1416.62 125 125 114
530.814 62.2095 1711.15 163 160 137
639.763 -159.475 1688.52 127 132 111
-118.485 141.204 1153.91 183 147 136
518.613 -94.3832 1596.89 241 207 179
-63.4104 366.298 1174.14 45 41 31
438.399 -80.2694 1534.47 227 162 147
433.321 -263.101 1838.67 181 182 168
567.341 -301.338 1673.75 230 233 236
-56.7515 301.594 1201.09 173 155 157
-34.6429 219.221 1232.59 80 80 66
-91.9472 163.403 1112.29 255 247 227
631.759 -155.401 1689.38 230 231 206
86.1098 105.074 1305.9 141 106 87
-46.8231 280.885 1234.38 242 212 194
-1.29495 398.607 1223.38 255 254 247
35.5247 61.4302 1207.88 179 111 86
-191.308 -3.58639 1078.04 175 147 129
-78.9815 148.158 1163.5 249 234 214
-41.9349 100.584 1194.38 179 130 90
468.909 236.973 1865.63 43 69 66
25.1681 58.0431 1178.02 255 238 210
660.494 -172.413 1714.23 167 172 157
-14.5773 56.5198 1051.62 255 219 212
504.223 -247.15 1506.93 146 148 143
-9.6758 186.557 1181.16 182 175 171
-49.4994 407.442 1213.34 89 65 41
-109.491 99.673 1127 192 175 166
47.3935 182.18 1305.9 166 146 133
35.9288 160.365 1242.62 119 90 77
645.886 -317.337 1782.59 134 145 145
571.678 -155.79 1493.71 243 247 230
86.5894 -100.567 1226.61 228 216 195
-48.1825 230.093 1125.86 180 176 175
-96.9736 113.537 1020.61 179 182 178
410.482 -91.9511 1403.2 114 83 79
523.61 -125.138 1690.53 165 143 136
-101.332 128.221 1130.26 227 215 212
-19.481 387.871 1218.56 111 75 67
558.656 -59.4122 1725.34 254 249 253
96.6523 171.356 1314.52 149 113 99
632.199 307.828 1987.36 158 176 171
-61.9357 210.517 1171.72 186 156 130
-43.6271 7.06421 1212.51 197 120 109
81.339 -6.07868 1235.61 255 244 226
487.961 -47.0162 1624.09 163 151 158
518.96 212.127 1871.16 95 123 121
-38.7593 -5.11497 1160.06 178 124 103
-68.4551 216.388 1194.8 161 115 91
38.6093 395.062 1321.04 144 127 102
560.416 70.819 1801.35 86 82 60
100.216 184.841 1351.34 237 224 214
661.652 28.692 1962.06 253 252 225
-61.7669 104.663 1164.08 186 134 110
-121.23 84.7745 1100.55 97 42 30
-31.4334 262.872 1052.47 255 232 213
-66.9776 240.316 1194.9 166 135 115
-59.0179 181.145 1170.32 190 174 136
27.9468 348.012 1173.41 225 218 190
369.918 -110.68 1259.21 66 38 26
-44.6216 223.233 1176.36 171 123 110
538.684 52.2982 1741.7 129 120 102
439.337 -300.982 1726.93 161 130 127
-122.806 -4.43508 1070.88 159 124 94
620.419 64.5438 1752.66 248 249 230
539.879 -10.4138 1814.64 144 133 122
-62.635 240.095 1319.32 218 194 162
-48.9348 244.937 1174.8 159 107 106
541.725 -97.6816 1623.13 240 217 194
506.511 38.3611 1643.33 162 154 135
-118.897 -7.21006 1025.8 214 190 163
652.999 -75.3912 1835.46 156 141 135
-27.2922 -19.1874 1161.18 205 121 102
-61.5411 -53.7972 1103.32 102 79 65
503.948 -297.49 1675.48 109 83 83
-67.2216 69.0263 1111.29 177 154 141
467.647 195.15 1711.12 98 129 124
-50.4784 324.425 1181.29 164 163 164
-175.229 75.0688 1382.21 73 48 37
762.788 -233.233 1968.47 225 238 218
-11.5099 233.603 1362.46 174 102 92
-49.5371 305.539 1124.65 251 252 251
502.333 -131.718 1607.27 168 160 163
12.5487 350.55 1188.87 199 202 175
