394.002 76.4349 1088.61 10 17 2
-543.439 456.409 1123.52 69 72 64
-392.095 220.25 1035.61 81 56 35
-275.987 437.513 1124.57 191 193 190
388.829 127.829 1068.35 40 54 47
-420.739 208.632 958.442 52 26 7
259.936 -6.53829 1047.77 239 222 216
186.788 40.8035 1063.76 253 253 243
200.216 155.422 1052.46 251 243 243
-358.143 290.795 1025.31 81 62 58
352.046 -75.5481 1030.7 236 247 239
-510.134 444.393 1101.13 192 186 181
-562.341 465.127 1184.08 178 181 175
-462.896 237.323 1030.74 63 58 49
331.558 431.944 1339.91 59 85 92
248.516 34.4003 1063.36 252 254 251
-475.033 361.482 973.675 123 118 116
-324.09 226.996 1043.7 85 78 60
-451.203 112.038 904.632 42 22 6
167.695 -117.417 1136.04 235 218 202
-370.405 308.392 1067.81 243 229 216
263.426 40.9597 1032.48 255 251 243
-487.036 217.732 1051.22 245 236 214
330.698 -92.5127 973.355 64 59 57
249.263 130.641 1017.75 255 245 238
240.864 -10.7384 978.935 253 241 222
-432.239 172.353 952.11 228 206 180
211.024 -66.7406 976.227 233 231 225
227.294 -126.509 1096.85 102 82 71
-478.313 382.938 1008.12 253 252 240
-471.202 77.7313 1000.73 73 51 41
186.614 30.1705 1062.95 224 213 201
349.651 14.4443 1000.56 223 218 203
148.295 18.108 1017.08 253 250 242
-361.38 333.271 1072.76 245 238 227
149.63 15.9287 996.616 220 208 204
-467.223 59.8024 919.68 200 184 169
-460.455 181.31 968.058 255 245 227
304.026 430.609 1336 73 104 118
153.074 148.137 1066.09 237 222 218
-474.6 114.442 940.004 103 75 59
295.719 -39.2442 1010.2 216 197 189
275.246 94.6055 1078.45 94 56 55
469.63 236.628 1173.76 253 255 248
-454.33 177.984 1028.52 91 59 30
168.124 56.4888 1062.38 232 235 232
-409.774 151.233 1121.98 255 231 200
-434.966 208.033 1021.26 113 86 58
-491.182 382.532 990.35 50 47 30
-420.092 247.875 1002.39 236 233 235
387.79 -36.3975 1036.93 244 246 242
-299.788 336.586 1091.5 242 230 212
227.884 165.159 1121.66 222 185 169
318.973 -122.308 1023.69 164 180 173
240.794 164.155 1053.22 242 234 219
-328.094 260.016 1276.34 212 189 168
-353.754 301.411 1027.46 97 72 59
304.903 473.873 1282.16 68 100 103
-374.846 294.479 1065.23 198 184 157
179.195 149.603 1113.76 230 228 230
280.121 374.015 1216.63 201 229 237
-485.185 423.301 1020.8 255 255 250
-339.453 361.925 1052.2 209 198 189
-538.554 401.942 1118.88 219 206 189
-504.103 409.256 1112.55 222 218 200
193.366 -133.093 1167.46 229 205 201
-304.598 324.988 1089.19 248 234 220
-447.929 235.704 992.14 201 183 168
-352.877 111.282 997.36 238 237 231
-326.251 218.865 1042.24 254 239 208
-324.437 353.526 1013.85 61 38 35
-556.474 375.26 1057.75 143 124 115
316.534 -113.573 1046.86 66 83 78
155.28 18.895 980.923 224 216 214
298.127 221.25 1153.59 91 92 95
325.58 -20.8934 995.739 200 196 186
272.829 -5.37821 1029.9 223 223 216
156.05 138.464 1083.44 218 209 211
184.476 -132.982 1166.22 228 172 159
339.663 -120.996 1108.26 200 223 220
-430.598 111.994 1013.5 230 189 178
255.388 43.0903 1049.89 250 243 224
230.122 86.9693 1031.93 255 251 226
-356.858 347.396 1075.32 248 244 237
-422.699 203.78 957.457 243 228 203
388 -31.186 1037.43 101 113 108
-561.4 122.555 871.486 206 193 179
385.807 -28.557 1035.22 231 253 245
-450.428 205.283 1015.99 225 200 172
-320.13 366.963 1016.32 99 89 47
162.805 61.8173 1062.01 89 66 72
123.838 -137.202 1176.49 84 77 76
-304.474 236.646 1162.75 203 179 163
-430.893 79.1489 971.78 133 47 34
-337.328 318.48 1006.85 99 75 73
181.637 232.828 1090.49 216 211 200
145.694 78.2782 1009.11 142 93 97
165.361 174.761 1113.33 226 222 216
-362.53 39.748 951.108 255 239 206
418.943 527.803 1394.36 85 111 142
-560.618 331.062 1101.63 230 201 192
-394.531 454.714 1121.92 230 231 212
-476.919 152.999 975.358 142 144 139
-464.872 82.3455 1003.2 224 211 204
-299.937 344.97 1092.11 232 219 205
237.645 -67.0771 963.327 41 43 39
-451.663 217.978 989.424 126 98 87
292.327 -32.3205 992.058 82 75 66
212.709 -3.87848 1023.55 193 181 168
202.457 -118.265 1094.83 131 107 85
276.474 384.144 1270.09 51 85 101
373.431 45.8415 1084.17 255 254 231
-527.56 338.198 1017.29 246 239 219
-549.259 196.234 938.691 109 83 65
388.507 -16.8721 1013.73 213 220 206
141.481 77.6843 1060.03 255 252 240
261.873 173.698 1174.52 54 37 27
-319.684 233.48 1032.59 253 249 232
222.154 -63.6381 915.915 156 159 151
149.019 76.8015 1020.9 246 224 227
391.59 -7.99055 1039.85 215 227 212
103.269 -125.479 1174.57 191 181 154
386.3 -30.4325 999.507 239 248 234
215.803 21.7988 1025.77 233 189 171
299.545 -40.4437 1050.18 218 193 182
143.662 114.079 1041.51 78 45 31
209.506 100.642 1070.91 242 204 175
-585.516 357.764 1078.71 146 136 130
-350.26 142.662 1020.42 249 217 189
199.516 -126.278 1093.76 219 175 162
-571.424 136.077 904.319 130 125 121
-328.779 342.679 1011.59 103 88 81
200.574 229.549 1036.23 221 228 190
235.173 158.653 1078.04 185 180 179
267.383 129.556 1124.18 187 162 161
411.658 29.9596 1085.8 243 255 254
399.446 -10.5954 1040.18 248 254 239
184.182 -103.58 1051.72 205 181 173
-507.363 317.181 1022.42 128 123 121
-466.102 331.488 1038.34 156 154 154
-427.29 270.195 1001.81 165 161 160
389.754 12.8472 1041.6 241 246 238
-547.062 252.466 958.107 228 203 178
433.532 160.223 1098.9 232 248 241
366.197 462.652 1254.97 109 135 144
207.695 195.684 961.541 100 79 69
-576.522 196.705 983.6 129 105 98
217.055 91.6891 1030.67 110 101 94
428.288 96.1552 1093.14 228 248 227
140.786 35.8153 1017.21 248 243 241
217.247 88.536 1010.64 251 245 233
417.296 101.699 1092.73 227 248 240
-432.654 229.381 996.751 112 87 74
-351.905 105.287 975.752 245 231 220
427.107 221.075 1102.86 233 242 232
-410.61 221.477 1077.21 167 119 101
-600.136 273.081 1028.29 255 253 235
-592.038 708.327 1458.26 167 170 162
385.27 456.976 1256.24 209 234 244
-410.605 214.406 942.073 255 246 233
-403.682 245.33 978.793 136 133 128
-459.072 255.907 1033.77 200 180 165
-457.564 147.8 966.958 136 123 121
320.253 436.227 1252.07 84 115 125
-496.423 433.611 1051.79 130 130 123
411.431 24.5201 1085.26 240 248 238
-351.293 196.82 1087.98 139 116 84
260.142 -90.5672 1021.52 137 153 135
-373.875 217.056 956.378 143 118 92
-557.094 333.664 1061.62 166 162 162
-436.404 249.825 1041.05 241 232 226
-419.558 173.258 1047.66 165 128 115
-524.633 360.043 1067.91 116 100 93
-341.825 269.674 1126.59 255 249 217
-284.23 270.877 979.362 171 138 120
-491.542 299.609 993.749 130 90 78
158.202 123.765 1065.38 139 123 115
-356.006 192.922 1018.63 172 148 130
264.925 155.43 1099.4 95 74 84
-439.37 57.4864 839.299 165 148 136
324.96 -100.504 1026.25 190 205 207
281.583 171.709 1063.33 123 94 88
-331.018 149.086 982.179 237 204 178
-609.393 167.891 955.895 225 221 212
-418.805 360.099 1011.93 238 237 216
317.973 -99.6197 988.477 148 163 167
-360.456 163.349 997.907 255 236 228
-388.525 118.36 987.082 240 230 233
288.662 -113.728 1061.79 33 68 65
-602.718 144.775 956.594 160 166 152
-526.319 359.116 1019.89 255 246 214
-453.262 389.752 951.684 239 242 236
217.644 244.285 1125.23 186 188 147
216.604 65.5669 1028.91 208 191 164
-622.148 204.097 999.229 228 232 231
-384.788 139.792 938.427 161 120 101
360.128 317.491 1172.03 244 246 241
208.041 145.051 1052.55 243 220 227
198.892 119.394 1070.76 236 230 228
-366.659 30.2974 949.532 216 194 160
-585.152 349.76 1078 159 139 142
137.301 -46.7259 954.99 148 152 144
305.071 63.0624 1000.38 240 229 200
-614.371 151.473 952.524 235 233 222
261.701 110.264 1017.28 226 213 214
-466.163 299.687 1003.06 140 144 135
196.624 109.993 1048.09 244 229 213
-494.748 70.2877 962.6 125 104 81
-620.394 208.94 1000.42 132 136 134
-404.261 125.529 961.788 249 228 205
-466.716 139.04 1140.61 161 106 89
147.531 -96.8703 1089.94 79 88 84
-348.344 126.601 1256.76 187 176 166
241.988 217.763 1078.34 158 152 136
177.257 129.568 1068.46 178 169 180
303.669 252.747 1114.76 243 245 222
250.452 274.353 1232.4 207 211 177
-466.728 495.224 1080.91 156 160 143
407.279 383.114 1248.27 88 118 123
435.526 138.043 1097.27 229 252 235
-348.306 107.907 936.728 255 223 185
-503.869 338.184 1025.78 252 253 249
-355.458 165.172 1066.39 145 117 90
-501.938 289.549 1021.6 249 245 241
143.538 48.0295 976.084 250 238 238
-275.623 411.584 1104.18 205 203 178
308.442 -115.76 1045.89 62 77 82
338.025 -105.318 1037.97 208 232 231
336.244 364.005 1222.94 107 150 160
231.621 -91.4264 1018.71 19 32 25
277.021 175.378 1128.73 144 117 105
-397.457 91.7339 920.929 184 141 110
209.619 242.129 1146.77 73 75 53
299.27 369.708 1187.91 116 155 154
-599.577 326.703 1070.12 169 169 156
-377.453 447.53 1094.24 119 114 102
-544.847 119.473 878.027 239 240 231
-484.647 372.474 1048.59 201 208 194
-594.894 252.874 1028.01 211 206 181
-357.365 125.687 956.469 164 143 125
-329.967 350.385 1083.68 251 240 213
-275.709 417.229 1104.57 150 143 115
-490.912 556.616 1169.38 240 242 235
118.901 -151.207 1207.23 93 84 78
-285.82 437.664 1150.2 233 229 211
-350.274 46.1591 1189.04 54 55 51
-371.122 154.977 1015.04 246 229 209
425.104 96.1946 1108.42 187 212 190
241.349 124.587 1011.79 206 185 175
-359.424 138.691 973.005 170 137 107
-587.786 182.018 935.417 229 230 221
392.107 5.03502 1041.08 240 244 221
420.728 111.505 1068.75 225 248 225
271.354 203.088 1200.55 209 188 166
157.357 62.978 1175.88 255 250 250
-332.968 164.186 928.574 181 126 105
-561.027 334.536 1051.26 237 232 231
-432.387 94.7859 1014.86 169 87 57
-360.347 182.733 1016.52 232 225 204
-305.408 307.954 1217.82 83 58 53
134.516 -57.8568 973.372 138 116 100
286 246.003 1205.2 245 247 249
-356.897 233.906 1021.41 244 226 195
-566.189 441.449 1113.17 170 161 141
291.316 -81.9641 1000.52 212 208 205
-339.007 69.1254 1116.42 197 169 151
-434.807 126.483 1040.38 134 88 85
352.733 455.425 1202.93 233 253 254
339.864 506.833 1409.1 100 130 132
393.412 29.01 1019.31 230 242 233
379.861 -36.3965 1036.36 162 182 172
-334.329 142.729 1262.98 71 72 60
-290.452 387.008 1115.05 227 179 144
234.594 126.042 1075.82 120 85 84
-297.63 238.154 1189.78 150 127 112
181.139 166.403 1088.26 135 135 139
153.717 38.3011 1019.14 250 247 248
254.502 -168.741 1225.6 56 72 68
-646.537 276.87 1099.82 245 242 221
278.592 235.988 1171.44 221 225 228
-376.274 106.805 950.093 225 206 188
-392.396 111.457 1001.16 255 250 213
-281.354 309.819 1006.7 241 235 209
-531.814 142.272 921.582 254 227 216
311.055 -80.4729 989.614 97 94 94
318.045 82.5844 1126.2 255 251 236
91.8961 -41.6882 898.892 55 54 51
-537.673 459.251 1087.36 206 204 198
-350.004 102.596 973.605 228 200 178
-300.732 215.714 956.47 226 223 207
402.649 389.505 1243.82 241 253 253
419.795 323.403 1227.84 219 228 223
457.514 404.145 1372.13 204 240 243
-583.384 216.158 982.831 180 152 139
128.457 -142.963 1366.07 115 100 84
-343.695 463.709 1138.59 198 209 208
-595.546 314.01 1085.18 146 114 94
-564.203 274.423 996.701 219 205 182
333.934 55.2153 1102.71 227 226 205
-549.727 370.044 1093.01 249 219 209
192.391 -7.59333 942.957 91 78 65
-517.956 336.459 1031.46 155 145 142
-415.373 190.26 1122.13 252 235 226
-584.54 315.109 1089.86 255 246 230
180.75 122.412 1086.47 178 155 152
-513.801 316.447 1020.04 179 174 173
-554.168 432.959 1153.27 254 251 242
-330.302 107.134 864.754 160 135 115
-367.759 21.3012 1055.59 136 124 110
407.883 63.6814 1008.95 247 253 230
-437.569 360.997 1050.68 153 162 133
-510.536 469.64 1098.93 49 55 48
221.191 -78.7464 1175.77 126 128 116
343.314 291.692 1216.71 210 194 169
-587.268 142.59 962.484 177 171 160
430.83 170.123 1118.73 206 224 211
358.433 81.0368 1130.13 235 228 200
-490.071 502.466 1118.28 118 119 109
266.459 206.181 1084.9 221 219 179
346.016 56.4982 1041.72 236 241 220
223.309 -112.266 1015.82 115 84 78
133.38 31.0288 973.201 169 153 147
350.727 456.487 1286.81 145 182 183
-365.276 433.602 1185.08 222 156 133
-423.564 69.2968 948.328 163 98 72
311.459 -30.3737 1027.42 170 165 162
438.561 294.296 1241.42 160 162 138
-510.295 129.305 946.411 245 227 206
-354.8 119.505 935.447 245 225 203
298.616 -75.0141 960.571 132 126 122
412.224 160.639 1073.62 212 228 216
313.572 151.115 1064.63 175 162 144
-579.5 125.72 978.229 247 248 239
158.864 108.535 986.514 126 93 89
365.769 -60.0729 1033.15 93 113 90
198.383 59.5841 988.728 161 141 118
-605.025 225.155 1008.04 146 116 106
-554.291 181.648 1003.78 231 165 153
-514.524 127.334 959.376 240 189 167
-500.063 371.173 1078.05 222 208 188
-519.232 269.75 929.866 144 122 102
-406.995 165.463 1070.76 255 221 212
177.56 -69.4329 995.113 112 125 111
-616.387 135.668 1043.93 190 179 182
-586.974 411.073 1138.86 169 128 112
-553.937 185.03 955.665 126 121 110
383.913 267.134 1234.52 248 246 224
328.66 87.0755 1074.57 254 252 248
