-752.452 -174.704 1279.43 162 155 144
362.556 -182.689 1764.07 197 226 225
282.13 -175.523 1849.43 118 91 87
320.496 -135.461 1742.61 64 51 43
320.496 -135.461 1742.61 64 51 43
157.822 -92.9592 1816.67 19 15 2
368.398 -95.2082 1824.32 177 173 160
-206.6 121.529 1344.86 44 15 6
-184.129 102.35 1132.09 35 12 4
-184.129 102.35 1132.09 35 12 4
414.841 224.741 1938.11 170 153 125
202.425 261.706 1873.05 38 33 18
-7.66664 188.965 1296.37 255 228 206
-154.495 180.461 1076.98 167 122 107
329.723 320.355 1876.12 139 164 164
241.154 366.032 1974.1 32 62 65
-229.081 283.195 1185.49 59 18 10
-107.21 353.76 1280.78 171 170 168
-145.981 324.345 1115.87 128 104 98
-310.576 -81.1232 572.539 40 44 39
281.756 -192.274 1899 185 192 199
-239.378 -89.2876 926.696 81 60 46
384.112 -176.654 1812.4 83 83 78
449.599 -103.34 2043.39 123 118 98
385.967 -57.1106 1749.45 148 148 126
-97.2032 39.7337 1240.68 101 76 57
-93.3456 71.9156 1113.92 241 221 208
-165.948 157.644 1135.19 171 152 147
350.56 337.331 1974.12 141 165 165
350.56 337.331 1974.12 141 165 165
-96.4283 226.333 1145.2 144 109 93
374.78 408.595 2017.53 165 188 193
397.947 417.792 2005.35 181 184 184
-110.622 247.74 1144.47 90 62 56
402.771 500.014 2057.04 211 222 217
-63.5095 322.696 1269.94 253 251 239
-150.956 297.699 1103.36 113 110 87
-150.956 297.699 1103.36 113 110 87
-189.338 433.434 1194.28 179 121 96
-76.599 473.189 1249.41 255 250 233
-76.599 473.189 1249.41 255 250 233
-22.9383 513.276 1257.49 47 56 53
351.367 -186.824 1820.65 192 218 218
-281.402 -37.8065 465.845 137 148 141
194.878 -119.141 1696.96 6 11 8
288.644 -36.9523 1711.33 42 23 7
184.816 -17.0043 1889.52 108 112 81
-118.628 8.98841 1241.14 153 150 152
387.012 47.3354 1883.21 136 114 99
488.143 157.16 2168.54 255 255 250
-215.245 103.307 1125.09 69 29 16
377.947 239.495 1878.64 137 121 103
-85.3832 155.706 1143.45 216 143 144
-12.6226 196.394 1269.44 169 113 98
2.39926 219.638 1288.85 255 254 238
-18.185 220.947 1255.61 255 254 245
-18.185 220.947 1255.61 255 254 245
-4.06928 232.6 1282.44 166 127 107
-128.572 227.405 1109.65 185 148 132
64.0355 291.661 1403.03 255 248 230
275.192 428.673 2062.93 108 136 133
367.032 437.556 2077.68 245 255 250
65.1802 307.825 1391.69 255 242 223
-37.6702 269.43 962.975 249 254 252
-77.5411 416.203 1162.37 245 239 237
-81.0163 482.539 1208.98 53 26 26
74.5781 -340.483 1952.4 159 146 133
-24.992 3.08178 1311.55 67 108 109
-252.495 25.5321 1327.03 83 67 66
-54.5561 99.1752 1152.6 241 161 129
-54.5561 99.1752 1152.6 241 161 129
-19.5276 173.96 1288.93 164 130 111
-79.3989 321.895 1176 183 86 71
-177.099 334.757 1206.49 68 38 34
-105.523 338.735 1156.87 85 38 28
-73.2775 370.531 1099.29 255 251 255
-40.39 489.719 1247.53 97 88 76
-117.559 83.5486 1096.99 221 208 183
-206.957 126.001 1138.21 53 38 29
-40.76 146.186 1222.98 254 247 255
-109.21 152.338 1117.74 251 252 249
295.256 240.602 1664.43 47 36 23
391.609 376.729 2043.52 248 255 247
18.1047 248.03 1325 253 254 254
-76.4301 262.093 1186.33 242 207 180
-83.9213 344.506 1169.87 255 246 253
-78.4395 382.869 1198.41 255 251 255
-94.3789 413.456 1192.72 84 57 62
-176.045 -115.237 347.723 25 33 27
-308.392 -43.6447 417.47 95 95 81
-343.619 -52.0628 645.822 66 69 71
-59.2882 32.3775 1204.57 172 145 154
226.426 356.489 1986.07 79 91 114
226.426 356.489 1986.07 79 91 114
-155.077 228.68 1147.3 70 56 47
-90.2573 278.13 1001.47 177 170 172
1010.91 255.044 -1859.63 125 136 131
-72.9443 -14.2812 81.9161 99 100 87
-72.9443 -14.2812 81.9161 99 100 87
-235.473 -118.48 1112.12 49 41 35
363.053 -151.645 1805.7 132 118 108
363.053 -151.645 1805.7 132 118 108
356.006 15.8373 1666.52 236 240 235
-340.458 91.7296 1246.64 121 91 72
51.5822 195.206 1514.43 196 179 162
323.47 255.585 1841.61 73 59 52
-149.211 167.187 1116.22 173 122 101
-149.211 167.187 1116.22 173 122 101
-101.863 199.974 1126.03 253 252 254
-212.726 250.795 1172.26 156 94 63
18.6433 14.1711 1352.75 225 192 168
12.014 -225.919 1419.31 183 174 160
-308.242 165.145 1241.57 89 64 53
289.985 202.259 1799.02 52 39 39
384.502 41.3214 1814.74 211 212 197
-329.842 10.3129 1420.93 140 131 117
