-319.186 -574.105 2655.49 21 17 9
-1082.47 -393.542 2772.18 144 152 146
368.843 -216.958 1620.04 118 95 94
-1159.29 -164.488 2369.91 151 130 102
528.512 -110.059 1712.22 255 255 240
386.15 -64.7323 1578.62 114 95 87
279.915 70.2414 1559.74 141 144 117
-95.9044 107.709 1104.98 176 157 148
-101.177 112.732 1098.78 63 25 11
80.3306 180.92 1217.86 251 238 233
-158.433 237.954 1223.02 63 21 8
-33.8141 232.783 1119.75 138 107 106
128.762 577.998 1420.32 247 245 239
414.76 -184.449 1586.96 56 45 43
414.76 -184.449 1586.96 56 45 43
-1941.5 -405.892 3638.12 119 118 108
207.516 -172.763 1876.84 29 30 14
406.058 -120.408 1583.81 89 73 69
478.21 -67.4868 1657.22 255 255 227
442.045 -18.4151 1659.15 250 233 227
307.229 22.6475 1738.28 127 128 105
-20.1631 65.3448 1102.64 244 254 236
-20.1631 65.3448 1102.64 244 254 236
375.206 132.643 1835.96 51 31 14
-3.85458 104.895 1069.21 255 241 233
-37.9849 170.26 1103.45 250 254 253
114.771 224.257 1302.04 252 254 231
460.412 306.779 1742.13 242 255 255
-42.7999 195.668 1113.31 92 61 54
31.2083 500.515 1304.58 31 35 30
123.095 594.999 1422.3 244 243 235
81.0209 582.969 1317.28 183 201 192
58.5229 612.251 1368.51 47 53 48
268.74 -200.675 1551.36 144 119 119
379.324 -91.6548 1558.4 26 15 7
396.912 -80.2701 1578.11 225 227 218
473.708 162.457 1721.83 141 121 97
71.8324 177.617 1234.57 166 129 117
77.5493 197.75 1253.28 135 110 90
-63.8849 184.16 1124.36 206 171 159
475.916 405.758 1912.74 159 186 184
386.254 419.615 1974.49 67 84 79
-8.2789 378.991 1194.02 252 251 249
-59.9174 429.238 1308.78 43 24 11
10.9657 477.177 1235.89 251 248 234
-2092.21 -588.741 3691.77 123 119 108
295.58 -169.23 1562.54 21 25 21
-1816.22 -316.797 3138.25 144 148 141
-2208.88 -218.794 3175.6 135 144 140
-2299.87 -180.142 3128.44 125 145 132
467.744 36.6956 1674.01 231 228 213
0.812422 61.48 1136.22 247 255 255
468.469 160.767 1704.9 141 121 97
-2.03518 113.89 1127.57 241 249 239
408.632 178.896 1627.16 58 44 35
-16.3864 125.175 1122.56 251 253 255
-10.5545 270.719 1158.3 187 103 70
34.5299 447.35 1271.77 87 73 64
34.5299 447.35 1271.77 87 73 64
49.4069 443.894 1239.05 242 228 211
-52.0954 39.7888 1064.37 214 193 171
-131.618 75.0757 1087.52 44 29 19
429.923 217.3 1751.23 232 241 238
95.7244 189.929 1265.67 251 254 255
-6.00745 208.66 1150.76 248 212 181
44.8837 290.787 1227.64 252 255 255
-7.92721 327.164 1172.73 255 253 249
-24.1505 357.132 1171.08 87 48 47
21.531 371.889 1218.02 253 252 251
-1326.41 -364.759 3098.12 65 71 69
-2499.66 -311.688 3562.67 68 78 71
33.301 95.9602 1198.5 255 251 243
-41.8554 102.934 1067.85 255 251 255
365.249 280.785 1956.47 99 123 132
-84.262 175.502 1109.38 75 60 41
-119.042 335.393 1205.98 143 89 62
39.2584 416.844 1296.87 115 100 87
7.65749 427.727 1226.09 253 251 248
343.108 -217.869 1688.39 202 179 174
451.241 -195.087 1597 107 91 83
451.241 -195.087 1597 107 91 83
-34.5195 150.26 1090.56 255 254 251
-141.201 204.264 1191.02 149 88 60
-141.201 204.264 1191.02 149 88 60
-132.198 275.623 1227.31 139 88 76
44.0037 442.498 1365.33 121 98 93
-1180.05 -559.874 3317.59 113 115 113
346.41 -6.97846 1609.17 60 46 39
-86.7974 73.2856 1050.45 59 37 33
252.722 109.331 1793.93 80 70 63
75.3292 550.453 1370.89 79 79 74
423.589 -17.537 1478.15 191 180 170
265.028 55.9289 1426.89 89 96 63
41.1504 132.967 1294.53 255 243 226
-147.405 149.465 1128.59 148 87 54
