-458.679 -33.8365 1556.2 23 20 8
-458.679 -33.8365 1556.2 23 20 8
-465.964 19.3494 1397.55 119 106 80
-465.964 19.3494 1397.55 119 106 80
-410.189 36.0795 1506.23 2 6 8
-493.691 98.0408 1351.15 150 145 144
-593.962 176.875 1528.92 31 17 1
-607.779 200.009 1615.22 119 109 91
-587.968 193.757 1533.65 29 14 0
-587.61 214.336 1556.38 26 23 5
-567.212 258.948 1442.97 254 247 233
-21.4034 155.263 866.714 37 34 32
-30.3073 158.739 861.35 167 172 165
-546.5 294.737 1556.91 35 42 28
117.87 237.845 1018.27 56 81 83
-473.588 343.735 1372.33 253 248 239
-473.588 343.735 1372.33 253 248 239
-380.297 297.833 1172.14 70 54 41
235.45 292.527 1169.53 77 40 35
-398.72 392.618 1480.23 254 252 236
-132.153 322.395 1036.07 255 251 243
0.00494468 -25.2715 938.175 65 66 54
-992.57 -27.2653 1442.27 208 215 210
-880.312 27.2406 1323.96 241 245 240
-572.922 21.7491 799.172 162 188 175
-530.567 29.235 1391.33 20 9 3
-2328.26 94.5571 3598.66 241 246 241
-582.227 56.1236 1198.47 250 234 216
-1014.56 87.7421 1492.62 172 188 174
-459.751 95.3765 1493.33 209 186 171
-28.6166 62.9831 939.646 59 67 67
-1069.8 123.614 1743.78 134 145 138
-618.657 107.615 1503.77 23 10 7
-1379.5 171.771 2233.29 230 237 236
-606.895 105.811 1346.66 219 179 142
-597.714 123.596 1345.89 197 171 157
-479.711 116.416 1215.46 99 99 91
137.857 103.128 1041.74 127 89 76
-195.876 103.485 933.014 247 244 225
-24.6756 123.086 854.027 23 30 23
-39.3514 135.016 852.878 182 175 170
-504.629 335.677 1534.98 228 221 220
-447.578 348.972 1513.15 78 44 34
57.0498 267.809 957.636 74 56 44
172.268 301.989 1081.42 44 33 22
-77.4175 268.963 947.071 221 220 191
-77.4175 268.963 947.071 221 220 191
-1338.56 -80.3406 1918.7 119 129 123
-1286.88 -70.4078 1915.48 202 211 206
-509.36 -5.4168 1406.49 35 30 27
-536.043 37.4891 1331.82 172 154 129
-536.043 37.4891 1331.82 172 154 129
89.8557 38.4472 962.469 53 55 41
-524.791 96.8209 1397.75 53 43 29
-145.84 86.6841 918.283 27 50 39
140.671 102.174 998.312 72 30 21
-118.523 103.877 861.54 63 76 76
-101.999 104.633 854.528 76 86 84
-138.305 116.657 880.129 165 155 146
-53.575 175.222 838.35 222 226 212
-554.061 307.769 1430.52 253 253 251
-298.079 323.442 1398.67 27 24 18
224.24 270.229 1160.92 79 26 14
-146.705 265.874 1024.45 255 249 240
-439.382 368.64 1353.25 179 136 102
-121.85 367.92 1049.31 254 254 245
-1050.04 -101.949 1421.22 178 195 186
-31.6155 58.1119 859.693 66 60 63
-168.019 179.908 969.11 146 126 113
-72.08 159.128 838.381 161 181 148
-524.754 285.437 1410.61 254 254 249
-162.273 219.97 973.069 171 166 145
182.579 283.895 1093.6 90 125 115
-1030.28 -99.5199 1396.09 178 196 186
-67.2448 145.132 837.132 255 255 245
-690.935 314.755 1666.58 253 252 251
-461.329 389.347 1438.33 169 114 85
-492.302 -16.5471 1456.17 71 50 39
-382.139 85.6969 1499.34 64 50 44
91.0126 274.294 999.778 138 71 39
67.1852 286.065 975.319 162 156 143
-498.872 43.3342 1425.41 174 168 155
-498.872 43.3342 1425.41 174 168 155
-1246.17 133.548 1912.31 85 85 73
-122.956 88.2899 907.13 196 216 210
-15.3813 134.702 879.703 160 160 157
189.097 195.776 1104.41 49 50 44
-5.91651 263.253 889.835 57 52 47
-454.617 -34.9257 1531.38 26 25 12
115.11 0.761269 1009.9 54 46 44
-450.861 95.4081 1456.48 209 186 171
-413.607 264.967 1504.89 202 169 151
-413.607 264.967 1504.89 202 169 151
24.5462 282.486 924.39 172 134 110
-50.7847 115.778 840.208 51 44 43
193.158 252.374 1095.16 110 60 57
-210.425 324.876 1256.18 227 221 228
-731.944 108.257 1580.88 251 243 227
39.3611 131.546 927.627 46 38 29
-574.329 249.673 1407.57 209 206 199
-2.74694 234.155 900.025 53 45 41
44.9327 133.179 919.881 47 42 32
