99.0766 -360.167 1191.01 65 60 55
35.8786 -331.1 1557.29 43 31 21
35.8786 -331.1 1557.29 43 31 21
-401.347 -40.755 1270.07 42 26 6
-563.564 -9.58124 1272.42 253 244 228
-414.867 -9.55991 1400.99 128 114 91
-516.165 0.17052 1310.28 31 27 10
-516.165 0.17052 1310.28 31 27 10
-492.445 7.46978 1152.45 255 253 228
-462.915 79.2042 1309.37 17 17 8
-117.457 59.8912 920.421 247 234 225
29.1832 90.1453 936.964 209 215 204
15.4772 78.6949 815.231 217 219 209
81.9323 119.724 917.166 42 12 7
-201.283 113.545 804.767 69 65 62
-65.169 138.326 834.626 19 12 3
-65.7739 133.64 802.849 22 11 2
-111.849 186.552 799.579 42 42 35
22.1802 218.362 897.204 224 165 141
61.6241 235.99 946.62 147 118 111
-103.509 195.659 795.938 34 35 44
-97.5516 191.571 752.42 223 210 201
93.8928 269.154 955.597 156 161 153
22.95 265.203 921.543 180 135 114
22.95 265.203 921.543 180 135 114
28.7966 278.25 910.932 204 187 179
47.032 283.054 924.69 51 67 77
47.032 283.054 924.69 51 67 77
111.06 322.806 969.463 142 156 144
43.9306 317.757 946.888 83 98 97
103.236 345.864 990.625 195 213 212
112.328 347.411 991.672 39 52 53
-32.0046 309.814 875.914 192 164 154
43.5096 353.465 941.509 57 56 54
111.539 389.673 1012.77 188 159 142
82.1045 463.246 998.154 47 38 27
146.781 -341.281 1390.41 172 168 166
-371.56 -68.8084 1433.53 126 129 107
-598.765 -36.9623 1384.81 195 192 173
-477.41 -17.1102 1378.73 194 178 157
-514.715 -6.80569 1363.27 40 33 22
-124.905 13.7065 1066.13 112 108 98
-124.491 23.2166 1043.85 246 253 253
-114.867 24.8383 1045.42 36 21 18
-351.29 53.8313 1425.62 47 16 11
77.4008 34.0013 891.538 26 27 17
-391.465 61.8357 1421.03 206 184 168
-391.465 61.8357 1421.03 206 184 168
-66.7256 38.3281 973.876 200 175 161
93.4392 83.7723 910.236 13 12 5
-243.595 100.303 908.228 52 54 51
-249.946 109.306 894.661 77 76 65
-249.946 109.306 894.661 77 76 65
81.0263 171.187 918.647 169 119 99
-99.1854 161.269 811.838 32 55 54
-104.136 172.82 788.104 83 84 80
112.109 228.979 967.642 164 170 168
112.109 228.979 967.642 164 170 168
-111.517 185.241 795.917 42 42 35
-97.4262 189.708 806.398 33 37 38
27.573 269.635 903.399 77 21 7
117.642 310.285 995.435 90 90 98
117.642 310.285 995.435 90 90 98
116.309 324.971 999.219 44 31 29
16.4525 291.196 893.159 195 190 185
16.4525 291.196 893.159 195 190 185
118.026 347.194 970.786 68 36 22
126.202 363.659 995.314 194 165 147
-24.7428 316.212 854.875 235 236 233
61.5915 377.861 946.186 148 103 92
110.921 510.216 1079.95 61 86 83
102.735 516.18 1058.29 60 86 83
-517.453 -45.7871 1371.12 69 93 98
-61.012 -4.75473 1057.44 74 68 63
-533.807 2.72801 1277.69 117 103 77
-486.72 2.51144 1321.14 170 145 123
-486.72 2.51144 1321.14 170 145 123
48.1973 84.2786 879.601 144 115 84
48.1973 84.2786 879.601 144 115 84
-145.898 175.988 790.809 249 254 240
44.7346 228.303 909.65 56 28 22
-80.6268 230.589 835.399 39 25 26
-80.6268 230.589 835.399 39 25 26
5.5479 273.586 891.521 208 206 202
52.7567 291.615 925.396 116 164 157
161.667 333.732 1011.81 67 45 34
113.805 373.628 992.556 199 167 146
113.805 373.628 992.556 199 167 146
-55.9848 406.462 867.323 123 111 106
-383.325 -53.1293 1447.3 55 47 39
-467.045 -12.5183 1285.27 53 38 31
-71.8445 170.64 842.26 27 33 31
-71.8445 170.64 842.26 27 33 31
67.1808 361.604 932.267 62 34 27
-135.748 81.8551 869.435 141 206 196
-26.093 220.217 856.95 150 76 51
-134.88 242.768 837.244 201 202 186
135.756 285.616 915.595 73 22 15
-19.5825 267.35 869.844 176 180 172
-827.336 -220.628 1559.94 178 193 184
-414.57 -43.792 1382.87 72 52 37
-509.064 4.1858 1316.48 59 54 35
-320.45 60.4519 1462.97 58 43 35
-160.616 77.7581 945.749 115 105 88
99.1556 312.819 966.209 68 61 58
-499.007 230.408 1396.59 255 253 247
146.608 363.626 1022.89 187 149 133
146.608 363.626 1022.89 187 149 133
-716.68 -300.126 2079.72 109 106 93
-374.001 -58.4583 1466.25 54 52 41
-388.257 62.904 1400.61 211 193 178
-388.257 62.904 1400.61 211 193 178
26.4041 41.5765 926.128 136 204 196
-59.0749 316.635 852.671 196 161 144
-59.0749 316.635 852.671 196 161 144
108.265 191.183 957.138 80 63 58
35.7331 203.038 900.683 194 147 114
61.9272 250.494 940.161 48 36 29
61.9272 250.494 940.161 48 36 29
99.815 -453.297 1723.19 158 157 154
99.815 -453.297 1723.19 158 157 154
126.454 125.33 940.332 181 177 159
-30.4206 177.269 849.793 54 46 42
-86.3351 269.254 826.901 60 56 53
-17.5861 178.728 846.799 61 54 55
