143.182 -584.05 1835.29 105 29 20
116.839 -497.996 1607.11 145 106 87
116.839 -497.996 1607.11 145 106 87
256.381 -120.939 1025.35 133 92 82
256.381 -120.939 1025.35 133 92 82
266.793 -90.5049 924.8 209 227 226
-343.674 -76.8073 1122.74 105 118 114
-762.994 -63.796 1285.41 189 195 190
-302.429 -33.8209 1073.98 47 35 11
144.991 8.64782 939.015 138 135 119
387.796 35.7382 891.736 122 152 109
-304.467 43.5653 987.991 251 227 190
397.767 43.1614 915.18 118 147 108
140.571 96.5669 962.005 197 191 165
-354.093 110.463 1067.08 255 228 213
242.339 101.695 946.28 249 226 194
-186.859 162.878 1299.94 157 131 116
-190.201 160.305 1257.64 57 36 28
298.739 140.844 989.34 255 238 223
260.625 136.855 932.635 159 134 123
-204.448 213.108 1004.06 78 57 49
-422.945 298.31 1152.12 244 241 229
257.95 252.576 964.897 230 219 194
256.591 271.262 1022.07 196 181 157
-433.974 318.325 1174.41 255 251 244
-433.974 318.325 1174.41 255 251 244
307.139 329.507 1047.33 169 187 186
396.215 365.954 1076.82 192 212 219
400.694 395.681 1064.6 234 254 254
-227.127 445.021 1211.25 137 150 142
-175.766 522.859 1301.95 120 129 127
-1261.96 -361.67 2354.81 66 64 58
244.217 -169.729 1140.85 97 68 63
140.442 -80.291 993.059 158 143 108
160.315 -52.7795 908.463 190 187 170
-283.74 -50.2236 1139.99 109 105 84
257.033 13.619 884.166 160 151 140
215.292 48.489 937.136 254 253 223
-425.846 56.3195 1023.15 255 242 226
-323.578 62.225 1079.42 255 252 218
-319.388 77.8795 1090.39 255 245 229
154.431 93.0127 983.751 123 88 68
-302.311 119.049 1090.56 250 230 200
315.746 128.951 955.101 254 254 237
-200.848 173.385 1238.99 55 27 19
209.582 153.893 994.693 139 98 83
-156.697 232.788 1327.36 33 23 8
235.11 186.716 991.694 245 224 194
-163.304 251.489 1290.59 77 44 29
434.73 214.231 950.156 62 56 43
451.835 220.319 971.508 182 177 161
419.383 226.885 956.421 249 251 241
-184.267 308.028 1224.35 201 205 192
-431.421 280.123 1090.95 162 161 157
384.166 263.884 1012.37 252 250 230
-249.952 285.447 1085.68 254 228 217
-445.479 355.106 1226.75 252 251 241
394.901 328.364 1073.09 242 252 249
-219.624 340.657 1117.55 255 254 233
477.643 339.474 1102.57 80 91 93
416.813 355.472 1096.59 207 235 234
-133.212 453.902 1195.98 177 166 145
-213.022 458.266 1221.89 135 187 168
-355.076 481.001 1260.99 254 254 249
-104.651 -433.18 1707.09 33 17 7
205.9 -112.335 1034.49 45 21 29
205.9 -112.335 1034.49 45 21 29
240.017 -97.5731 932.735 92 59 61
-860.215 -142.531 1810.3 66 60 49
-1594.93 -202.073 2616.02 103 107 102
-738.155 -72.3937 1207.4 92 99 91
151.435 -63.2418 945.949 22 25 12
-1814.51 -169.704 3066.63 100 99 95
-818.664 -41.1892 1400.7 93 99 81
-867.887 -39.8814 1452.76 165 164 153
343.64 -19.4489 909.008 201 230 201
-305.623 -13.1603 1070.96 146 126 109
-305.623 -13.1603 1070.96 146 126 109
-237.767 -14.1411 1243.8 26 18 18
359.993 8.31617 885.657 84 101 94
243.679 12.1686 927.718 177 173 143
-516.417 21.1441 1000.22 240 235 217
-389.837 22.9657 1034.02 52 19 12
-439.934 52.2277 1033.33 213 131 115
372.448 72.6368 905.266 253 255 253
234.907 76.8949 955.411 198 193 154
198.65 79.7022 966.953 221 206 179
274.596 102.917 947.399 207 141 98
193.205 123.501 993.073 255 251 248
254.186 140.907 999.544 69 48 39
245.877 148.504 976.008 243 228 215
245.877 148.504 976.008 243 228 215
382.433 156.937 966.221 22 31 24
231.937 166.399 986.063 124 83 80
231.937 166.399 986.063 124 83 80
240.273 173.546 979.631 255 247 232
276.529 177.838 919.992 254 249 245
267.424 198.331 1007.39 255 254 237
233.964 199.552 996.05 180 154 116
-167.272 280.195 1250.22 188 175 158
254.935 225.753 991.16 144 144 135
-174.004 308.961 1303.98 14 9 6
180.947 -551.403 1740.71 74 32 20
-942.805 -180.872 1505.3 92 94 79
316.486 -127.04 983.772 197 180 171
316.486 -127.04 983.772 197 180 171
-306.26 -28.2164 1074.87 62 46 29
145.363 4.56832 930.808 134 128 111
-452.418 12.7705 995.893 237 229 210
-452.418 12.7705 995.893 237 229 210
-249.755 16.0752 1211.06 170 140 119
351.961 13.6629 894.986 82 91 83
118.532 37.8584 955.663 114 92 88
-220.87 64.8379 1254.33 153 150 140
-217.367 73.6151 1238.74 160 154 149
129.974 78.5267 968.662 251 255 254
273.8 76.7962 949.298 122 97 76
194.554 124.324 998.7 255 251 248
164.442 157.559 998.762 251 249 251
285.003 182.314 943.415 254 249 245
-467.632 224.457 1117.99 250 251 254
-461.751 251.675 1132.09 249 249 249
-439.466 292.504 1155.29 255 253 253
-423.414 334.122 1160.32 250 250 244
-107.381 -148.908 523.181 115 121 116
333.101 -139.297 993.793 56 95 97
260.535 -120.051 997.922 205 190 177
349.657 -12.5761 887.015 117 145 115
137.748 34.0002 971.679 253 252 253
-463.586 85.7012 1059.8 205 137 121
-373.581 134.366 1024.99 149 107 84
-356.653 169.165 1024.6 130 126 114
293.587 202.623 957.067 168 162 162
423.431 216.074 940.825 84 76 70
-241.695 255.62 1127.2 101 77 60
-436.335 322.45 1160.13 253 251 253
314.313 251.414 853.01 98 88 70
-396.676 334.438 1141.39 86 80 72
-200.21 429.018 1201.19 74 81 75
370.965 -15.7815 888.846 130 149 117
-260.609 9.35487 1137.12 65 58 59
337.327 77.0219 924.029 255 255 234
-431.499 91.9291 998.83 200 133 118
330.317 95.7898 951.831 159 144 104
-342.255 181.285 1082.78 253 253 248
261.63 167.057 998.21 108 79 76
205.846 174.562 1000.7 173 158 148
-255.849 229.983 1143.25 125 89 72
-272.121 283.77 1032.66 252 255 251
339.205 408.062 1148.94 200 226 222
-801.171 -245.102 1572.65 151 156 153
-276.455 -10.2795 1130.98 147 130 113
202.854 64.6375 926.377 131 104 90
-445.105 78.9978 1075.1 253 252 249
246.723 118.098 969.473 220 194 177
-281.178 215.704 1123.43 255 255 248
268.937 193.503 990.388 252 249 234
-309.637 301.526 1139.53 252 255 251
-309.637 301.526 1139.53 252 255 251
-288.073 -48.0058 1122.24 42 33 15
-249.533 -7.27231 1227.83 66 58 54
-339.998 3.31943 995.946 228 202 166
-324.302 50.4995 1020.92 222 192 155
289.95 108.584 951.65 231 221 215
289.95 108.584 951.65 231 221 215
-483.249 -368.843 1639.31 152 166 158
-263.9 -71.5006 1166.53 74 59 49
-174.387 224.541 1285.32 63 55 51
-740.513 -215.973 1617.93 143 151 145
-740.513 -215.973 1617.93 143 151 145
227.754 297.397 1076.58 112 99 96
-336.133 -340.627 1361.18 30 25 23
-1032.34 -193.015 1905.6 110 105 84
342.682 181.659 971.859 254 255 251
