-366.005 -190.541 1065.03 39 41 37
414.657 -237.793 1668.52 113 92 83
415.005 -186.077 1502.32 49 31 19
415.005 -186.077 1502.32 49 31 19
470.241 -154.899 1576.73 202 186 166
421.137 -143.113 1588.8 171 161 150
214.983 -131.514 1539.4 94 82 67
412.349 -16.2782 1674.66 134 107 102
437.727 -15.2174 1628.68 254 250 250
437.727 -15.2174 1628.68 254 250 250
473.986 -12.6322 1649.77 171 144 135
473.986 -12.6322 1649.77 171 144 135
292.042 6.13757 1537.36 120 111 89
359.382 14.5261 1654.06 156 132 110
359.382 14.5261 1654.06 156 132 110
385.166 32.3508 1784.41 52 27 14
8.65219 37.0739 1157.61 197 139 110
-197.208 55.0467 1152.36 50 10 1
286.308 117.726 1870.15 108 95 79
-115.962 87.0822 1109.68 163 141 126
462.925 170.145 1611.42 248 251 245
61.0602 189.44 1223.5 251 251 228
-169.209 205.22 1190.02 63 13 8
-94.0454 245.915 1048.92 78 54 44
-738.966 -343.732 1170.43 144 151 144
-455.718 -247.969 964.981 121 117 109
-499.484 -175.3 957.073 132 135 123
423.92 -214.833 1614.34 80 82 77
530.698 -118.813 1635.44 142 145 121
623.523 -130.328 1866.91 254 253 239
518.094 -89.286 1652.75 185 182 150
-25.0215 -0.0179556 1162.61 234 213 187
-30.8809 1.43885 1023.96 248 233 211
560.354 91.7746 1730.6 254 255 233
362.288 96.4713 1831.19 122 128 101
-24.5519 69.3079 1113.99 255 252 241
54.8667 116.788 1235.01 255 233 212
-58.5542 144.693 1077.05 255 253 255
-82.9291 160.405 1102.05 199 164 155
-55.6236 211.353 1111.2 164 127 113
-100.199 289.819 1222.04 61 37 27
-520.075 -244.915 821.661 85 91 85
-520.075 -244.915 821.661 85 91 85
-1510.68 -243.096 2020.6 134 150 136
-955.536 -154.581 1301.86 59 62 54
298.487 -193.198 1664.38 102 106 75
477.105 -121.054 1629.14 226 203 179
389.861 -98.2239 1511.64 42 18 11
-45.7544 -57.5071 1247.62 152 148 145
472.701 -29.4236 1671.5 248 242 236
517.91 -2.18826 1716.55 136 111 90
446.392 13.4108 1636.49 241 240 236
522.88 83.9075 1706.6 255 254 238
501.919 156.532 1719.55 136 121 101
504.39 177.192 1723.24 252 253 240
66.8623 149.042 1248.38 255 253 243
63.902 183.418 1272.91 143 112 84
-915.887 -135.213 1453.35 139 149 141
-946.167 -98.2378 1339.29 63 59 50
582.807 7.0115 1746.08 188 188 183
-32.0538 71.0009 1099.22 255 250 251
-20.8945 99.3469 1165.43 255 248 254
-35.8061 106.552 1133.59 255 249 249
476.889 -97.9914 1672.21 113 102 95
-73.3812 21.8684 1068.72 185 166 143
-150.72 56.1247 1118.16 59 39 30
414.366 165.377 1563.26 57 45 34
84.4508 174.398 1271.94 255 251 253
-104.127 154.979 1121.99 78 59 40
4.57911 240.176 1178.51 153 96 90
4.57911 240.176 1178.51 153 96 90
-36.2753 265.628 1136.07 250 251 246
-594.27 -216.793 1582.5 67 71 69
-662.666 -117.608 1026.52 60 75 65
-251.441 11.7472 1163.76 115 90 72
-4.80864 86.4669 1160.22 229 146 109
25.204 264.724 1196.91 254 253 255
-90.6762 -216.423 1329.92 51 43 30
-841.983 -157.199 1112.61 79 83 76
374.644 -231.507 1683.84 200 184 184
-475.661 -69.9162 697.682 121 136 126
17.413 69.2181 1185.61 248 254 253
17.413 69.2181 1185.61 248 254 253
-335.677 -202.895 1069.61 119 121 116
-585.725 -66.7008 786.513 73 62 50
-66.8295 -59.774 1232.87 60 100 102
-66.8295 -59.774 1232.87 60 100 102
-208.942 73.0176 1068.27 79 51 39
-421.789 -199.327 1083.22 131 135 129
-109.504 58.4915 1121.74 60 39 29
325.16 111.041 2033.64 63 61 49
-98.5056 185.059 1153.14 75 59 43
375.286 -145.947 1587.2 68 58 51
428.425 123.229 1719.6 55 40 38
306.688 45.065 1532.33 77 81 51
