425.57 -57.4861 1164.25 93 71 79
-138.208 36.209 999.696 255 249 238
582.012 133.954 1277.6 183 180 155
580.801 149.459 1257.29 161 156 141
638.066 191.424 1396.78 239 246 242
657.758 210.643 1396.03 238 253 249
-139.065 191.789 1122.2 87 69 52
-139.065 191.789 1122.2 87 69 52
506.107 289.995 1450.99 136 158 157
-158.544 268.084 1091.94 200 135 132
-294.232 267.437 1066.15 252 254 250
-239.747 355.587 1092.55 39 35 28
-239.747 355.587 1092.55 39 35 28
-65.8372 556.709 1304.35 162 194 182
-350.624 -541.907 1795.69 155 150 137
-565.632 -520.009 1899.32 219 228 221
-447.69 -343.404 1343.59 71 82 75
-602.247 -330.418 1330.25 50 52 44
-390.475 -310.048 1512.1 152 146 132
-259.173 -199.756 1037.3 96 70 51
641.005 -193.214 1222.42 203 233 201
664.181 -177.411 1234.07 213 232 220
574.454 -160.974 1157.52 50 55 56
537.192 -160.863 1184.95 175 166 149
583.459 -165.125 1296.18 91 70 66
665.517 -144.822 1252.41 96 120 97
-180.951 -124.956 1237.64 52 62 64
-203.469 -96.0119 1149.43 121 127 132
-203.469 -96.0119 1149.43 121 127 132
526.974 -66.7387 1218.04 199 181 157
402.371 -61.8814 1209.19 141 116 109
525.754 -41.9726 1237.09 124 94 73
471.897 -31.6542 1185.73 231 199 169
-347.231 -19.4823 1071.31 60 63 60
-347.231 -19.4823 1071.31 60 63 60
-216.278 -12.6903 964.482 42 29 32
-208.677 -12.2178 993.725 204 190 173
419.428 21.3806 1198.14 47 31 30
-90.0762 49.9962 1053.44 255 249 222
-285.236 56.8373 996.394 162 87 93
-266.629 59.6442 961.541 250 247 228
-96.7358 65.3514 1045.35 201 96 58
-161.603 66.7373 998.389 253 249 245
-170.871 82.0371 1005.24 241 225 214
-181.799 91.9704 1017.39 115 73 55
-63.7063 156.014 1093.71 253 236 217
463.523 218.233 1433.73 74 82 88
-159.566 157.54 1067.27 245 216 198
-137.954 176.911 1087.62 255 250 245
-135.72 184.141 1007.57 254 252 243
-177.589 190.321 975.337 252 254 250
-229.787 265.112 1060.57 251 252 246
-110.251 277.133 1101.62 248 247 245
-248.781 349.336 1084.26 246 238 224
-248.781 349.336 1084.26 246 238 224
-259.552 369.286 1114.24 26 8 2
-259.552 369.286 1114.24 26 8 2
-225.387 372.783 1115.53 14 14 11
-225.387 372.783 1115.53 14 14 11
-134.609 -66.8774 285.138 127 129 125
-134.609 -66.8774 285.138 127 129 125
-518.043 -524.458 2326.88 125 135 130
436.734 -191.415 1194.14 171 157 137
508.498 -95.8414 1201.14 234 225 205
645.147 -90.6364 1198.89 250 255 237
497.226 -27.633 1280.53 123 70 52
700.524 -16.0522 1302.54 151 177 143
553.95 -3.35323 1272.42 85 71 66
453.252 32.2224 1183.26 238 229 227
603.061 46.2167 1310.82 254 252 251
-317.228 74.6677 962.271 128 97 99
-250.779 93.1553 974.742 162 72 49
-267.836 97.4933 989.387 253 240 230
-261.454 108.655 1022.5 223 181 164
490.49 217.783 1454.53 140 151 151
-300.967 141.716 951.474 250 253 253
-133.468 177.535 1032.45 87 64 48
-7.35514 289.432 1157.47 183 129 103
-111.526 268.711 1027.45 128 112 98
-259.235 305.775 1025.85 252 252 254
-214.356 330.643 1062.89 255 250 240
642.455 -200.446 1167.29 194 205 192
-145.366 -4.8979 1010.63 73 27 19
-288.934 61.7402 965.245 212 221 214
-268.106 97.996 989.693 253 240 230
607.432 210.594 1406.8 230 245 241
-45.5698 158.315 1120.86 218 144 97
-45.5698 158.315 1120.86 218 144 97
667.289 230.699 1433.8 149 169 171
-107.324 340.235 1108.72 135 158 114
-91.2609 368.134 1071.82 254 254 248
-102.213 -234.004 811.909 92 97 92
-255.24 -108.371 502.09 71 73 59
340.396 -210.588 1218.11 166 155 159
608.253 -65.2866 1233.05 160 155 128
-203.776 -28.2908 1005.69 22 19 22
454.165 38.5325 1252.68 250 249 246
-189.54 64.1649 1011.73 254 232 224
-185.855 201.172 1089.16 251 247 234
-204.938 245.474 1064.71 248 242 234
-247.426 255.252 1060.27 245 243 236
-14.0973 305.787 1160.45 188 153 137
-205.715 343.625 1057.34 56 52 46
-215.337 395.797 1114.46 38 27 29
-460.122 -236.765 965.159 132 148 139
507.762 -74.9425 1222.57 101 76 64
507.762 -74.9425 1222.57 101 76 64
-325.871 67.3971 949.004 64 49 31
-324.395 93.0124 976.479 237 208 202
-171.533 105.46 1020.09 98 43 33
-163.221 137.685 1038.86 112 58 44
-163.221 137.685 1038.86 112 58 44
-248.624 145.01 997.151 222 180 139
-227.826 243.31 1064.76 159 104 95
-227.826 243.31 1064.76 159 104 95
-216.029 294.948 1089.3 102 60 54
689.271 -94.0865 1273.94 249 254 239
433.726 -88.1565 1186 222 218 218
456.349 -26.7081 1210.15 128 76 65
-148.977 176.146 1046.46 105 82 63
-194.641 254.344 1046.35 247 231 228
-134.068 -62.3761 1024.06 49 78 90
569.635 10.1785 1270 135 108 100
-148.494 21.7689 999.852 223 188 169
-209.379 73.4098 997.302 252 226 222
720.525 117.337 1350.14 128 147 111
-228.861 91.2411 943.279 190 102 78
-305.217 131.442 991.447 247 248 250
-172.833 351.813 1142.72 147 174 119
-201.711 366.976 1094 53 44 42
-431.367 -259.183 953.221 81 82 77
-431.367 -259.183 953.221 81 82 77
-258.006 -291.462 1366.31 171 155 135
-258.006 -291.462 1366.31 171 155 135
-396.977 -216.637 1194.59 76 60 41
656.719 -216.29 1215.64 125 160 123
305.32 -182.049 1274.52 65 53 43
-280.422 -185.581 700.252 137 147 141
508.161 -215.252 1282.53 69 70 68
524.223 341.936 1623.99 89 78 68
-451.947 -205.721 1160.76 76 56 38
