-72.001 -519.056 1872.01 189 185 175
-35.109 -388.673 2003.44 45 30 10
-249.496 -466.845 2480.23 114 98 74
-832.053 -279.094 2008.69 85 90 85
-1234.58 -236.079 2037.09 167 192 179
-1049.45 -281.989 2656.73 65 64 53
-491.627 -77.415 1628.12 171 168 178
96.2685 33.405 993.493 18 24 12
96.2685 33.405 993.493 18 24 12
-618.073 87.3571 1475.9 252 243 223
-82.923 71.6089 1000.17 192 145 127
-82.923 71.6089 1000.17 192 145 127
-166.876 81.1548 1041.94 69 78 75
-166.876 81.1548 1041.94 69 78 75
37.482 99.4875 1006.31 197 196 185
-167.453 107.023 940.652 237 255 250
-90.0239 128.286 926.471 113 175 184
-476.45 269.842 1420.01 25 10 8
130.248 248.71 1063.8 29 30 26
50.8835 241.149 1005.73 129 83 59
-582.604 453.55 1892.43 82 63 63
-12.1937 287.821 955.018 17 8 1
61.128 319.357 980.428 87 111 109
150.03 385.471 1103.26 87 35 18
-71.0785 333.382 899.326 129 118 118
186.405 477.17 1175.93 93 48 33
-115.799 -554.696 2049.94 69 54 40
-413.974 -41.7542 1546.51 27 25 12
-413.974 -41.7542 1546.51 27 25 12
-502.514 -29.9525 1550.97 40 29 27
-524.376 2.10577 1464.38 217 191 166
-462.735 9.25943 1503.17 134 122 105
-121.217 33.1809 1150.19 38 27 17
-457.171 47.8132 1436.61 28 28 29
-591.642 74.7415 1433.42 141 96 60
-586.528 94.4002 1538.6 116 122 105
-437.826 101.631 1537.86 136 115 105
-422.764 106.428 1576.75 38 25 28
-568.44 115.846 1564.63 14 11 3
-186.907 102.084 973.644 189 217 212
-61.6192 105.509 889.221 141 182 184
-83.7644 172.126 859.269 30 42 39
-90.8308 191.349 864.905 75 72 70
-85.0985 212.641 899.23 35 35 39
64.7087 239.88 986.159 47 19 13
195.177 365.217 1141.08 83 48 41
-116.181 295.128 895.483 251 255 242
96.7113 399.45 1055.39 48 36 31
136.877 542.338 1168.6 68 84 87
125.721 543.806 1132.73 76 102 101
-412.03 -56.161 1513.84 133 130 103
-562.625 -29.3425 1450.4 75 97 100
-115.875 41.2936 1201.43 207 91 74
-690.308 86.9451 1565.24 255 251 246
-435.094 84.9122 1517.48 208 181 166
-499.013 79.8355 1406.8 61 41 43
69.1279 90.8434 994.05 131 102 86
69.1279 90.8434 994.05 131 102 86
-77.7097 104.742 902.262 59 66 64
-476.992 387.882 1492.03 178 130 100
-549.372 460.617 1665.03 51 46 46
-64.7393 254.292 926.064 47 32 39
27.1815 297.002 990.631 195 186 177
137.906 393.936 1072.77 189 148 128
-363.442 -34.8452 1320.4 52 39 34
-363.442 -34.8452 1320.4 52 39 34
-539.574 5.53558 1444.51 59 49 39
-151.754 64.9947 1066.82 36 36 31
-106.609 62.4439 1040.2 224 215 200
-134.193 99.5084 986.73 149 184 181
-25.2554 319.449 943.087 33 17 12
-25.2554 319.449 943.087 33 17 12
-74.2002 390.193 924.105 249 249 241
499.156 -645.492 2087.87 24 21 24
-1030.49 -346.387 2527.9 93 95 90
-8.76322 233.797 924.071 137 64 48
-484.308 395.491 1548 177 126 97
-79.3325 325.335 902.573 41 30 29
-222.798 455.14 1241.92 190 197 182
-110.621 -561.929 2113.78 69 55 41
-466.935 -29.1742 1497.17 59 47 40
-466.935 -29.1742 1497.17 59 47 40
-561.573 23.6619 1412.52 64 49 36
-366.146 82.9117 1585.44 34 30 28
-163.067 89.9308 1020.98 130 131 109
123.818 332.614 1055.9 72 58 60
123.818 332.614 1055.9 72 58 60
6.69905 347.842 973.454 177 176 164
-75.0477 187.243 892.615 176 179 179
38.1646 44.1117 1015.42 129 201 194
-444.469 89.153 1544.02 199 178 165
-574.893 284.143 1561.1 221 223 216
130.398 200.822 1049.92 67 49 43
39.5078 276.097 992.402 64 43 41
39.5078 276.097 992.402 64 43 41
-763.195 88.636 1759.76 233 217 204
55.9503 219.348 997.648 185 145 110
-541.601 41.4939 1376.66 60 51 45
-3.70599 28.7208 594.121 128 196 188
28.8349 -502.985 2059.24 160 160 155
28.8349 -502.985 2059.24 160 160 155
-14.4829 193.047 929.021 50 43 37
-70.1554 292.151 907.286 58 52 50
