206.482 -411.261 1295.61 123 127 119
-133.156 -162.965 602.078 124 132 133
-10.3513 267.749 -901.394 90 70 59
-30.5987 89.1181 -329.791 111 93 71
-351.244 -403.244 1781.99 75 57 26
-276.107 -220.967 1038.44 140 120 102
484.82 -106.788 1034.05 235 237 216
-349.314 -37.6686 496.609 155 161 155
358.764 -59.8342 1062.33 198 183 172
-330.059 -36.9961 1111.92 172 150 139
396.555 22.9882 1063.78 224 211 185
364.523 34.5159 1079.5 223 206 184
273.922 38.7468 1076.9 170 152 134
358.294 51.3333 1099.54 165 111 88
272.143 76.9878 1139 174 134 107
-471.796 136.658 1018.49 227 170 143
380.988 252.788 1188.91 122 111 90
555.128 316.152 1346.24 138 153 155
400.603 371.737 1283.95 13 38 52
-443.42 338.238 1097.58 189 184 180
-253.896 375.302 1136.41 252 224 212
-354.804 -142.979 477.301 157 164 152
171.038 -154.728 1168.07 76 66 47
274.113 -152.006 1184.75 61 17 6
274.113 -152.006 1184.75 61 17 6
232.137 -133.36 1101.54 242 244 235
382.587 -62.6011 1037.59 73 67 60
354.469 -51.8538 1019.93 210 203 186
228.248 -53.0231 1045.29 135 121 111
343.024 -48.2465 1018.88 101 83 73
343.024 -48.2465 1018.88 101 83 73
-433.662 -26.8724 1145.85 140 147 137
-433.662 -26.8724 1145.85 140 147 137
-430.978 -11.1721 1112.83 137 144 141
-290.826 19.1392 992.076 137 111 84
-303.433 25.609 969.783 189 166 135
374.298 66.4497 1063.97 253 248 236
243.238 108.411 1184.13 92 71 58
-274.041 93.0748 1012.06 245 245 229
526.363 128.439 1136.92 231 241 231
-303.523 108.939 1009.03 173 122 119
-317.409 115.27 1032.27 168 98 89
335.035 134.164 1115.24 54 38 32
389.436 139.251 1143.23 251 234 225
-294.396 160.71 987.714 247 208 192
494.513 217.922 1179.48 255 251 239
-401.743 202.152 1058.87 255 239 217
374.525 258.111 1205.2 170 158 137
-355.445 244.391 1080.11 254 253 249
-355.445 244.391 1080.11 254 253 249
-530.07 295.029 1110.98 176 157 134
-355.633 337.2 1123.75 255 254 248
-196.325 423.852 1415.88 147 138 129
-491.969 379.251 1130.25 183 156 146
-424.26 508.16 1210.93 20 19 16
-187.995 503.006 1116.68 133 174 159
-65.6401 -468.766 1417.58 175 174 163
-316.042 -363.763 1136.8 79 88 82
474.593 -44.6504 1053.41 245 254 246
-422.605 -49.4896 1183.49 35 47 43
477.012 -24.5004 1059.44 243 251 241
-417.922 -0.875025 1093.44 34 79 85
223.399 7.24819 1065.69 104 79 79
259.892 9.27655 1051.76 255 253 250
259.892 9.27655 1051.76 255 253 250
384.174 28.9353 1092.69 128 111 84
384.174 28.9353 1092.69 128 111 84
485.604 38.8175 1125.36 119 126 101
340.394 61.1079 1108.4 136 111 86
-385.087 51.0704 952.467 178 136 112
541.845 85.5697 1134.16 219 228 204
-352.231 73.3525 995.729 246 207 178
315.826 98.6175 1108.43 218 199 203
315.826 98.6175 1108.43 218 199 203
356.483 112.753 1126.29 254 238 232
-280.949 104.06 1019 153 108 66
-544.598 119.363 1004.71 252 254 248
-537.308 117.952 962.264 73 74 60
-527.598 122.659 1024.58 247 250 246
351.656 144.269 1137 255 243 233
283.469 150.899 1154.7 59 48 60
395.839 186.874 1165.7 150 148 142
436.59 187.283 1094.6 255 255 249
376.655 207.081 1184.28 149 147 137
319.804 222.944 1171.71 201 201 172
543.746 264.86 1240.06 132 136 110
-251.581 233.848 1084.83 196 136 107
-399.906 294.091 1092.77 255 250 247
-441.993 312.979 1080.44 129 108 96
-441.993 312.979 1080.44 129 108 96
-449.015 327.351 1086.01 255 255 252
-206.306 371.802 1168.36 148 116 96
541.105 484.519 1380.47 163 190 188
458.803 -74.8538 1038.27 112 144 118
255.188 -33.0296 1060.63 117 111 102
238.628 -1.84666 1057.52 255 252 251
-389.108 20.3723 1046.67 31 71 82
-419.223 30.1722 1024.36 33 24 34
382.257 56.4887 1102.54 199 130 106
382.257 56.4887 1102.54 199 130 106
293.705 91.9983 1100.98 253 251 251
-440.592 106.318 1005.12 218 121 101
-258.897 181.174 1073.05 231 228 210
-514.765 356.798 1146.57 168 131 126
20.3394 -244.792 782.244 113 113 107
-358.914 -328.128 1172.1 155 163 158
312.841 -157.216 1125.26 209 193 182
400.479 -141.435 1030.3 151 204 199
314.197 -109.38 1008.37 19 15 19
478.214 -81.5732 1040.45 128 150 125
-439.557 -4.5416 1167.47 49 95 105
533.02 54.5851 1134.78 126 161 122
284.095 120.271 1158.08 97 79 84
367.857 130.809 1137.72 105 83 77
264.424 138.447 1136.85 235 236 236
-382.41 119.425 942.346 252 252 252
-408.698 266.648 1088.94 255 250 249
-485.567 319.133 1076.03 254 253 253
-438.271 472.565 1172.35 56 55 51
-438.271 472.565 1172.35 56 55 51
438.296 -138.372 973.536 64 110 131
219.316 9.56748 1108.09 91 70 58
-382.178 168.586 1014.74 134 78 72
-380.186 204.177 1046.68 123 67 45
-441.02 296 1057.32 129 102 88
-457.125 399.712 1121.68 247 254 253
-453.951 438.618 1114.03 253 253 248
353.305 -81.5609 1050.08 95 75 69
312.786 27.4513 1068.16 115 89 81
-372.894 249.452 1081.12 122 105 98
-372.894 249.452 1081.12 122 105 98
518.139 311.041 1291.56 190 217 214
-55.9656 -180.838 664.918 116 92 73
501.522 18.1045 1090.61 230 237 228
275.621 75.5604 1126.63 173 133 109
-529.934 188.218 1029.92 253 254 252
-529.934 188.218 1029.92 253 254 252
463.983 260.525 1200.99 123 111 101
463.983 260.525 1200.99 123 111 101
-241.296 266.687 1088.8 253 249 226
-388.659 415.331 1143.28 168 193 155
-305.623 -326.613 1069.73 105 104 101
-64.6256 -366.338 1518.09 187 168 142
-64.6256 -366.338 1518.09 187 168 142
-227.757 -261.306 1226.47 97 74 49
-407.366 71.1493 1014.11 210 176 166
385.242 115.227 1127.87 137 110 105
264.62 188.898 1211.13 82 63 50
-190.037 454.638 1350.8 76 70 66
476.065 378.496 1357.81 202 227 228
-517.959 -102.82 794.453 24 23 23
460.681 146.003 1153.56 251 255 250
-245.543 -217.743 1032.82 102 61 50
