588.951 -79.9743 1213.54 245 254 235
468.145 -70.8642 1092.33 168 147 126
433.429 -70.6121 1161.8 227 206 181
380.108 -14.4182 1185.59 221 200 196
380.108 -14.4182 1185.59 221 200 196
502.145 19.1323 1213.18 109 90 72
444.441 66.85 1230.93 112 103 81
521.081 90.4328 1250.22 251 254 235
-273.068 71.5223 1037.08 244 248 240
-259.427 68.562 960.841 242 242 236
-85.404 202.817 1044.36 255 253 229
559.002 280.749 1365.49 94 123 131
-238.101 251.002 1010.63 255 244 231
-67.8904 283.089 1095.93 255 252 243
-119.334 284.418 1086.69 247 251 230
-221.144 449.388 1133.69 12 7 5
-1014.52 -509.871 2025.7 71 83 76
-1039.84 -452.873 1900.35 53 70 63
-1039.84 -452.873 1900.35 53 70 63
446.182 -237.905 1232 102 46 36
384.158 -236.156 1241.95 219 183 163
384.158 -236.156 1241.95 219 183 163
-789.851 -453.355 2615.73 59 60 53
433.474 -189.694 1116.66 205 207 193
333.468 -121.396 1070.43 26 21 8
397.699 -62.0371 1143.82 173 169 143
456.399 -54.2232 1168.19 134 104 82
429.083 -44.9556 1168 242 237 211
429.083 -44.9556 1168 242 237 211
460.644 -28.2552 1170.64 248 230 223
-175.655 -10.033 963.283 253 243 227
-175.655 -10.033 963.283 253 243 227
-181.857 28.5348 1001.87 247 190 169
-239.115 62.2491 976.363 254 253 233
454 93.0172 1244.83 211 215 187
-307.518 76.7544 1017.49 80 52 47
451.282 152.783 1243.02 138 130 124
-71.8618 124.563 1044.92 79 42 31
-71.8618 124.563 1044.92 79 42 31
517.793 163.73 1219.05 155 173 170
-46.6031 136.605 1057.86 201 138 96
423.49 171.446 1258.95 32 25 14
-93.0051 151.381 1041.34 143 113 89
421.721 214.108 1389.72 67 73 74
576.308 237.589 1350.56 160 183 181
-108.332 173.593 970.851 252 247 238
-254.743 195.148 993.843 65 28 4
-174.975 213.844 1070.43 251 254 252
581.178 325.465 1346.07 251 254 252
-249.143 258.991 1010.2 252 249 250
-113.262 292.876 1100.78 116 107 86
-240.754 343.045 1079.84 254 251 254
-214.497 344.379 1057.34 242 239 224
-214.497 344.379 1057.34 242 239 224
-226.877 352.443 1041.01 243 242 239
-168.676 407.072 1085.38 18 15 15
-693.758 -729.511 2500.84 144 148 141
-681.554 -666.176 2549.11 155 154 142
-421.854 -574.384 2426.44 150 151 139
554.718 -198.397 1120.51 235 247 228
407.585 -97.1374 1156 231 229 230
557.029 -79.3972 1180.24 154 163 132
557.029 -79.3972 1180.24 154 163 132
384.277 -45.3562 1136.06 127 85 76
412.173 -38.2503 1152.17 118 71 50
608.626 -12.4109 1224.02 117 120 110
603.897 15.5717 1215.02 67 68 56
-267.969 13.5521 977.441 150 114 89
381.385 23.3847 1206.52 133 113 105
413.353 29.1388 1193.42 78 83 81
384.086 33.9738 1184.62 43 9 7
-165.377 42.9586 982.254 71 28 22
-52.2959 97.4371 1045.1 249 248 241
-233.552 98.5474 973.395 255 247 235
-305.24 102.666 980.839 170 143 124
530.929 153.111 1279.46 248 253 245
-267.02 126.182 878.488 145 143 141
-266.556 201.898 1004.84 255 254 236
558.938 286.122 1358.01 89 122 140
558.938 286.122 1358.01 89 122 140
0.0528235 243.035 1089.51 186 139 115
-237.303 276.273 1030.75 117 85 90
-232.459 311.294 1034.71 255 253 251
-77.774 364.652 1108.43 91 69 49
-192.029 406.247 1070.17 244 237 228
-1170.2 -555.33 2275.3 58 73 65
-750.744 -439.974 2407.4 126 130 125
442.644 -206.166 1131.36 26 18 12
-998.708 -330.134 2248.79 61 33 21
-998.708 -330.134 2248.79 61 33 21
368.449 -91.4715 1166.16 34 14 5
532.04 -77.1943 1185.64 171 169 137
532.04 -77.1943 1185.64 171 169 137
562.838 -55.6639 1217.11 255 254 252
387.132 -21.1534 1112.65 112 98 79
418.38 -21.4162 1151.72 254 251 251
418.38 -21.4162 1151.72 254 251 251
-216.17 -10.667 1010.86 88 65 51
-119.295 -5.07381 990.688 69 16 3
477.784 5.34879 1192.99 102 78 72
477.784 5.34879 1192.99 102 78 72
486.719 34.525 1193.99 255 254 240
511.362 40.2718 1205.85 188 189 178
526.813 257.865 1311.75 215 240 241
540.346 321.484 1350.56 216 243 243
540.346 321.484 1350.56 216 243 243
493.853 327.058 1339.3 122 155 162
-95.2365 399.277 1140.64 255 252 251
-209.372 390.466 1049.29 63 44 35
-156.213 -594.702 2218.15 45 32 25
-1212.21 -526.761 2256.18 59 66 62
-1212.21 -526.761 2256.18 59 66 62
-1138.11 -362.508 2054.27 71 75 68
-1138.11 -362.508 2054.27 71 75 68
-176.865 -23.3501 996.855 24 15 14
401.226 18.8034 1186.66 250 246 247
-161.377 62.2516 994.036 250 239 233
-170.358 197.513 1025.68 245 247 240
-170.358 197.513 1025.68 245 247 240
-235.606 236.056 995.637 129 43 19
81.7772 -688.656 2508.36 76 77 76
-1124 -415.777 2060.31 125 153 139
440.342 -82.721 1155.4 99 78 62
-185.129 25.608 952.049 214 148 122
-223.91 53.0748 946.899 242 237 234
-302.266 73.9338 971.263 113 61 57
-283.759 94.2633 947.868 242 217 218
-57.4928 106.868 1048.35 254 221 209
-145.793 104.958 1028.4 112 65 57
-145.793 104.958 1028.4 112 65 57
-181.295 130.689 993.98 232 203 182
-135.826 133.608 1021.61 93 59 37
-135.826 133.608 1021.61 93 59 37
-135.826 133.608 1021.61 93 59 37
-214.031 141.992 974.248 223 180 135
-91.656 166.423 1024.64 250 246 229
-193.585 236.398 1031.26 146 97 83
-193.585 236.398 1031.26 146 97 83
-699.072 -694.597 2384.97 140 147 143
-699.072 -694.597 2384.97 140 147 143
-938.057 -440.608 1966.53 132 146 138
386.895 -94.4348 1143.21 226 231 230
-114.03 -55.9897 1024.62 51 85 101
608.11 80.2889 1249.66 137 156 120
-123.24 170.133 1034.76 149 124 111
-207.957 369.918 1052.44 238 223 207
601.984 14.9726 1228.36 132 140 129
-179.881 72.3863 982.905 254 238 232
-216.086 97.9981 1018.68 204 108 81
2.74005 154.677 1183.93 147 134 117
-1197.5 -529.885 2301.38 79 82 74
-1197.5 -529.885 2301.38 79 82 74
-1197.5 -529.885 2301.38 79 82 74
-651.021 -456.849 2588.69 171 152 129
-651.021 -456.849 2588.69 171 152 129
410.344 -190.664 1136.96 141 135 128
500.914 -191.191 1127.1 77 76 74
-925.805 -325.518 2340.51 76 61 42
-155.213 8.8785 1025.66 233 180 157
386.977 58.9585 1215.07 49 41 37
331.365 75.3081 1370.36 68 58 54
475.437 -214.574 1296 132 130 122
426.73 282.75 1456.95 83 72 61
-50.1549 131.275 1011.55 221 172 124
473.036 -172.341 1152.94 90 60 53
-968.488 -279.661 2116.25 56 42 30
-99.8611 264.445 1107.57 204 214 192
