617.304 -198.88 1093.7 126 153 122
629.92 -97.5342 1210.87 124 128 106
468.089 -36.9746 1141.4 255 248 221
401.093 -29.0027 1182.59 165 123 110
480.34 17.6829 1171.59 91 62 58
522.43 28.6044 1222.41 102 87 78
471.877 29.396 1210.78 255 247 246
-202.475 75.5446 1013.42 112 89 86
-197.959 80.611 984.846 251 244 244
695.626 104.488 1265.07 118 145 117
621.062 138.563 1329.47 187 173 148
400.215 137.979 1343.62 154 146 136
-46.6039 144.307 1112.64 246 222 202
-80.2007 147.971 1074 234 213 183
-80.2007 147.971 1074 234 213 183
670.669 227.846 1381.24 235 248 248
-178.908 172.616 1054.33 255 247 243
-272.676 229.763 1313.18 255 251 238
-112.25 262.624 1110.93 254 253 253
-170.211 264.966 1090.4 251 230 214
-125.087 272.155 1122.39 251 254 250
-273.598 304.551 1098.1 240 206 186
-277.953 317.147 1051.59 251 253 249
584.688 -161.139 1129.96 44 54 55
411.421 -150.465 1105.85 123 114 97
667.161 -134.56 1196.04 189 222 194
599.422 -117.01 1134.68 170 169 164
500.492 -110.201 1150.21 105 73 52
-212.883 -109.67 1190.49 119 125 121
-212.883 -109.67 1190.49 119 125 121
520.666 -100.304 1193.59 253 243 223
407.792 -65.1412 1212.25 140 118 107
401.357 -57.7316 1071.25 106 80 84
466.978 -43.9869 1157.42 92 73 57
513.495 -43.3247 1177.67 134 98 80
-229.919 -15.5444 967.533 47 34 36
-216.892 36.3727 1097.01 255 244 234
-151.234 35.9746 1001.64 255 244 232
-320.324 59.2907 982.855 118 95 98
-88.7382 57.9113 1059.24 143 81 61
558.602 83.1927 1220.61 235 240 220
-329.427 70.4241 962.38 110 98 99
464.759 108.551 1262.55 187 167 149
-269.642 89.8716 991.199 146 79 55
-107.271 127.968 1066.08 36 1 0
-107.271 127.968 1066.08 36 1 0
573.152 175.152 1368.86 149 133 124
-166.823 138.614 1039.67 61 19 0
668.245 247.986 1390.24 231 251 247
-154.598 186.003 1061.12 252 254 239
-198.585 190.139 1008.63 251 253 248
595.856 333.568 1499.58 177 210 208
-77.0668 269.035 1184.03 43 16 8
-308.97 258.107 1070.82 253 254 255
-144.899 273.016 1054.65 94 79 60
-64.4758 297.035 1150.22 54 18 8
409.036 -183.63 1088.84 126 120 100
629.402 -168.489 1124.71 195 212 195
443.465 -91.2432 1136.96 254 250 249
442.104 -53.5871 1155.67 155 157 131
455.415 -28.8134 1153.56 109 62 46
-203.831 -12.4832 945.856 78 43 27
-187.324 -12.0528 939.269 181 113 88
-296.604 2.1659 1052.89 204 177 149
-296.604 2.1659 1052.89 204 177 149
-250.195 9.03261 847.455 190 172 143
-83.465 29.2245 1069.81 131 76 53
-83.465 29.2245 1069.81 131 76 53
576.99 42.1507 1225.99 253 248 236
-235.515 41.3891 997.446 189 99 70
-294.51 51.6007 976.476 149 116 98
-107.323 56.6791 1023.44 202 101 67
-182.137 64.0049 1043.78 255 240 233
623.145 87.4873 1239.05 255 255 243
-284.465 94.0799 996.361 251 239 234
-231.439 93.9782 1002.31 174 98 78
669.56 225.461 1402.6 131 149 148
544.12 253.573 1406.59 30 59 80
-325.815 196.357 1053.14 255 255 236
-286.933 269.849 1058.11 146 108 110
-203.618 272.95 1066.79 186 126 122
-120.28 327.851 1100.13 128 151 103
-242.739 339.707 1138.5 253 248 238
-76.377 368.765 1168.91 253 254 249
561.829 -110.537 1175.43 148 128 110
686.252 -57.6216 1214.2 120 145 111
-199.61 -16.2927 1031.3 147 97 65
599.145 63.1856 1263.6 183 183 172
-306.789 52.3976 971.59 243 237 236
-306.789 52.3976 971.59 243 237 236
-40.3339 190.976 1133.61 255 251 237
-220.329 215.629 1043.5 132 51 45
-263.108 260.797 1179.7 120 74 68
-118.694 321.124 1079.68 132 155 108
-106.813 373.529 1124.65 250 251 247
-259.464 387.538 1096.31 83 60 55
490.358 -206.561 1100.73 6 10 9
490.358 -206.561 1100.73 6 10 9
566.935 -52.0682 1171.49 251 252 252
566.935 -52.0682 1171.49 251 252 252
-214.937 -31.3791 995.821 24 18 23
440.405 32.7743 1195.9 235 237 238
440.405 32.7743 1195.9 235 237 238
-208.445 60.2049 1036.36 247 231 224
-346.397 64.5885 971.767 85 59 50
-346.397 64.5885 971.767 85 59 50
-194.986 187.292 1058.54 244 244 225
-226.21 275.468 1061.98 116 86 82
-291.646 292.089 1087.08 227 228 231
-239.455 398.595 1168.26 66 63 62
349.799 -223.601 1205.91 152 149 157
601.107 -64.5712 1183.59 161 159 121
601.107 -64.5712 1183.59 161 159 121
-343.299 88.9087 993.379 231 219 211
-188.916 101.735 1040.7 102 54 43
-265.686 139.814 1009.47 219 177 138
-89.757 149.68 1081 186 136 115
-241.353 232.271 1060.11 140 103 84
-227.748 290.898 978.071 208 216 208
674.103 -92.8503 1202.24 247 253 249
-177.243 69.9285 1044.02 215 203 190
-162.976 168.999 1044.67 112 94 81
-162.976 168.999 1044.67 112 94 81
-887.495 -199.744 1287.54 70 83 77
-143.722 -67.3831 1021.01 45 82 90
708.426 112.151 1289.41 116 142 112
-259.274 92.3535 1011.28 188 95 87
-321.151 126.117 1002.4 250 254 254
-321.151 126.117 1002.4 250 254 254
-321.151 126.117 1002.4 250 254 254
-46.569 185.354 1096.84 228 209 190
-220.274 257.543 1109.6 249 231 223
580.542 -187.796 1032.36 127 155 122
-229.677 70.0447 1023.99 248 228 219
24.3445 532.071 1412.29 182 182 175
