176.125 -126.404 1143.78 210 173 177
-415.964 -51.4745 1137.84 31 31 18
-502.176 27.756 1009.1 180 184 179
345.638 78.7011 1063.45 178 180 143
-399.7 100.49 980.714 179 125 98
151.387 108.709 1054.35 195 153 136
-415.696 110.482 973.216 255 226 216
277.937 144.219 1092.79 153 130 127
370.944 142.839 1052.81 10 22 14
-607.464 125.867 962.249 237 243 239
-624.581 141.086 1002.31 234 236 232
-529.291 133.57 942.097 246 180 162
-287.193 108.117 664.068 255 217 204
-340.202 135.587 807.007 254 234 216
-407.806 172.345 1006.96 87 46 31
-407.806 172.345 1006.96 87 46 31
-394.309 182.062 1004.55 252 225 204
-480.945 212.397 1190.92 250 220 191
-391.828 195.4 1011.19 254 242 225
273.089 236.76 1157.6 246 244 238
273.089 236.76 1157.6 246 244 238
471.275 241.932 1143 124 133 111
-335.597 213.74 1037.36 90 72 53
346.419 271.548 1180.95 255 253 223
301.55 279.612 1111.03 242 227 210
301.55 279.612 1111.03 242 227 210
-308.401 297.289 1184.55 51 29 25
-546.701 305.072 986.278 254 252 255
-559.587 352.323 1064.94 169 143 138
-550.54 356.017 1058.08 241 228 226
-571.538 413.52 1134.51 254 252 246
359.051 451.763 1195.55 235 252 255
-513.884 373.929 992.253 242 242 225
-291.936 417.966 1114.42 255 253 233
583.555 832.278 2099.83 145 168 170
-314.03 549.741 1218.84 41 58 53
-297.403 644.508 1311.5 119 136 131
-158.467 -231.606 789.497 103 105 99
296.772 -133.193 1089.23 153 191 197
175.326 -125.967 1140.03 210 173 177
196.418 -121.731 1117.65 230 205 195
264.191 -13.531 1029.14 196 193 173
292.461 35.397 1093.44 183 156 132
232.987 35.358 1039.55 228 192 158
232.62 47.424 1035.82 86 64 47
-378.416 61.0402 1067 75 61 47
235.469 72.8487 1055.21 207 202 170
426.588 81.7708 1079.56 252 255 234
-590.838 115.603 923.632 250 255 241
-414.882 121.779 968.961 70 20 14
-534.562 119.308 891.838 145 146 138
-393.688 205.529 1011.13 110 83 63
-335.725 224.59 1032.18 251 255 234
-459.267 239.764 1002.11 253 251 226
383.024 343.577 1191.57 159 188 183
273.657 397.823 1276.91 65 89 114
273.657 397.823 1276.91 65 89 114
-485.024 388.071 1092.07 159 180 147
409.583 509.624 1286.11 146 166 159
-293.226 634.521 1292.66 119 136 131
-351.946 -367.12 1350.34 80 76 65
179.977 -116.504 1157.13 71 20 13
254.086 -101.041 1031.7 216 241 230
145.115 -104.335 1094.51 230 222 225
173.49 -43.2803 985.86 60 40 41
300.273 13.3247 1034.78 81 56 47
300.273 13.3247 1034.78 81 56 47
235.334 13.6732 995.798 101 72 59
385.838 58.5831 1040.76 253 255 252
385.838 58.5831 1040.76 253 255 252
390.936 69.0559 1014.56 178 194 161
353.768 83.6834 1017.67 67 69 53
-353.766 81.6515 1009.79 161 155 149
-353.766 81.6515 1009.79 161 155 149
193.367 96.6258 1092.5 111 96 65
-343.679 115.448 1181.58 49 29 15
424.707 117.344 1125.4 246 253 248
-403.762 123.335 986.277 169 111 99
-403.762 123.335 986.277 169 111 99
254.265 142.056 1099.7 81 58 54
246.341 152.469 1088.02 246 224 208
-561.517 135.633 951.906 248 253 245
195.587 246.606 1078.61 211 210 183
-373.187 240.7 1041.25 199 131 100
-332.074 246.324 1040.42 255 248 215
-286.156 367.938 1263.53 169 161 147
-557.564 336.977 1055.6 254 251 249
422.183 437.762 1274.72 131 164 164
343.7 411.642 1138.45 225 247 246
414.734 552.217 1289.72 252 254 251
-515.915 508.014 1201.72 17 19 17
-305.297 -314.101 1156.32 80 76 65
-239.158 -308.487 1323.94 101 51 36
203.804 -163.64 1233.74 88 84 75
120.502 -143.767 1190.11 93 93 84
92.3528 -136.994 1208.09 84 76 53
98.7146 -103.002 1141.08 175 165 166
359.097 -30.9324 1004.5 127 155 130
-381.077 -23.3033 1185.58 61 53 36
377.531 1.57637 1025.76 183 201 194
129.826 34.8091 1025.04 254 253 254
-355.776 51.8807 1237.77 152 148 138
275.063 70.2102 1048.09 141 116 100
-444.564 71.2555 950.906 93 42 23
272.609 97.0855 1060.22 199 123 90
197.822 117.342 1069.38 151 86 66
197.822 117.342 1069.38 151 86 66
150.022 137.679 1072.83 192 191 188
-548.603 155.002 941.786 255 255 240
341.836 370.937 1272.04 241 253 245
-288.411 371.825 1278.27 151 153 134
-313.035 319.79 1103.98 94 74 61
227.067 -123.412 1108.26 209 185 169
90.158 -74.8971 1069.54 83 80 66
186.963 -67.7696 1004.28 31 31 29
378.675 -36.8239 1005.03 124 152 120
115.308 43.9889 1086.86 109 83 80
-517.59 138.733 1029.7 252 252 251
255.692 171.231 1095.63 106 80 67
155.37 175.179 1111.09 250 251 251
318.48 221.477 1149.85 196 192 181
-325.934 288.274 1105.61 112 94 72
-579.952 295.08 1048.59 149 104 90
-465.781 301.742 1043.5 253 252 251
-553.728 333.945 1032.32 254 253 255
-227.693 -390.286 1418.07 148 156 149
357.292 -101.009 964.784 58 114 143
-504.112 47.0811 955.009 88 90 71
323.077 84.724 1034.44 163 154 118
323.077 84.724 1034.44 163 154 118
-586.804 121.59 1009.55 249 254 255
-467.667 204.755 1013.7 120 84 71
-322.37 263.652 1148.24 79 60 47
354.067 287.783 1087.45 123 111 96
-559.479 436.312 1129.06 253 253 250
-364.757 41.2317 1084.03 149 145 130
-363.775 49.6672 1181.77 81 73 63
408.819 359.796 1243.09 192 220 218
-506.809 317.552 1059.73 253 252 249
-375.461 365.256 1084.99 251 254 254
-23.614 -61.3545 191.504 120 92 74
396.724 66.1858 1051.87 211 224 203
144.872 103.866 1016.5 178 149 126
-515.806 138.741 980.17 248 255 250
-596.995 183.661 983.555 251 253 255
-304.629 300.006 1308.15 70 59 56
-304.629 300.006 1308.15 70 59 56
-346.366 277.059 1086.28 255 252 236
-452.341 378.494 1044.11 172 197 161
-178.516 -294.267 1307.79 97 70 48
-388.606 -16.1005 1163.65 114 95 76
-400.238 46.3897 957.289 238 208 172
-394.279 100.066 999.619 228 206 162
272.519 154.667 1076.04 149 125 115
436.985 207.198 1128.16 102 111 106
335.938 400.78 1233.18 210 235 233
344.626 186.486 1096.59 252 255 251
-346.713 181.043 1167.51 83 64 49
-121.317 -126.999 567.923 99 69 47
-401.722 349.21 1116.69 253 252 253
-530.529 230.324 1104.59 233 209 187
