195.3 -148.112 1777.03 84 97 71
184.627 -122.971 1642.15 18 13 7
449.151 -128.108 1866.2 201 194 172
397.301 77.9129 1759.71 196 195 177
425.977 207.907 1910.48 223 217 202
-134.27 131.137 1142.75 49 19 12
-130.762 148.303 1124.15 52 7 1
106.023 173.832 1257.8 255 248 232
-127.944 174.302 1138.12 35 0 0
-122.956 180.532 1171.85 142 89 82
-120.62 240.649 1166.67 45 2 0
-94.6334 282.091 1194.71 159 116 97
-49.0485 314.561 1151.01 165 142 126
1.41134 364.313 1157.11 155 108 84
-34.3759 445.191 1231.64 27 16 9
-158.853 505.425 1358.27 8 0 0
-113.997 522.572 1373.35 152 148 134
-111.01 531.831 1374.86 7 3 1
61.6526 472.113 1195.29 38 40 36
58.624 466.79 1183.2 31 30 31
45.3739 592.35 1250.14 32 42 36
-587.47 -100.668 833.328 47 49 44
336.275 -73.7369 1693.02 47 27 21
358.294 -0.301883 1767.53 112 92 79
384.62 1.91283 1796.84 215 202 186
364.168 43.6939 1753.61 239 216 210
-137.575 82.2372 1098.4 45 9 4
375.648 180.382 1734.96 133 114 91
92.3036 146.874 1214.87 156 119 92
77.4352 146.548 1048.84 255 243 227
355.275 273.233 1863.09 107 134 141
355.275 273.233 1863.09 107 134 141
136.106 217.761 1338.27 179 154 144
108.308 227.395 1258.22 169 137 113
-118.753 264.131 1176.37 52 15 1
-41.6759 365.15 1166.71 31 16 9
49.7158 475.635 1188.83 254 254 239
49.7158 475.635 1188.83 254 254 239
104.068 586.052 1334.04 60 53 46
-711.905 -195.091 929.444 66 67 54
-446.046 -99.9041 712.906 35 39 34
-730.113 -114.394 1075.13 112 123 118
440.697 -134.179 1889.52 115 107 87
451.729 -80.6382 1903.96 197 202 179
6.72204 132.581 1086.27 85 26 15
-9.82038 183.196 1082.57 191 145 132
89.1247 219.708 1231.53 255 254 247
128.634 240.242 1315.11 254 255 237
373.744 407.666 1912.56 222 239 234
-35.8281 289.126 1155.17 30 17 9
35.5565 366.444 1124.24 250 254 253
34.5907 387.616 1148.25 60 23 17
-25.9994 412.948 1166.94 89 64 49
65.7709 435.954 1207.19 67 45 20
65.7709 435.954 1207.19 67 45 20
403.068 -176.982 1760.98 102 86 76
49.109 61.1308 1141.33 254 255 247
75.88 147.858 1190.26 220 202 182
351.393 247.906 1858.39 200 215 208
69.1827 399.148 1222.28 99 88 88
84.4087 460.3 1261.41 255 253 247
38.475 463.11 1187.65 44 31 30
-111.628 -279.883 1359.5 100 69 48
10.333 36.5845 1067.14 205 187 166
16.0753 102.882 1070.59 255 252 251
362.417 217.629 1816.96 58 49 43
31.592 294.853 1133.13 251 250 249
-43.3249 323.874 1145.81 110 94 101
21.4727 362.686 1149.02 57 19 7
-740.995 -124.454 1207.71 54 58 56
-173.366 58.2703 1096.72 148 92 66
-84.0691 78.225 1075.86 47 33 18
-11.3406 112.108 1065.51 192 138 117
47.2808 431.622 1210.23 252 254 244
-812.238 -118.902 1249.34 46 49 47
-49.6485 -37.9344 1267.79 43 79 94
-210.612 38.4847 1109.35 98 75 54
-210.612 38.4847 1109.35 98 75 54
-28.0101 123.566 1088.42 167 120 93
-28.0101 123.566 1088.42 167 120 93
18.9733 156.812 1096.34 244 244 247
18.9733 156.812 1096.34 244 244 247
-457.779 -116.973 779.604 86 94 88
-470.384 -207.374 1707.5 41 37 29
-423.524 -83.7759 691.533 52 54 50
-110.426 10.5826 1152.43 153 126 98
-97.8176 200.732 1104.96 161 90 49
-80.4575 -257.849 1519.96 159 152 140
-39.6943 14.6124 1146.57 153 124 103
117.18 -105.448 1586.95 61 47 35
-74.8211 360.233 1212.4 152 79 45
-559.431 -120.824 825.982 102 114 107
460.413 -2.77582 1985.45 239 238 227
-33.2978 209.064 1124.94 68 54 39
-158.529 365.557 1243.33 60 48 45
234.142 115.209 1434.66 98 78 67
245.691 -74.5908 1605.62 54 33 26
-121.378 181.025 1163.51 147 95 87
