411.601 -194.702 1767.64 188 211 215
296.809 -169.269 1681.55 120 98 100
394.43 -103.517 1718.2 172 164 144
477.114 -62.6829 1851.49 254 255 235
419.589 -48.0726 1702.72 238 232 206
364.081 -20.2257 1671.6 198 174 142
43.4766 12.2898 1239.13 214 186 158
45.1838 17.2698 1307.05 255 235 206
-647.949 36.184 853.023 37 37 22
-47.8232 174.797 1137.39 178 129 124
-196.359 273.155 1169.1 49 15 3
14.7314 481.851 1205.88 24 32 36
-85.2468 -19.4029 116.101 16 11 8
358.208 -142.783 1702.04 74 66 52
-32.9321 91.4684 1162.74 228 141 120
-81.1162 100.761 1072.2 185 109 71
437.063 232.687 1886.38 143 124 106
-18.0152 152.344 1178.19 213 149 124
-138.928 151.762 1123.44 170 143 135
-138.928 151.762 1123.44 170 143 135
277.872 329.737 1833.55 39 68 67
-68.9631 217.949 1131.9 161 121 119
-73.6212 279.305 1136.18 154 123 109
-200.422 -38.1032 384.616 137 146 140
-200.422 -38.1032 384.616 137 146 140
-265.757 -39.0658 472.506 136 145 140
308.894 -42.6718 1585.71 49 24 11
285.544 140.144 1728.82 143 100 78
410.894 271.984 1952.26 44 28 14
27.6824 224.585 1268.46 154 121 103
-78.6899 210.632 1120.09 254 253 252
31.7105 241.259 1262.24 146 116 111
305.25 381.313 1874.63 104 131 128
-104.69 225.497 1130.23 190 163 144
95.6452 274.125 1345.22 252 242 219
394.301 391.251 1901.4 248 255 252
-81.6804 230.351 1088.36 84 57 49
397.825 462.894 1920.53 154 175 192
3.56084 480.54 1213.95 254 250 240
-25.9547 505.625 1201.54 246 239 228
-265.329 -59.3163 450.638 156 153 137
-134.277 -56.6331 543.28 98 78 57
-245.79 -35.9005 432.398 136 145 140
247.351 -131.638 1752.2 29 27 22
345.043 -54.4761 1670.7 255 249 245
-709.767 -8.28235 1072.93 129 109 83
423.79 108.727 1681.57 255 252 255
-30.4773 108.357 1326.48 243 153 127
-206.754 99.1319 1142.49 163 142 126
-44.5708 157.254 1163.92 254 243 235
-45.4771 162.363 1220.34 254 243 235
390.83 258.789 1865.78 55 38 22
387.518 350.009 1866.71 245 255 252
95.1569 261.397 1377.05 250 253 245
1.14005 303.291 1193.85 248 254 254
-50.1179 309.807 1152.79 185 92 66
-45.7463 407.665 1157.35 245 248 243
-6.35845 472.202 1223.42 108 91 85
-6.35845 472.202 1223.42 108 91 85
-2.09797 -0.824961 1217.42 84 120 127
243.326 87.0739 1766.16 114 120 93
-177.27 118.59 1109.13 39 26 15
-129.266 183.437 1181.41 165 120 98
50.8591 237.979 1305.31 253 250 248
-46.127 248.421 1152.39 239 203 175
-54.1155 333.857 1156.23 255 251 253
-47.5174 370.707 1179.93 249 252 255
-61.9232 396.015 1162.04 104 65 65
-141.031 -20.7679 245.987 67 73 72
-238.659 -30.9334 432.039 65 68 66
-92.8529 78.0381 1070.8 221 207 186
-180.479 88.4776 1098 71 44 31
-13.4296 132.712 1171.7 248 255 244
-82.6483 143.257 1086.64 248 249 251
263.778 322.405 1844.98 76 91 101
263.778 322.405 1844.98 76 91 101
-124.948 215.379 1103.5 77 58 36
1.85847 329.171 1211.94 253 254 255
78.9307 392.615 1397.72 252 255 253
-158.153 371.411 1174.81 149 93 66
-140.545 -78.1375 717.266 48 42 35
264.911 -165.963 1730.4 187 168 158
397.584 -155.639 1726.62 96 94 81
-122.802 161.403 1106.87 169 124 101
-122.802 161.403 1106.87 169 124 101
-75.313 192.862 1109.86 253 250 248
-185.982 247.876 1189.82 159 97 62
-175.409 319.781 1215.68 146 97 83
-175.409 319.781 1215.68 146 97 83
-63.9249 -14.9004 94.8989 113 116 113
-121.48 3.74536 1322.88 39 78 92
287.008 46.273 1695.29 62 48 39
23.773 -147.753 904.703 184 177 159
53.1042 8.38077 1384.14 214 186 158
-27.817 19.9077 -150.48 182 177 165
338.563 191.102 1774.99 58 46 40
-127.687 113.041 1063.68 61 35 24
398.534 30.7481 1662.4 255 252 245
-318.557 9.78294 1532.97 142 132 115
