-160.33 -499.757 1697.27 156 164 159
-46.6426 -267.104 1169.02 205 195 175
103.323 -131.282 1156.62 210 191 177
103.323 -131.282 1156.62 210 191 177
277.786 -90.3718 980.768 215 240 231
143.036 -101.582 1111.88 255 245 242
219.998 -67.6374 965.566 210 193 182
347.129 -47.0707 946.69 140 156 123
363.778 -38.2646 954.392 231 238 227
341.285 -17.3589 975.384 86 116 91
-380.554 5.7059 1166.91 150 132 113
397.647 90.025 1030.18 246 254 240
397.647 90.025 1030.18 246 254 240
-423.289 103.763 1030.36 199 122 99
-425.756 114.584 983.712 44 11 2
274.514 129.301 1044.85 255 249 237
-414.824 123.24 970.396 58 13 9
-420.54 125.912 1001.11 248 205 199
-567.922 138.235 1025.48 240 182 162
148.044 139.691 1062.05 99 75 72
-414.101 136.271 981.312 42 3 3
-415.168 149.887 998.378 81 35 30
404.13 183.476 1069.89 247 255 237
-407.03 170.562 989.221 253 241 215
-318.583 242.209 1306.44 153 124 106
-396.341 197.858 1024.62 255 234 214
256.248 240.062 1139.51 236 228 216
256.248 240.062 1139.51 236 228 216
159.626 343.391 1144.56 183 175 163
-552.657 356.496 1128.11 206 176 156
-576.338 364.742 1129.75 249 230 224
-597.68 430.519 1205.91 87 88 74
451.059 470.812 1279.14 205 219 217
-547.425 423.859 1150.96 36 34 30
-547.425 423.859 1150.96 36 34 30
-499.415 482.17 1185.95 35 37 32
-333.485 573.373 1314.52 49 63 57
-331.865 583.545 1317.74 127 171 155
-314.551 532.463 1210.69 53 71 64
-355.293 591.221 1293.44 144 189 170
-374.239 598.499 1287.4 190 238 222
-262.706 -684.709 2155.73 98 99 96
273.596 -92.8352 999.332 55 74 77
152.448 -87.7294 1025.39 211 182 164
311.518 -77.2918 1001.43 36 54 56
311.518 -77.2918 1001.43 36 54 56
348.635 -0.963742 975.975 76 88 83
212.628 54.0597 1009.81 79 63 49
217.474 80.0699 1034.45 189 183 148
-452.234 83.513 987.857 251 217 191
-433.956 91.2796 996.454 252 222 186
352.296 94.339 1042.7 46 50 42
-583.781 136.947 1009.29 254 255 245
353.632 149.009 1031.57 10 15 15
-369.851 167.647 1049.17 247 236 209
384.954 176.025 1062.04 116 125 109
-321.022 240.596 1275.97 37 10 1
188.844 259.832 1110.93 218 219 193
188.844 259.832 1110.93 218 219 193
325.592 273.294 1154.37 255 254 235
379.96 280.095 1155.42 255 253 239
275.145 266.335 1092.35 248 252 229
-541.703 314.666 1083.44 249 247 245
-258.955 452.272 1356.16 41 31 23
454.426 432.338 1281.3 130 143 142
-509.029 384.529 1133.59 246 247 223
-330.188 347.78 1000.32 252 252 234
-575.131 408.379 1133.69 233 236 220
-323.774 448.528 1222.7 255 255 245
387.125 482.486 1291.29 105 116 120
390.335 498.693 1244.01 141 159 154
390.335 498.693 1244.01 141 159 154
551.694 810.444 2025.62 137 162 166
-497.875 620.612 1313.4 231 237 232
-471.06 611.247 1282.49 240 247 241
-332.198 675.083 1371.03 131 164 156
-242.141 -503.533 1593.12 143 143 129
-354.317 -520.593 1771.68 86 82 73
-354.317 -520.593 1771.68 86 82 73
268.695 -123.703 1054.25 210 184 180
216.592 -99.6997 1037 87 46 37
162.824 -103.831 1088.54 69 32 22
162.824 -103.831 1088.54 69 32 22
231.929 -13.6685 950.458 72 47 37
344.131 4.31685 993.511 94 104 97
359.772 10.3787 1004.36 251 254 244
287.927 24.018 1031.49 71 55 49
-345.417 45.8265 1231.25 170 169 156
-384.803 59.9231 1082.63 68 52 36
367.766 66.9368 1014.45 253 254 241
-375.649 81.9189 1071.1 175 169 163
-342.455 110.881 1196 47 38 23
280.534 113.334 1126.92 213 138 108
375.966 116.405 1024.09 223 230 221
234.124 146.992 1073.85 52 22 16
-412.958 153.082 1054.55 234 224 209
-583.061 177.358 1114.56 184 130 124
213.489 179.75 1080.54 112 68 65
222.618 185.851 1073.81 255 251 241
222.618 185.851 1073.81 255 251 241
254.695 184.736 1037.13 80 43 38
408.658 228.688 1054.09 62 56 50
261.566 393.021 1251.84 73 108 124
261.566 393.021 1251.84 73 108 124
409.586 435.502 1250.74 115 151 157
443.461 456.725 1277.08 85 100 116
-283.261 619.745 1359.15 96 119 108
-241.084 -501.704 1973.71 91 45 35
276.064 -133.093 1051.18 32 86 81
276.064 -133.093 1051.18 32 86 81
-376.13 -26.177 1196.84 51 46 36
110.207 40.3125 991.32 255 250 254
96.4767 49.311 1037.12 97 73 80
-459.855 73.1637 985.839 89 53 40
254.322 77.1453 1019.72 121 95 79
263.415 107.208 1069.99 226 131 105
254.309 119.053 1039.47 223 213 208
179.756 122.129 1045.49 170 83 74
166.463 131.979 1044.04 249 255 253
134.086 144.345 1065.25 230 214 213
276.771 194.482 1064.01 255 250 241
-528.295 205.106 1106.38 228 209 190
190.6 321.579 1120.92 136 131 120
345.665 389.237 1315.76 238 249 241
-306.51 385.791 1153.05 123 76 56
418.35 518.468 1279.71 202 229 227
418.35 518.468 1279.71 202 229 227
413.805 560.526 1298.85 253 255 248
207.297 -111.515 1047.9 206 181 169
125.233 -91.7761 1017.83 196 194 192
199.889 -64.2583 971.629 42 39 38
165.091 -56.2008 964.042 30 28 30
356.854 -43.3479 948.777 224 234 219
351.532 -24.7299 963.523 115 138 105
329.725 74.8791 1030.1 253 252 226
-504.608 132.305 1016.44 254 255 249
-581.588 160.331 1017.84 255 249 238
-581.588 160.331 1017.84 255 249 238
132.895 172.04 1055.67 233 231 235
237.115 174.617 1071.42 88 69 56
-519.634 185.388 1104.96 141 112 91
122.959 232.215 941.223 87 85 78
-334.405 286.891 1120.83 118 83 66
-596.071 294.722 1097.58 137 112 85
-596.071 294.722 1097.58 137 112 85
-553.842 293.911 1032.97 244 241 244
326.389 97.1164 1071.82 171 161 114
-568.661 151.489 1031.7 202 131 121
185.612 193.518 1109.98 95 77 72
185.612 193.518 1109.98 95 77 72
-402.116 193.936 1065.48 254 240 229
-329.42 261.757 1173.34 74 59 49
-290.099 374.366 1336.44 155 152 134
-385.224 363.894 1103.7 250 251 254
-340.357 453.775 -1507.36 198 172 152
374.636 -776.719 2697.66 194 171 145
-372.305 38.7721 1117.59 151 146 131
-372.305 38.7721 1117.59 151 146 131
-366.615 47.1483 1217.4 71 69 70
268.749 108.309 1020.72 217 212 204
-512.628 133.43 979.852 252 255 248
-301.056 293.687 1319.67 70 58 58
-364.077 281.681 1128.05 249 253 247
-123.93 -368.961 1506.42 94 65 41
-384.468 -19.6175 1173.97 105 84 80
-404.732 47.3126 961.32 245 221 192
380.861 75.5304 1031.99 226 230 228
-407.666 102.061 1028.79 222 187 147
-383.146 204.007 1080.48 247 192 151
-433.388 -234.696 948.666 86 92 87
351.095 -48.6858 969.994 134 160 122
410.203 208.658 1078.94 86 93 92
339.226 416.373 1268.7 203 231 229
327.114 191.058 1071.3 252 255 250
327.114 191.058 1071.3 252 255 250
-407.242 519.996 1196.76 71 78 76
262.468 -171.158 1167.08 94 101 102
-366.056 187.195 1241.67 72 66 52
-448.55 100.732 959.183 228 213 206
-409.029 340.606 1133.18 252 255 254
