1.74303 15.3683 1168.8 249 225 214
9.94912 14.728 1292.63 101 75 59
6.22056 498.044 1257.26 42 43 46
-6.48502 409.964 1169.2 254 248 244
-32.4397 414.152 1136.46 255 246 220
317.436 338.218 1871.47 83 98 105
334.933 -73.3142 1777.24 255 249 228
0.49787 5.29887 1234.47 219 203 197
-0.13311 453.077 1253.68 251 237 237
301.667 36.1122 1707.87 249 244 234
-169.167 557.615 1375.91 210 207 200
344.37 469.545 2144.75 73 109 119
226.927 330.842 1853.2 4 26 28
85.9903 92.9246 1379.05 222 206 198
-22.0787 430.284 1219.61 255 249 240
292.995 401.231 1850.39 222 255 255
-66.8759 91.1565 1066 228 174 151
-22.3988 487.646 1160.55 255 255 245
32.2576 25.9666 1228.67 137 85 62
302.801 -36.0302 1692.24 217 200 191
-66.8692 80.487 1065.36 252 183 156
-4.00025 390.916 1220.6 75 42 34
-76.003 212.522 1167.16 68 42 30
-6.37003 279.191 1112.21 249 236 231
-32.416 443.385 1138.98 31 15 7
79.0307 82.5375 1315.76 133 107 100
-29.5492 512.984 1312.32 186 168 153
202.729 -131.502 1742.59 75 70 60
-52.3852 296.233 1077.75 79 69 63
-40.1481 413.176 1214.29 250 236 231
334.982 101.56 1821.16 26 8 3
-66.895 117.821 1067.59 130 52 28
-0.212865 418.05 1251.85 251 246 247
40.0921 33.332 1288.59 171 113 84
12.4679 495.534 1258.48 134 138 151
388.68 -164.962 874.088 64 68 60
211.098 -144.388 1740.77 86 87 83
302.422 -44.4075 1690.31 66 43 34
306.028 141.999 1626.38 238 225 208
-69.7783 72.5328 1109.58 255 243 224
300.145 -124.174 688.56 88 95 86
-3.77606 475.572 1226.96 122 106 90
23.488 160.57 1166.78 123 96 76
-0.477165 313.375 1245.52 112 102 96
-42.0819 110.827 1091.58 123 121 120
316.761 245.813 1729.76 89 83 76
-39.2492 418.692 1114.31 164 158 146
-58.874 97.6218 1113.6 124 106 91
325.058 70.6794 1718.73 254 249 241
-32.6114 348.775 1184.92 160 147 142
33.4714 185.821 1219.79 120 90 67
-2.59863 380.889 1151.81 255 250 241
-13.003 29.9946 1252.35 255 248 235
-58.7953 236.837 1172.61 133 115 100
-2.09332 389.006 1238.91 250 237 224
-35.7774 323.186 1223.6 101 70 62
-38.0786 297.567 1124.36 124 133 121
-149.307 562.733 1384.01 238 238 232
34.7007 214.592 1305.47 127 110 93
243.648 361.196 2085.22 149 171 179
283.658 -11.8505 1785.74 153 127 114
344.953 -55.9215 1783.04 247 253 241
-10.182 337.722 1214.8 144 132 126
371.101 78.3457 1918.4 253 250 250
-35.4777 251.307 1151.08 255 243 219
36.1009 238.928 1269.79 133 114 98
31.1649 162.034 1299.86 167 119 95
-28.0918 493.564 1192.71 92 78 61
-37.1532 404.079 1214.27 153 140 141
-60.0283 205.217 1110.14 143 112 84
-23.8431 423.44 1166.41 182 164 142
203.021 -122.999 1744.76 167 170 153
14.6208 380.972 1279.85 229 230 215
311.699 340.991 2091.38 107 142 137
349.92 164.331 1838.94 122 116 101
24.805 187.968 1300.94 255 243 232
4.91822 335.658 1217.83 163 143 140
-35.6049 267.638 1179.66 185 173 151
35.6582 174.805 1262.3 173 133 106
297.084 83.0457 1810.98 175 151 140
-58.7461 151.305 1166.81 238 223 221
399.738 -202.316 1888.06 221 237 236
241.784 454.548 2110.33 50 69 66
297.558 -125.127 693.965 79 83 77
-20.2943 346.037 1268.76 183 172 176
-32.7696 175.649 1174.18 223 190 179
19.3648 188.349 1206.87 246 240 226
340.443 28.8768 1803.99 147 114 99
19.0492 531.83 1356.03 38 43 55
-10.3881 411.973 1110.92 140 135 133
462.289 26.1727 2210.57 147 132 128
31.7615 232.356 1277.39 254 229 210
-32.7638 181.549 1174.6 141 91 80
349.387 24.3997 1804.06 251 242 227
-75.361 172.694 1114.91 230 209 200
-29.6094 421.172 1189.15 90 58 39
-113.862 128.983 1077.49 162 136 130
245.555 -166.32 1740.74 92 77 71
282.02 464.869 1866.65 131 146 140
-32.7762 169.73 1173.77 139 108 103
-137.358 86.5634 1113.42 162 130 123
381.08 342.274 2102.2 142 167 164
33.3118 -20.9713 1281.43 126 100 84
89.4908 121.476 1323.51 46 25 16
275.928 44.4366 1705.73 135 118 110
44.5435 221.665 1308.15 216 204 191
-214.884 108.059 1177.87 66 15 10
45.5366 226.503 1270.28 195 189 181
79.3612 108.664 1211.01 80 67 44
44.5027 215.044 1307.56 159 134 117
-19.5702 529.206 1341.47 99 79 61
-51.0724 529.47 1243 161 154 151
-224.745 526.595 1371.63 148 128 112
-59.8476 248.331 1215.85 226 197 177
-59.1381 134.146 1027.67 254 238 231
-64.3942 156.157 1116.26 101 37 24
417.341 62.1426 2218.38 176 161 154
-177.81 497.411 1260.56 153 136 124
371.018 353.134 2103.95 190 229 232
-35.5161 184.319 1145.29 146 114 105
-75.76 66.7332 1156.73 169 149 123
-4.7888 115.67 1069.83 252 254 255
246.509 82.9187 1802.61 138 117 95
-32.9184 26.9107 1162.77 180 151 138
-29.9414 103.967 1139.01 176 162 156
373.195 380.531 1998.51 141 157 153
245.181 375.677 1836.99 82 115 113
-52.8327 107.794 1089.13 208 200 200
-13.3048 85.4379 1224.97 255 246 229
-83.2762 220.27 1137.84 168 143 125
226.284 66.8627 1670.75 143 118 105
35.7381 235.425 1178.57 185 170 162
-13.1602 153.338 1230.81 249 221 205
168.284 -105.431 1742.95 49 46 28
2.08203 135.262 1232.53 254 254 238
440.913 166.696 1951.83 246 245 222
-14.5607 302.49 1226.76 227 218 206
357.786 -0.553702 1812.19 245 219 199
-22.3462 386.72 1183.66 162 157 160
317.719 345.918 1755.8 143 167 164
274.422 321.263 1967.62 83 118 111
226.251 69.5694 1302.68 166 149 143
-61.6666 155.481 1070.85 205 157 145
305.035 55.8276 1805.59 47 22 22
-22.4116 344.172 1179.15 236 193 183
352.821 -182.8 1672.7 190 206 206
-72.8681 58.6173 1050.69 241 217 193
375.815 72.4094 1822.19 184 160 147
-49.6639 262.177 1148.92 255 247 233
-67.1445 167.359 1116.36 133 107 107
-31.1001 261.585 1079.14 255 233 213
516.305 46.7299 2612.57 250 248 245
385.619 -166.365 881.402 95 99 93
57.5242 202.338 1309.1 179 183 162
-102.144 269.162 1064.16 124 99 86
-28.1296 316.933 1286.77 254 204 171
213.304 66.8581 1612.43 62 38 17
-18.5467 375.049 1287.26 187 163 142
