41.0871 63.6316 1175.17 15 2 1
499.87 -290.396 1295.36 254 252 244
-15.5955 80.3696 1171.25 155 105 94
-25.8703 43.1403 1141.29 68 23 0
-87.8496 316.712 1171.24 19 18 14
-30.0527 107.243 1196.7 251 246 232
-168.735 98.6736 1089.64 53 20 14
-41.8603 71.577 1192.12 250 233 222
-80.1078 265.167 1193.41 253 236 215
-69.9933 320.105 1200.33 231 222 218
-71.0728 376.291 1233.88 200 196 191
-134.382 228.167 1126.26 114 94 94
-70.2012 273.015 1122.25 255 252 241
-47.9819 43.6538 1112.88 249 236 221
-82.0273 273.037 1170.1 84 66 65
-66.81 -26.5692 1059.52 63 41 34
-124.751 308.691 1162.11 249 242 230
585.283 138.947 1436.74 2 26 47
-127.353 278.349 1109.61 191 194 188
-96.0513 190.851 1161.75 251 219 211
-21.4183 60.0245 1168.46 255 247 208
-86.1064 350.447 1228.8 228 222 217
-85.934 279.588 1224.31 78 58 39
-28.6707 36.6636 1160.3 236 201 180
-95.008 315.981 1224.53 230 220 216
-96.3985 307.385 1168.75 211 203 184
499.902 -103.508 1271.68 52 49 53
-82.4249 315.79 1116.82 57 56 49
-17.1367 71.2728 1163.93 248 216 196
-3.63622 99.5063 1125.65 248 237 219
-6.42816 -73.8141 1067.63 127 26 2
-14.2324 88.6092 1165.11 58 38 28
640.998 233.42 1608.15 26 53 56
-6.0096 60.623 1146.2 124 81 47
61.7635 122.135 1237.77 30 17 11
-191.795 3.40665 1055.35 195 197 175
613.21 -114.861 1333.55 253 238 223
-163.937 17.3519 1041.45 40 31 25
644.328 -319.044 1242.74 182 201 192
-102.076 301.218 1167.08 110 105 87
-37.1301 79.8218 1140.93 253 211 181
526.576 56.959 1567.52 219 216 208
-172.676 18.488 1131.35 114 114 108
-25.8139 113.908 1144.98 254 250 229
406.624 8.66551 1464.96 26 25 12
-76.9628 292.452 1227.28 219 201 185
-61.6109 -79.6831 977.893 83 62 50
530.594 -95.2758 1333.33 41 23 18
-92.0432 325.388 1225.84 101 112 101
-104.431 -75.8225 1092.79 217 195 187
-17.4096 26.5508 1142.05 98 51 26
584.903 -244.106 1441.72 246 239 239
-184.12 46.5423 997.276 255 252 242
-85.8612 -77.7855 1047.78 149 136 127
-154.428 153.383 1170.74 244 207 167
-166.709 -0.499458 1033.11 53 37 33
-77.1249 379.019 1232.61 7 3 3
-56.9279 -23.1851 1083.47 65 24 24
-113.465 312.371 1165 150 117 107
628.753 -92.0991 1467.25 213 209 207
544.203 -186.096 1319.41 218 218 223
558.983 -70.1955 1392.52 234 221 221
-139.312 294.993 1212.27 255 249 244
-61.9834 356.614 1179.23 47 49 44
-127.446 271.19 1213.66 111 80 77
-143.809 203.379 1151.21 247 230 213
-53.6072 237.543 1123.96 215 234 212
-28.774 -82.7689 1133.33 105 61 42
51.0681 -15.9321 1152.57 172 107 82
4.32862 -49.6114 1116.04 211 148 137
528.276 -205.54 1257.93 253 245 247
-113.168 233.499 1160.48 254 246 228
-152.905 82.584 1092.44 104 79 70
615.657 -357.144 1293.24 32 44 39
459.658 -315.654 1295.3 216 174 170
-141.75 -10.8668 1038.27 154 81 102
578.666 -169.81 1431.03 88 43 32
-161.177 142.31 1094.09 249 255 229
-39.9478 60.0458 1139.31 157 125 103
-65.8684 -21.5941 1205.08 255 244 226
616.334 -93.0239 1401 248 234 229
-113.063 207.479 1158.87 127 125 118
660.507 -357.438 1293.26 220 250 252
-154.686 208.817 1173.37 109 120 106
-146.713 76.0503 1037.24 208 194 185
-163.856 150.478 1093.91 251 249 232
-133.324 -0.502841 1006.17 255 255 231
-100.957 20.1577 1124.17 255 253 239
571.826 -120.476 1394.44 243 233 233
494.873 -352.166 1416.12 20 6 6
619.989 -226.102 1376.24 224 222 207
-127.625 307.92 1216.03 131 110 109
52.132 -5.8099 1127.99 255 245 211
550.22 -148.751 1452.83 195 181 174
-154.763 226.358 1174.16 106 103 101
-65.9392 -18.4294 1113.96 102 73 60
35.1542 -19.5749 1123.93 255 241 246
666.352 -91.9311 1469.93 255 244 235
-134.291 339.593 1340.97 246 219 210
-124.499 297.737 1275.44 132 89 89
630.569 -262.664 1190.08 177 199 182
114.81 312.337 1330.02 48 44 29
625.692 -127.433 1519.21 242 235 237
705.397 143.176 1678.29 203 247 251
495.034 -396.679 1486.17 190 193 184
724.47 164.488 1683.61 115 135 133
-118.7 210.113 1157.7 141 99 101
-73.3301 220.928 1168.88 116 89 78
-146.038 -6.80265 1019.66 145 87 99
532.731 -160.338 1323.07 217 201 188
5.68998 116.821 1204.73 146 125 103
-184.341 98.41 1085.81 255 249 255
83.2262 21.3524 1160.63 253 244 221
-14.7193 -74.4965 1136.58 191 132 117
-70.9234 307.719 1143.16 251 250 242
515.76 -114.728 1329.45 209 193 195
-113.248 253.802 1161.71 253 220 220
573.529 -150.626 1326.31 233 218 204
508.812 -185.968 1308.92 158 143 134
-78.8462 331.701 1199.22 224 224 221
-104.515 184.747 1159.39 111 55 39
-8.64514 -84.87 1089.43 148 56 17
-134.355 219.759 1125.94 152 130 142
654.162 -207.689 1260.44 228 231 203
465.938 -136.559 1200.99 47 51 38
-40.4475 52.7442 1045.76 222 192 170
1.62161 -39.4847 1071.45 232 188 172
688.313 41.9781 1415.78 250 245 231
610.246 203.219 1516.57 167 199 222
649.052 -379.547 1350.03 148 173 162
-116.308 206.67 1108.39 104 60 50
631.175 181.025 1447.4 140 160 162
-80.3275 -87.0959 1097 201 178 163
-134.273 194.529 1124.96 164 74 62
-56.4282 12.9104 1064.09 172 154 149
-75.8924 337.559 1093.23 205 205 196
33.4089 -25.7938 1093.92 255 238 235
-130.205 270.495 1158.62 254 253 254
65.8145 32.7118 1158.22 135 73 22
572.376 -263.18 1171.45 189 177 168
-19.9682 125.999 1165.12 85 80 71
-3.60747 239.149 1185.08 233 227 206
65.3771 -41.6522 1153.49 248 242 218
-75.5348 177.901 1115.86 141 77 65
-49.1061 285.954 1293.03 251 251 231
-30.012 141.989 1285.02 109 98 91
616.606 -130.43 1394.26 254 246 247
596.859 -214.054 1303.34 234 239 219
513.798 -339.781 1354.31 39 43 39
57.3442 8.47022 1179.19 255 247 228
573.284 -9.88595 1413.59 189 182 158
795.016 230.971 1695.34 127 137 144
-73.2179 162.834 1165.04 247 227 221
535.867 -205.558 1204.61 223 200 172
633.137 -138.375 1389.21 232 212 204
-167.149 126.016 1046.68 255 240 221
-74.0734 360.558 1232.26 105 81 69
-181.79 103.876 1086.76 105 77 72
682.991 -97.4615 1470.42 97 71 54
622.699 93.3088 1537.75 62 67 61
30.6392 -38.8355 1118.03 255 242 242
595.02 -137.458 1392.33 255 244 236
-0.00841853 -47.4194 1016.51 72 25 3
5.08478 -66.313 1140.88 113 60 26
699.214 195.904 1583.3 110 140 149
57.9983 24.9341 1131.46 255 241 244
38.9832 -9.59453 1096.4 255 236 203
-196.245 27.7923 1034.43 248 213 196
647.281 -289.476 1304.5 75 77 75
51.7272 124.536 1160.65 226 204 165
-67.5976 224.195 1170.36 131 88 78
411.118 -345.65 1411.64 151 143 125
415.26 -290.642 1296.5 58 62 53
-83.579 56.8733 1081.92 247 235 207
524.864 -199.001 1308.6 255 252 250
-12.7167 263.439 1267.06 232 219 191
42.3412 -32.925 1149.91 253 245 221
-142.785 156.414 1099.32 213 161 135
497.556 -189.862 1258.91 131 115 109
596.149 -123.884 1394.79 247 251 252
534.906 -199.191 1309.34 251 254 255
617.377 203.268 1477.07 127 158 162
-189.59 14.1339 1103.31 125 144 144
495.89 -115.944 1269.65 111 83 86
61.352 11.9203 1233.2 255 239 233
460.532 22.5322 1555.25 143 138 125
13.7139 305.01 1217.27 231 239 205
-37.0907 198.566 1146.46 158 147 142
73.376 -64.252 1231.71 255 242 230
65.3072 -52.997 1152.73 234 223 214
123.576 102.356 1380.51 237 224 205
70.9571 85.4875 1238.22 251 241 226
468.715 26.2967 1556.73 32 30 17
-195.093 21.274 1122.25 148 148 134
-145.559 178.153 1099.93 221 199 161
-28.81 101.686 1032.67 227 219 198
-162.686 -155.484 1205.31 64 64 54
-137.576 175.637 1101.68 87 28 20
684.23 143.23 1677.4 62 105 117
66.288 144.974 1320.36 191 185 160
622.235 -24.0698 1413.49 118 111 93
571.915 -159.721 1453.12 147 122 105
-131.201 17.4797 1048.8 252 242 235
561.956 -304.099 1244.13 166 172 165
-126.895 173.212 1104.04 179 109 90
-112.473 42.9674 1075.13 246 186 160
23.8181 339.761 1277.88 30 16 9
515.27 -365.157 1414.65 209 178 159
38.495 345.342 1316.87 121 109 102
-48.3878 175.163 1143.15 161 149 143
-159.933 199.221 1118.46 130 128 125
538.017 -179.633 1320.19 109 104 113
48.3423 336.005 1318.26 93 77 54
594.416 -247.63 1253.37 219 206 192
61.421 -58.5055 1122.8 254 242 201
83.8635 10.355 1213.17 233 215 191
-93.1282 215.821 1135.13 127 106 108
35.0393 -51.216 1034.57 186 110 73
668.27 52.6056 1417.7 225 224 213
-12.4403 229.983 1182.63 148 149 122
96.4693 58.6961 1218.7 255 242 215
652.119 137.438 1501.56 98 130 130
677.306 -145.719 1462.69 255 243 236
542.172 -321.51 1251.29 144 166 167
-184.235 65.7025 1031.11 249 243 231
-89.9928 28.4983 1127.03 255 211 202
-95.4857 25.6926 1125.68 143 138 124
659.158 204.727 1604.22 78 113 115
567.905 -372.512 1414.94 211 183 174
-176.576 43.0963 1039.96 181 167 163
7.31253 82.4931 1080.75 255 250 234
577.886 -158.102 1471.99 190 177 154
-78.8541 134.048 1161.72 129 95 76
663.956 -174.187 1457.58 148 135 120
-51.0321 272.43 1218.72 188 190 162
-127.551 292.639 1215.05 191 170 163
-101.783 210.849 1161.73 153 148 136
552.891 -205.253 1305.97 153 150 146
-1.34014 331.693 1216.47 122 106 92
602.55 -197.663 1509.14 255 247 251
811.265 -60.3615 1478.04 213 225 211
656.522 -174.199 1457.12 219 214 199
-72.7499 150.45 1114.78 186 180 174
-117.549 -2.05637 1071.91 248 228 216
-133.608 190.728 1197.88 255 187 165
534.372 -177.481 1354.64 133 115 112
-6.23144 140.483 1203.55 185 156 148
-162.905 1.28524 942.642 250 246 227
794.849 -136.086 1462.26 236 248 223
631.082 -289.906 1304.35 83 77 63
28.8393 211.313 1189.77 250 249 244
417.258 -296.659 1288.39 93 91 94
847.273 -74.499 1544.75 110 120 105
566.701 32.7729 1848.01 128 128 113
-111.123 369.179 1194.45 106 91 70
42.275 -47.1304 1149 200 181 155
84.1652 296.892 1230.38 255 254 243
-185.974 89.0429 1069.36 150 155 157
711.825 -326.199 1301.71 204 218 194
-99.0359 236.952 1164.03 236 200 183
539.714 -96.6059 1327.61 137 115 123
663.035 -82.7138 1404.17 162 150 129
-56.0926 236.459 1173.69 234 225 199
39.7738 253.349 1342.68 248 240 230
-119.968 263.044 1102.96 212 200 197
546.286 -127.616 1378.77 96 75 65
699.407 -45.4522 1555.62 245 245 223
52.419 -51.7664 1260.09 254 225 187
-52.2787 272.932 1291.23 226 233 214
-163.027 -172.853 1327.76 120 120 112
-13.1325 -77.7137 986.36 156 84 64
641.303 -5.12892 1572.9 97 91 72
627.692 -140.814 1329.55 163 128 120
769.069 -71.373 1407.1 184 192 177
-95.0015 -9.77783 1071.38 255 237 205
620.269 -272.353 1305.32 111 82 77
587.011 91.2689 1501.85 108 113 108
638.67 -270.436 1369.29 188 171 159
840.332 -375.565 1507.39 221 222 211
646.252 -34.3332 1412.5 155 160 148
645.469 91.9643 1582.07 88 76 70
574.355 95.536 1480.05 67 94 93
-122.628 -18.7664 1117.26 246 208 196
21.7391 157.853 1268.68 229 230 209
589.216 -160.488 1314.31 149 149 123
-146.179 40.0208 1067.54 231 174 148
-116.543 350.906 1208.22 253 235 224
-84.5439 136.834 1160.63 196 156 130
-144.956 74.6094 1093.8 194 157 124
726.561 104.033 1587.65 134 171 170
-73.1528 131.204 1162.8 199 151 147
565.504 -244.05 1219.53 182 163 150
662.351 -341.711 1275.92 165 191 176
