-94.375 400.745 1104.52 254 247 248
-73.3336 28.0755 1156.48 255 244 232
-92.8548 424.396 1127.05 232 221 198
115.145 -45.1629 1658.13 237 229 216
-87.2367 516.498 1184.38 232 234 228
136.924 75.1057 2017.1 24 22 18
-82.5813 18.0243 1205.79 188 183 180
-94.4392 490.729 1210.19 252 238 238
-33.6055 3.79493 1271.92 249 233 217
-71.1919 25.9193 1178.37 128 108 90
-122.389 200.304 1020.6 21 17 9
-102.788 417.084 1175.44 237 229 221
104.421 58.2974 1676.61 223 218 213
-53.1137 202.748 1227.87 99 69 52
131.161 39.8668 2007.87 249 214 196
-65.3751 482.431 1187.16 98 115 103
87.2366 339.306 1823.93 61 80 93
-64.7998 -5.4823 1264.02 88 64 53
-91.8107 448.39 1108.05 36 2 0
-89.9651 342.903 1123.81 110 94 88
115.406 -14.4443 1759.67 184 167 158
-114.081 218.811 1111.45 95 70 51
-108.272 310.221 1069.63 86 74 68
-78.1449 393.382 1174.54 189 162 145
-94.0651 303.722 1098.01 101 39 28
146.814 60.0247 2016.3 125 107 100
73.987 455.698 1953.68 43 79 77
-132.897 223.689 1107.35 210 180 168
116.964 -25.2736 1752.12 62 47 37
109.364 100.352 1685.84 109 107 106
-122.413 330.611 1165.99 239 226 223
-108.19 286.137 1190 66 58 41
-114.26 127.081 1060.62 158 82 66
-174.723 145.712 1092.61 160 143 140
-109.452 230.708 1067.37 96 72 63
-73.6995 486.559 1214.84 109 87 61
-111.799 158.883 1062.96 105 41 17
-104.281 236.246 1068.81 250 237 222
-36.3708 478.21 1244.06 42 41 40
-46.9794 41.9994 1215.79 171 88 55
-108.154 494.164 1263.25 124 108 90
-31.7863 471.441 1254.47 96 99 98
111.929 41.7478 1982.39 251 212 196
-119.444 71.2975 1014.66 131 105 83
-221.934 485.945 1125.51 138 133 130
-133.233 298.369 1111.55 202 184 179
-119.199 79.8237 1056.75 254 246 221
-91.0773 365.74 1201.12 253 219 218
-116.754 213.15 1110.5 228 229 225
-48.9176 249.032 1254.27 124 108 101
-63.9654 458.687 1136.81 247 255 246
40.463 292.403 1679.46 54 78 81
-134.923 166.326 1058.16 102 55 30
-84.3393 318.566 1093.82 243 238 232
-3.69034 338.958 1343.08 94 92 86
-119.278 98.1039 1057.82 138 49 31
-68.16 348.652 1179.67 117 95 78
-245.606 500.313 1171.08 107 100 91
-93.6256 185.712 1089.21 124 97 97
-73.8943 318.728 1176.66 141 124 122
-104.785 111.675 1019.95 120 83 76
-79.6314 309.589 1174.8 249 221 202
-74.5411 424.324 1237.94 241 236 219
-119.417 132.309 1059.76 176 98 76
-237.489 92.0672 1096.55 171 151 137
-101.534 39.503 1151.07 225 201 180
155.537 114.146 2085.84 191 174 181
-97.0507 411.612 1176.49 145 133 127
-115.763 122.902 1079.67 226 157 139
78.5671 423.339 1907.26 188 218 237
97.3883 -109.417 1641.29 44 38 34
-50.7041 205.038 1174.59 165 136 113
-13.2012 183.966 1262.44 35 25 20
64.7519 506.128 1961.77 74 97 91
-117.054 88.8507 1016.12 194 114 90
-124.73 177.144 1061.06 130 108 112
-272.03 -215.372 1179.21 176 169 155
-166.918 153.134 1117.09 68 35 29
-237.387 504.297 1173.66 66 59 53
-257.829 287.223 1152.17 73 19 10
161.523 -174.44 1848.71 181 195 195
-61.7217 357.131 1156.35 204 190 177
-73.3138 315.184 1200.98 154 123 107
-266.153 117.639 1067.18 65 11 4
-96.1725 122.085 1064.29 172 182 182
-79.0314 380.194 1128.11 255 247 243
-184.861 95.3762 1042.49 138 113 112
-85.9401 42.1506 1182.09 249 220 197
-82.5702 483.68 1327.33 192 186 179
170.069 -3.46226 1862.66 255 248 212
-82.6085 104.351 981.066 173 149 131
-62.9975 415.437 1329.1 117 118 93
117.553 83.545 1684.33 200 181 183
-83.9971 37.7118 1082.57 175 142 124
29.1855 102.232 1717.09 31 25 8
-73.5753 140.151 1164.91 254 245 236
-433.824 -334.869 1982.97 149 123 105
-68.1472 336.807 1179 176 165 154
123.746 -32.9676 1662.35 233 224 214
-67.8677 140.258 1166.2 255 248 239
-22.4072 62.946 1294.02 58 42 25
-243.627 97.8314 1129.08 95 58 48
83.8859 106.42 1774.83 127 117 107
35.1594 101.137 1762.26 137 119 100
6.06602 390.493 1540.25 49 70 71
105.101 307.305 1821.91 96 131 134
-130.418 204.796 1000.07 189 172 156
-90.5351 110.965 1158.94 255 249 234
-96.8741 363.852 1036.24 79 52 42
-108.544 280.987 1152.16 202 169 157
-50.0844 190.628 1227.6 219 184 159
-154.102 209.178 1101.43 83 45 28
87.9813 395.784 1834.75 90 120 120
