-21.2231 236.508 792.496 233 232 218
-307.071 12.8539 1368.34 255 249 243
-13.1046 288.516 836.155 247 245 236
-78.143 173.72 706.015 242 239 238
-85.828 9.90282 1072.97 253 250 248
18.609 244.339 815.735 254 246 237
-327.899 53.794 1477.97 64 46 37
61.183 328.045 890.039 188 172 171
-15.8232 16.9828 879.139 199 209 202
105.878 22.3938 869.121 64 63 54
-74.7297 0.985314 1093.78 66 79 79
-8.2993 222.927 807.689 192 188 180
-44.6228 -16.9656 1024.94 226 220 213
-101.831 153.411 700.658 192 201 199
-298.049 50.9084 1301.73 194 189 184
-73.7203 -3.14485 999.607 247 249 252
96.2277 22.9522 874.079 181 196 189
-385.645 8.646 1339.74 235 220 206
-1.93482 262.829 876.445 62 61 65
99.3843 21.6477 866.048 62 69 58
10.8409 296.786 849.127 197 179 180
-37.2059 -3.98226 1027.33 122 69 52
12.2342 -2.92255 982.137 223 224 212
-376.539 17.9216 1305.35 190 193 185
25.4043 1.90936 922.799 239 243 235
-8.94406 8.52767 950.726 224 223 220
22.3104 227.977 791.978 209 194 191
-68.5181 165.392 673.819 19 13 11
10.2371 225.125 808.372 228 211 206
139.111 173.068 939.43 38 10 2
-60.4631 252.169 762.384 227 205 188
-68.448 16.667 917.686 248 217 203
-46.1952 281.398 773.035 184 172 170
77.6683 343.203 908.949 131 123 127
-112.447 112.037 623.355 138 135 121
-241.315 44.2464 1473.41 158 120 115
87.6628 337.009 930.123 250 186 187
119.537 221.09 923.249 63 67 69
-260.33 36.5789 1386.71 210 193 190
-274.311 52.4971 1310.02 135 126 122
-429.794 32.194 1524.17 236 235 228
-74.9444 53.6392 729.136 221 211 198
-363.825 -45.7248 1304.52 150 134 115
-364.006 -49.5795 1343.84 183 166 146
28.0491 263.028 838.303 204 160 152
-132.671 33.1025 908.06 232 232 236
-403.51 72.9004 1298.12 246 234 209
-384.267 54.6915 1208.36 237 219 196
-134.105 89.1303 588.998 194 200 193
7.8941 268.576 899.371 174 171 169
-16.9108 264.422 806.586 172 147 131
-52.2191 250.356 767.214 232 202 186
56.7049 54.9595 812.979 188 177 162
-387.997 -31.2087 1335.67 170 157 135
-33.6597 0.155064 1156.91 73 42 31
16.0983 259.946 884.667 174 177 184
-58.5501 278.091 765.673 184 169 158
-205.922 84.3104 850.121 201 199 194
-380.241 -39.4292 1265.9 159 134 118
147.166 381.977 1031.88 207 179 163
48.0904 245.539 869.363 68 45 17
-245.003 42.1427 1428.29 156 121 106
-426.946 73.3765 1363.1 142 123 98
-133.478 59.1258 779.503 78 108 105
146.149 368.155 1010.45 108 68 54
-155.181 74.0037 656.841 209 235 233
148.668 239.462 1018.98 167 156 139
141.107 277.901 1000.01 99 111 108
21.6789 0.735616 959.85 139 143 137
-71.7886 118.599 709.128 58 64 64
-241.116 23.8264 1391.94 200 138 130
-389.789 27.9906 1191.81 255 247 225
23.427 279.856 978.626 212 193 181
95.8791 224.107 916.721 141 115 103
-398.288 93.5515 1303.52 157 132 110
-124.404 58.7015 727.867 170 212 214
-410.519 87.9479 1333.93 231 221 201
22.3124 221.935 791.518 223 205 191
-62.177 127.439 729.086 63 86 80
127.86 266.184 937.578 141 176 180
-78.6782 20.2392 916.174 207 196 185
138.513 239.33 996.118 160 163 164
70.2629 240.747 886.285 177 172 164
-74.9489 8.80691 1063.37 70 31 19
-359.742 27.2951 1380.61 140 139 128
-25.5393 263.87 792.361 84 54 49
-482.826 100.532 1558.31 174 154 134
-113.477 61.5004 745.913 75 110 107
-91.7898 132.988 703.674 94 98 93
-43.1404 130.951 695.303 131 134 129
-80.1483 37.4044 902.414 183 128 116
-321.519 -61.1279 1358.76 148 129 114
101.405 158.829 903.833 171 127 111
-26.8072 20.2387 888.88 121 103 84
73.9141 295.827 933.746 42 79 82
161.179 263.215 985.886 57 29 23
96.7214 220.896 886.883 73 43 23
-207.749 -10.9743 1233.52 144 149 147
-387.148 -27.6391 1297.07 150 131 112
201.808 426.842 1048.2 91 81 64
-2.44603 13.3559 1066.89 255 255 252
100.366 292.868 923.174 49 76 82
-230.571 -12.9601 1473.15 85 84 77
-406.137 48.9571 1449.29 33 34 25
-81.5923 113.806 673.063 67 87 86
-39.7378 -13.424 1233.08 69 69 64
93.0492 215.74 894.813 63 35 25
110.43 241.073 918.002 186 164 151
-68.0647 202.019 789.21 123 114 116
-123.533 68.4066 741.795 147 169 164
163.303 395.736 1024.95 125 84 74
-70.7067 34.3091 930.878 174 149 141
146.634 291.575 1023.65 51 59 66
-237.181 -51.3393 1422.99 67 66 43
39.1254 22.6353 983.759 109 160 147
-96.5094 128.178 651.358 63 66 61
-322.755 23.2961 1572.27 152 127 114
117.06 270.89 974.562 121 114 103
34.7417 169.208 846.049 207 146 117
