-103.159 2.2156 1054.15 255 240 237
-151.807 84.8872 911.193 255 241 234
-109.165 -6.77329 1121.12 243 249 244
125.088 310.381 1028.38 210 199 195
-463.365 262.574 1512.1 242 219 210
-5.92125 -26.0667 1093.49 252 247 242
-457.725 122.463 1512.08 249 244 237
-10.7758 179.444 828.276 200 190 187
-424.671 138.926 1528.64 223 217 207
52.1267 219.13 950.758 234 224 216
-485.405 315.579 1609.86 223 216 210
111.631 -27.0402 973.189 178 184 181
59.0302 470.571 960.073 38 51 42
127.451 -30.4463 1029.12 71 67 50
-447.078 265.841 1541.62 99 76 59
-419.666 229.94 1460.23 188 163 150
-60.2311 143.472 836.964 252 250 244
-245.387 91.0088 946.788 223 214 212
-432.226 120.246 1603.99 226 219 213
-240.972 93.3265 947.959 49 51 47
-590.217 39.7744 1374.85 225 207 183
-481.219 8.02759 1259.84 220 204 188
-468.165 28.1534 1649.95 193 232 228
58.2518 292.657 978.916 211 206 196
-11.3513 172.112 804.551 155 149 147
13.0662 -24.4303 974.168 249 255 248
79.7864 307.895 1033.07 195 174 170
-394.574 247.828 1536.95 198 154 128
-45.5303 52.2329 951.646 240 248 245
-79.8301 63.1589 912.008 9 28 25
-135.931 94.9466 881.945 187 218 217
34.9773 -20.0809 1015.33 246 255 255
-137.541 26.5483 1224 100 66 55
13.9797 406.147 962.693 250 253 248
8.87421 379.469 926.869 249 253 247
124.046 315.123 1083.51 182 182 177
-17.9614 258.797 897.288 196 194 191
-59.5913 138.082 818.679 49 41 39
-563.29 97.5724 1449.08 198 197 195
29.1394 -24.8273 1200.68 248 254 253
-402.452 98.5984 1245.79 79 61 55
-23.7848 -15.0243 1046.39 237 231 222
-109.486 352.617 1070.68 117 110 109
-589.936 39.8096 1491.59 161 149 126
-501.304 349.087 1445.13 125 106 97
-528.694 116.62 1634.69 203 173 168
44.1962 236.391 939.642 183 177 163
-491.035 128.78 1499.01 212 198 199
-236.86 186.761 1032.75 202 204 203
-405.167 286.831 1474.08 77 61 54
-393.244 227.786 1470.06 177 157 152
-119.852 130.46 906.733 248 253 249
-64.338 134.859 836.139 231 226 217
-456.165 327.163 1321.62 255 248 239
77.7535 241.996 980.405 191 148 155
-17.9574 263.32 897.4 108 106 103
-392.336 105.413 1535.58 52 24 5
-535.494 31.1205 1307.8 148 129 111
-524.402 31.2302 1312.62 183 166 149
-72.0887 105.193 825.658 156 157 150
-177.624 81.8991 962.283 177 168 164
-239.056 163.365 1031 249 251 239
-539.986 81.974 1371.93 173 162 147
-408.978 301.553 1474.73 155 134 126
4.60035 335.297 935.693 218 215 208
-522.583 352.996 1499.09 255 245 236
-424.777 262.131 1383.28 160 134 118
-434.966 308.845 1327.02 172 172 169
-4.79836 185.88 856.762 204 188 189
-154.034 96.2194 911.027 202 202 197
-141.173 40.9447 997.856 240 181 174
-160.343 35.8894 993.682 85 92 79
-132.287 300.515 1020.54 252 247 239
-571.201 138.947 1365.22 185 155 139
-115.276 71.6806 905.59 54 57 55
-344.746 101.951 1391.99 216 212 186
-620.398 101.97 1484.83 192 158 146
-404.218 94.6238 1514.59 155 121 112
-123.102 106.541 854.064 219 217 200
-41.55 126.849 831.358 151 149 139
-0.249406 203.845 931.229 71 54 57
-136.967 43.0946 1041.07 56 73 63
2.26537 330.528 935.186 75 72 64
157.81 166.92 1027.1 61 62 57
-33.9684 2.63142 1004.49 229 215 198
-117.944 13.3906 1028.97 253 248 246
4.65273 372.893 936.474 246 254 247
-119.874 94.9999 874.032 86 104 104
-143.036 345.335 1128.42 255 251 243
-509.307 38.847 1251.99 162 148 121
-463.883 306.105 1315.36 161 142 129
-78.7041 108.883 852.475 240 246 236
171.571 112.617 1066.45 76 47 33
-72.169 29.7618 998.128 132 87 75
-409.264 34.2638 1566.4 67 66 60
-28.0908 160.068 862.649 31 24 19
-509.557 322.443 1437.8 253 243 242
-15.7782 -3.3294 1064.19 177 179 183
-55.5734 148.591 819.739 61 51 44
-251.787 204.654 1114.37 66 62 63
-166.817 87.9404 929.125 164 129 121
-0.757163 20.6565 994.331 32 88 86
-79.7157 -18.3732 1178.54 212 181 156
131.754 536.528 1107.52 46 81 99
-154.149 38.2046 1045.03 255 244 252
-602.215 150.739 1443.51 251 239 220
-238.581 92.3718 986.542 209 206 188
-482.637 -4.39181 1398.82 143 125 109
-447.567 277.608 1543.42 247 227 213
-554.785 309.654 1579.41 145 131 113
78.5142 227.473 965.773 215 202 184
16.8005 396.536 903.158 251 250 239
-578.82 114.79 1359.1 224 203 173
175.511 209.372 1072.75 134 144 137
-417.968 274.645 1467.42 118 92 80
80.1382 224.845 980.157 199 171 152
-144.087 40.843 1047.45 225 165 160
168.323 166.701 1049.03 148 143 137
-90.0539 15.4168 1126.46 150 127 122
-60.5785 -17.4874 1067.37 132 79 62
-470.659 176.433 1230.11 106 93 69
-88.2475 -22.2719 1145.52 144 112 104
-80.1706 109.086 824.37 136 145 126
240.099 343.535 1114.02 38 2 0
-170.438 92.8715 953.833 194 162 148
-157.48 208.769 971.935 243 238 222
-691.276 72.3256 1552.42 111 80 41
-607.737 59.1068 1352.31 234 212 178
-545.818 107.542 1313.45 175 146 131
-74.5987 171.119 854.95 251 253 253
-110.366 65.6006 939.932 131 155 153
-0.056479 374.644 971.131 253 254 243
-464.32 301.702 1384.1 112 104 102
-125.916 345.151 1006.61 164 161 146
-86.4269 10.8847 1033.77 255 206 183
-28.826 -32.1993 1136.64 199 175 164
-47.4507 42.3052 817.117 65 75 81
-164.68 327.03 1122.79 255 252 241
-35.3823 158.466 833.196 158 156 153
164.791 202.809 1087 120 103 93
150.204 534.156 1137.3 155 179 195
64.1028 245.601 989.767 177 171 168
-406.229 396.96 1456.98 124 126 126
96.8262 126.848 978.551 160 115 95
-430.482 67.8296 1500.93 171 147 133
-64.2005 191.316 887.353 249 255 241
-14.6055 113.192 843.805 49 66 59
-4.77031 126.293 895.55 60 64 62
241.565 295.971 1199.78 50 20 17
-358.684 85.6607 1461.71 128 120 114
-446.086 5.24455 1310.8 50 25 9
-416.68 49.667 1565.11 46 50 48
138.164 313.601 1030.5 153 133 135
-219.935 203.22 1037.85 175 168 170
-35.1974 148.693 799.226 73 77 70
-89.7427 75.1476 944.363 120 142 137
-111.793 95.7778 846.096 74 86 86
137.401 231.755 1083.65 41 50 41
125.471 533.599 1121.47 89 131 153
-120.785 96.4277 904.771 243 255 254
-71.1673 194.35 896.02 253 254 253
-65.2733 21.6126 1012.63 241 211 196
-143.003 78.126 912.793 40 64 53
-543.982 155.584 1321.17 236 222 195
-536.982 250.896 1415.35 172 146 127
218.812 269.503 1105.57 118 85 74
-171.409 77.8254 907.004 155 143 139
-28.1039 136.265 861.955 56 60 55
67.8155 224.396 978.177 171 161 140
-87.2515 177.88 870.741 190 197 188
-4.90429 357.295 969.866 240 253 241
-148.123 209.109 973.999 233 219 207
-96.7856 19.7019 1077.57 164 110 90
-589.752 36.8936 1284.26 146 135 119
-164.161 35.5287 1042.6 226 204 211
72.83 244.268 979.699 136 121 111
-140.452 68.0337 969.803 183 203 202
-18.4262 -15.8095 1191.78 255 252 250
-777.242 141.119 1635.78 150 142 148
-476.014 354.134 1388.54 180 149 142
67.4904 227.897 929.227 135 131 126
-22.781 17.4582 1006.9 82 103 107
-12.6718 433.425 1077 144 148 144
-24.6793 289.927 886.447 240 253 239
-431.399 -6.34955 1585.15 109 109 96
-474.867 11.0535 1390.68 211 192 169
-12.1257 356.812 968.569 249 255 251
57.3809 204.034 896.564 48 11 3
18.1992 410.517 929.423 233 241 226
-525.037 340.611 1596.63 203 195 191
88.0024 122.184 928.412 104 48 27
-75.0532 167.573 863.833 249 254 243
-515.102 307.267 1433.23 226 213 191
162.936 198.878 1147.84 85 54 32
-582.091 331.614 1494.9 159 160 154
-527.356 109.713 1379.13 40 41 34
-668.591 31.878 1390.48 223 217 206
-519.228 175.755 1338.15 66 50 34
19.354 385.841 974.747 231 225 210
-396.016 248.857 1157.11 110 99 86
-516.804 161.061 1263.27 255 251 223
-517.857 299.689 1430.93 163 148 127
103.474 191.976 923.849 36 23 13
-478.453 -7.71736 1354.86 128 120 108
-203.215 177.97 979.36 250 245 237
6.08061 386.649 914.439 229 237 228
-166.025 199.14 1008.71 247 237 216
-55.9341 159.774 866.979 119 112 106
-132.269 295.404 1020.34 248 242 235
-15.1111 401.246 1007.09 205 205 201
122.732 153.831 929.938 153 125 107
-100.448 33.7376 1033.42 184 140 135
-17.2993 372.57 941.65 156 156 151
-55.4806 216.155 889.627 245 253 238
114.733 203.867 984.653 126 117 111
-101.035 15.3732 1124.06 230 170 147
-57.6714 225.049 889.48 249 254 236
-1340.66 -182.756 2578.03 145 148 135
-64.2128 209.17 887.862 250 255 236
148.006 181.725 1067.17 141 115 101
-268.019 109.182 1087.88 148 146 141
-22.3213 53.1519 917.246 58 84 80
-1338.04 -204.8 2536.04 167 170 162
-134.571 34.0844 1141.72 48 40 39
-147.948 291.135 1059.37 241 214 207
121.45 476.21 1020.15 59 97 113
-131.445 337.74 964.216 246 247 231
-552.64 215.143 1469.28 112 109 88
23.5155 554.016 1167.31 189 198 187
-124.82 285.612 1021.57 199 182 178
-527.947 175.104 1308.98 208 175 160
-1346.18 -188.086 2564.04 156 160 149
-703.485 88.4277 1388.11 238 239 234
-44.7869 19.3251 1071.06 251 217 196
-29.1829 136.105 848.403 98 95 93
25.9559 385.12 964.077 58 44 33
-436.837 216.916 1193.14 175 166 154
25.7282 381.354 940.155 169 162 150
25.587 308.404 938.592 115 104 97
-17.9455 276.879 897.729 230 231 223
-770.916 39.8206 1622.07 169 165 153
155.694 341.455 1120.58 79 46 39
-107.043 60.3928 875.363 242 253 248
-24.1392 19.416 989.704 123 131 124
-66.7342 418.888 1022.88 240 232 212
27.9176 301.534 938.806 174 155 145
-91.5087 337.376 1013.73 168 165 165
-557.59 185.265 1396.01 129 86 68
-558.571 102.377 1289.23 219 189 160
-209.459 187.113 1014.81 255 252 243
