-89.8226 413.206 1125.51 229 222 221
-34.572 511.965 1250.28 247 255 255
-84.3494 433.457 1127.59 248 239 221
125.081 252.3 1717.36 246 245 227
-62.1838 415.461 1131.63 51 53 48
-51.965 449.807 1184.83 246 237 231
-62.7659 466.346 1264.62 215 215 209
-73.3582 499.779 1132.57 224 223 222
-92.5534 404.524 1124.52 226 207 201
-15.1152 45.1507 1219.26 44 0 0
-114.086 166.819 1061.35 232 189 187
-10.514 54.3302 1223.43 174 68 29
-73.2828 420.209 1129.45 251 240 228
-113.07 225.086 1082.78 163 116 106
-21.8404 201.05 1118.73 161 138 121
-21.136 254.34 1206.19 118 103 91
-37.1145 474.295 1155.57 107 114 113
-53.0076 441.247 1242.47 192 186 184
271.283 427.177 1858.28 205 235 241
15.3316 475.488 1263.73 94 91 89
-14.645 51.9288 1144.22 146 87 76
251.843 -7.90646 1594.67 229 208 204
-125.866 117.385 1075.71 233 175 152
262.655 -18.3023 1655.81 118 88 79
290.347 54.8452 1704.62 133 116 110
-50.5179 412.006 1185.48 225 209 201
272.499 163.974 1620.05 190 174 153
49.5675 186.815 1370.65 41 31 15
281.897 101.114 1670.59 250 249 246
-37.1595 365.055 1152.81 235 233 213
-125.831 106.719 1075.26 253 193 168
-51.1403 44.8012 1211.47 255 246 234
-19.3677 250.4 1237.63 242 234 219
-76.7487 484.161 1183.05 254 250 252
-9.62764 227.559 1183.4 251 248 249
301.272 68.667 1899.94 255 249 243
-6.18624 239.988 1208.69 134 118 109
-127.456 223.358 1094.26 60 39 44
247.575 -3.958 1507.53 220 204 208
-58.7329 459.985 1162.69 130 124 119
-74.8543 8.84846 1204.65 167 183 189
-52.3196 42.4423 1118.19 250 225 224
-21.1648 221.305 1204.67 141 122 107
-53.4609 480.359 1188.04 89 70 47
-43.7511 464.22 1114.48 19 29 22
-136.48 178.434 1075.84 55 17 8
-120.735 107.363 1032.18 146 73 42
-22.1979 506.82 1252.77 153 159 164
199.134 353.437 1833.31 58 79 86
-175.064 100.435 1002.32 142 127 117
-85.9887 382.233 1077.87 153 131 137
289.063 31.5856 1804.58 145 103 88
304.811 -42.9882 1661.81 247 232 207
270.557 321.428 1735.29 189 219 230
-53.8166 376.33 1131.69 255 243 227
-108.451 231.19 1039.14 85 76 65
-8.18732 214.209 1182.16 185 162 147
-73.2473 389.033 1128.08 144 136 135
-123.191 91.9747 1031.06 237 219 193
247.602 108.03 1713.76 187 171 158
-18.4603 194.724 1179.3 241 203 170
257.656 81.5632 1540.97 242 228 220
151.49 -104.163 1530.91 101 106 103
-40.6909 35.9811 1215.42 255 242 221
-117.119 137.848 1005.2 221 169 146
-84.2211 354.365 1124.03 174 157 154
-82.8507 122.774 1065.63 156 131 116
302.55 25.3724 1702.43 254 244 215
256.264 13.6482 1794.97 201 175 167
-27.2177 182.65 1176.61 168 139 112
-83.8914 180.436 1087.36 132 101 92
-104.799 35.018 1232.6 196 188 198
-20.7279 6.58542 1273.86 105 81 64
298.968 50.6342 1705.6 254 246 232
-99.1073 209.688 1053.22 133 93 77
300.249 93.132 1712.06 251 243 236
-30.1202 194.298 1176.81 244 222 209
-40.3254 99.726 1174.43 189 140 131
-99.1411 261.852 1054.2 248 221 213
-62.1126 351.833 1179.7 161 162 161
-98.7418 259.117 1208.19 105 76 51
-108.315 334.767 1151.83 160 157 158
15.867 502.91 1323.02 64 64 62
-21.0477 174.896 1222.78 196 156 132
-89.229 196.453 1086.85 158 132 118
-107.314 118.249 1006.75 121 94 92
14.6294 119.179 1207.33 195 143 121
298.192 362.307 1979.07 96 122 131
-203.693 568.231 1340.02 170 166 156
-11.3034 276.128 1264.31 149 143 127
-119.276 177.205 1060.76 142 67 41
-167.335 150.685 1067.7 163 135 122
-36.1409 180.486 1219.72 248 229 210
-49.4555 359.179 1208.93 167 138 140
-89.5171 267.105 1118.28 250 235 205
-14.2462 184.21 1168.13 171 129 100
-93.5344 226.118 1068.99 241 219 195
10.9341 106.322 1108.34 255 245 224
312.898 43.4522 1925.61 245 209 184
-21.2154 164.376 1201.85 255 244 220
-109.309 276.572 1187.6 252 243 230
250.811 41.9735 1695.15 223 174 153
-38.6524 385.135 1161.98 209 200 178
-24.2696 226.935 1180.28 249 244 229
292.108 -29.0675 1692.08 217 214 206
-84.3618 441.925 1127.96 247 240 240
-79.3892 324.08 1174.23 191 121 98
254.548 103.261 1609.48 123 101 100
-105.216 252.407 1085.47 255 252 234
-85.426 483.357 1181.06 121 105 91
390.371 180.538 1846.84 255 255 235
-229.102 279.21 1134.67 91 39 20
-87.3899 51.1557 1128.98 144 117 93
348.523 -171.293 1760.21 168 188 189
302.113 106.443 1904.58 93 70 64
-65.633 51.2436 1102.64 253 243 224
-106.372 110.63 994.329 130 137 119
-50.7426 30.6633 1187.9 183 159 148
366.726 -171.63 1763.69 189 194 183
-95.61 128.472 1038.26 165 167 162
-90.0827 315.284 1103.94 196 180 173
317.993 97.608 1715.97 229 202 193
-84.2885 393.858 1125.87 254 250 255
303.829 382.714 1983.36 140 167 173
-47.5673 305.431 1180.23 227 202 194
-105.335 322.633 1087.76 97 71 71
348.96 2.56574 1782.02 255 254 249
-71.9402 311.174 1058.06 166 155 164
17.8846 131.334 1294.48 255 235 213
-74.5313 123.053 1025.18 255 249 244
-110.118 44.2059 1198.09 106 83 60
-23.3726 147.273 1099.43 195 136 119
156.641 -98.2665 1624.81 72 72 64
302.725 563.881 2149.56 147 162 158
-108.764 122.124 1060.03 255 254 252
-108.744 116.878 1059.73 249 242 229
-20.12 153.965 1158.29 188 141 117
322.976 -40.7733 1751.88 228 214 194
-75.972 12.215 1234.9 163 170 161
242.142 19.4843 1733.62 66 27 11
-128.142 79.1409 1029.5 224 195 170
361.355 -41.7866 1701.94 163 164 141
186.706 421.301 1862.41 45 57 57
193.203 279.244 1822.36 44 55 55
-68.3914 163.022 1105.26 247 209 187
-114.37 133.669 1048.39 219 137 118
-125.665 84.287 1030.23 194 170 146
-86.1403 316.541 1194.58 191 148 125
-28.6788 23.9984 1216.92 168 143 122
20.7411 246.035 1245.86 202 171 160
335.732 -42.9969 1582.05 248 250 226
-36.774 152.28 1068.54 230 201 169
-78.636 304.136 1122.7 254 213 188
310.549 469.386 2008.03 171 195 194
351.915 95.186 1827.3 174 161 149
274.728 391.687 1771.62 163 182 183
235.04 315.388 1785.23 100 123 131
-116.744 187.89 1061.89 241 236 233
22.4208 -125.633 1930.29 93 91 69
17.9642 150.875 1296.33 255 242 215
20.3523 141.703 1360.46 255 247 220
273.47 37.4396 1461.4 241 234 219
265.885 295.146 1672.44 183 197 193
332.323 44.5562 1713.58 191 185 176
-98.2228 503.065 1127.27 92 88 78
-122.09 185.676 1094.49 169 142 128
-105.999 316.346 1117.25 167 170 165
364.533 -38.0203 1725.1 189 188 166
236.443 529.885 2068.91 116 127 124
-86.9972 500.505 1215.38 113 94 79
277.62 -115.854 1648.63 90 81 72
333.759 144.277 1793.44 245 235 211
-76.4982 135.45 1102.87 241 232 226
-94.4921 107.301 1020.27 206 195 184
-184.474 490.632 1158.19 33 29 22
-120.343 301.845 1090.24 214 206 204
