323.182 172.03 1009.44 13 20 14
-391.871 108.499 1180.84 255 244 224
367.678 234.149 1001.43 234 234 230
380.052 267.374 1019.63 253 254 244
-484.279 355.146 1254.85 255 255 243
241.498 -31.4955 919.169 224 236 232
379.786 104.517 1026.14 151 152 131
420.088 385.643 1208.59 33 54 50
388.405 109.353 1047.82 253 253 241
-322.872 305.606 1240.83 255 247 239
229.528 -44.9587 917.055 41 28 26
224.672 -76.6343 963.1 250 255 250
278.306 406.718 1169.71 63 97 100
-389.407 126.246 1196.93 248 233 213
468.608 504.616 1274.75 53 81 83
-483.535 216.431 1283.86 246 243 240
129.816 -143.619 1176.24 50 44 41
-313.596 423.474 1366.33 180 182 174
26.3477 -30.738 995.404 17 17 12
-394.363 102.511 1179.46 125 93 71
355.809 236.211 1016 201 220 209
-480.246 304.437 1190.79 111 107 88
134.486 184.588 1065.51 255 251 245
329.136 45.2094 916.282 226 225 198
377.049 249.449 1018.65 231 231 216
-376.847 147.507 1189.38 134 77 66
-478.109 455.435 1406.18 70 68 70
-391.759 160.778 1245.92 255 249 227
304.174 25.8172 928.963 242 255 240
-244.533 341.725 1471.67 42 38 22
196.433 21.9866 1001.69 234 229 222
-343.21 85.4632 1320.03 216 205 200
-396.849 96.5482 1178.08 246 235 211
215.448 -76.4519 945.804 221 225 223
-529.125 340.659 1365.28 254 255 232
185.255 164.051 1012.95 247 236 228
-373.501 126.838 1148.58 162 125 105
-493.186 35.3124 1146.46 103 75 51
-396.915 144.945 1242.52 250 243 213
-499.833 339.04 1307.06 247 245 221
318.807 -3.15304 910.205 233 238 225
31.225 -26.5788 975.629 227 225 221
59.2376 43.7227 1005.32 204 193 182
135.31 10.7685 977.3 250 238 216
-338.574 257.598 1230.07 102 72 53
243.977 17.089 955.605 207 199 195
69.8679 41.7259 987.404 216 210 205
-442.242 207.49 1187.43 111 107 105
-299.459 214.164 1297.94 197 184 167
270.436 -97.7539 1021.06 204 223 220
291.846 7.11678 926.551 249 253 248
277.853 29.3157 895.947 208 218 209
-348.601 218.119 1204.77 255 252 233
274.974 8.90325 890.484 180 198 185
137.481 -112.407 1111.68 237 217 225
-538.809 357.249 1364.13 237 230 217
192.54 175.729 1053.27 248 240 233
167.803 -59.6465 941.974 221 212 196
121.885 -126.626 1128.32 46 51 60
-455.696 130.715 1122.26 243 231 204
-587.645 130.404 1210.63 143 126 123
248.745 -45.4855 980.81 173 169 164
-340.03 78.9243 1320.36 65 48 42
-290.361 211.445 1300.53 58 34 15
141.971 -91.7738 1046.91 221 207 204
293.04 56.1666 930.072 229 240 223
-503.301 538.284 1564.87 198 200 195
-335.938 263.982 1231.71 224 207 193
362.526 485.634 1204.81 205 241 249
311.691 123.944 1020.09 99 107 93
239.061 -35.9992 918.611 81 90 91
346.948 484.778 1202.69 75 121 138
74.6929 89.4022 1010.49 249 233 222
-490.278 174.064 1276.15 166 133 108
-321.483 34.7724 1209.25 188 163 143
287.228 11.7651 926.476 104 122 113
-502.945 44.2764 1192.59 142 95 79
343.593 147.602 1024.41 235 249 242
346.717 145.609 992.42 211 228 211
301.866 39.6399 849.244 127 136 107
-479.081 33.8088 1142.99 94 48 33
139.384 -95.3727 1088.41 255 219 206
-476.252 171.899 1216.34 233 217 187
-408.17 525.119 1379 81 84 80
103.934 66.8716 1053.54 222 209 204
-437.39 540.483 1440.72 69 71 66
203.578 -2.86854 964.714 211 206 191
219.106 -30.8347 829.314 237 251 250
300.208 116.442 967.925 82 91 81
351.366 78.2425 969.998 244 251 235
72.4398 108.735 1051.22 116 101 109
-297.862 201.906 1354.81 201 172 153
255.541 -50.2447 888.506 87 92 79
184.618 -55.2328 944.146 219 200 192
-406.938 95.8011 1186.94 255 247 222
86.514 -30.8925 1004.61 213 222 221
341.312 121.857 924.027 217 233 213
-305.656 77.0403 1402.84 195 186 175
-453.283 182.067 1130.63 248 241 230
-508.517 150.676 1266.04 123 94 75
-480.329 214.542 1219.29 149 142 139
-389.95 77.6634 1137.75 194 176 159
392.695 244.493 1019.91 146 142 125
165.322 27.7245 982.293 250 245 232
97.5827 -46.0425 984.843 168 169 155
168.343 -102.494 1049.32 195 190 178
191.104 7.01795 886.104 90 90 78
378.631 227.238 1038.9 190 206 189
96.8732 160.53 1038.23 255 244 244
-403.481 108.491 1136.23 233 170 146
-324.914 81.226 1333.14 167 154 151
241.644 -91.0502 964.068 156 184 186
-534.556 17.1168 1176.99 255 251 231
-428.665 22.9015 1160.47 251 249 213
-317.632 280.613 1193.4 157 120 116
302.957 72.6956 948.368 237 249 243
359.304 162.652 1012.39 247 253 228
293.448 11.328 896.092 234 242 232
69.6453 94.3624 1009.98 112 104 104
202.369 -1.64253 984.701 221 222 200
-438.691 593.197 1524.75 130 138 132
147.139 343.312 1119.27 111 110 98
-520.612 195.662 1337.52 172 148 127
-506.344 139.875 1201.37 255 249 224
178.428 72.4964 986.847 254 251 244
149.146 18.7437 912.489 241 218 197
80.2324 87.7499 1051.18 109 85 74
296.314 17.8596 942.641 186 205 201
-376.286 319.089 1416.09 233 217 204
-343.341 283.996 1274.42 160 122 105
298.671 33.7258 953.2 203 221 210
130.366 10.7804 976.646 230 221 197
211.853 202.811 1019.22 126 102 102
352.405 168.801 928.544 198 210 203
-500.103 215.203 1277.23 236 225 216
374.825 411.825 1168.04 109 140 143
148.042 187.547 1067.75 217 183 172
-398.105 228.542 1206.15 141 113 94
384.331 280.028 1073.5 214 226 210
69.6735 99.4673 1010.26 255 250 255
167.637 -127.41 1134.47 245 175 167
84.1512 144.704 1075.53 95 76 60
398.292 200.991 1099.49 226 247 203
361.922 82.9257 996.971 177 187 177
165.224 20.3163 981.783 241 226 205
122.532 -141.956 1199.78 211 209 204
326.108 -0.781107 929.431 89 98 82
250.455 -158.62 1123.25 87 100 97
64.6555 109.5 1010.01 255 249 231
-265.434 85.2894 1182.84 154 150 142
248.42 -49.7502 901.196 88 98 77
223.563 9.63334 920.234 216 201 197
-279.777 385.732 1394.2 182 184 178
-547.335 306.586 1351.32 150 144 144
154.285 270.108 1096.5 243 245 222
296.7 11.7474 927.308 142 149 145
231.467 -170.6 1168.79 66 76 71
219.983 -0.357751 1027.29 127 116 102
94.3143 -80.3945 1017.15 83 68 68
-535.856 408.225 1374.24 224 218 200
161.791 64.7995 1021.68 247 240 220
68.7196 -46.4601 964.474 180 172 149
166.562 10.52 899.059 68 57 42
157.281 121.169 1024.64 247 233 203
358.192 -181.368 1029.09 45 45 42
61.8571 103.271 1049.13 133 124 117
191.373 210.383 1119.74 255 250 232
-291.047 79.9575 1336.78 75 68 63
-295.029 302.349 1152.49 255 248 228
210.38 156.519 1074.86 227 212 209
235.89 202.927 1081.11 240 227 215
193.512 -63.8604 1052.03 133 112 97
197.026 -116.968 1074.54 139 110 106
265.859 27.3617 938.871 172 163 157
362.278 216.487 1036.55 217 231 219
125.973 138.927 1061.57 255 250 240
297.328 -15.3997 894.523 230 233 204
-416.798 160.397 1176.94 131 110 93
-428.023 95.5629 1167.14 255 245 226
306.668 70.4603 916.955 237 252 236
-370.363 -20.5043 1176.74 153 134 119
160.455 -97.1995 1048.8 189 197 188
431.969 461.211 1191.64 113 153 170
89.7121 54.1296 1010.68 254 251 251
-570.158 266.108 1333.56 237 216 204
134.655 255.546 1092.38 113 116 101
-417.689 178.936 1193.07 133 111 91
101.031 -94.8293 1083.07 209 209 213
-651.287 74.7393 1260.93 137 135 135
-372.072 55.689 1182.85 138 129 117
120.639 25.2862 976.268 198 183 163
-405.95 2.22699 1063.55 255 245 222
-415.345 104.74 1172.42 255 241 230
-282.111 100.126 1342.03 133 134 130
59.1974 97.9025 1048.37 241 239 235
-407.228 148.203 1139.11 134 101 92
-379.617 332.478 1286.34 160 140 116
453.39 481.265 1215.97 82 110 108
-294.571 99.8415 1337.96 130 129 123
393.563 222.294 1083.92 172 179 167
93.5145 -126.111 1124.22 198 188 172
-439.338 105.725 1200.43 255 238 241
-494.612 242.284 1171.66 155 153 157
361.412 254.132 1017.31 203 225 208
-536.449 348.464 1293.39 148 147 136
283.995 8.87597 891.044 247 245 244
301.773 -19.8269 894.549 139 141 123
317.902 463.517 1200.83 139 158 158
52.3209 56.5758 968.115 160 143 138
240.078 19.3108 946.35 171 168 165
297.326 451.699 1174.58 134 154 156
179.844 -115.909 1117.49 212 181 161
258.703 389.757 1215.77 123 133 137
178.617 24.2849 948.863 115 116 107
334.145 368.589 1053.75 104 125 131
-546.202 284.064 1274.23 252 248 244
-587.992 284.602 1329.06 158 147 146
149.248 -61.3985 974.095 12 21 10
61.6172 61.1967 1046.44 255 251 250
-336.688 219.12 1170.49 193 178 152
171.163 7.71525 946.916 209 195 185
-392.519 -21.3391 1227.23 145 124 109
160.744 -108.636 1022.37 118 78 74
352.526 142.237 952.002 231 242 209
-504.689 279.315 1231.7 147 141 138
-390.244 545.442 1388.22 225 234 228
-609.426 75.4733 1155.56 183 165 162
-275.025 250.895 1313.02 73 49 39
273.663 -56.7408 903.212 249 255 225
97.341 -137.257 1172.03 87 84 71
239.096 -159.395 1139.7 84 90 83
-415.708 122.166 1186.92 245 223 184
75.2816 140.486 1053.56 226 212 197
137.739 245.206 1005.39 196 197 174
-634.887 84.6612 1203.46 255 244 240
-572.212 348.175 1416.4 249 239 223
264.544 56.0286 927.372 167 161 152
-381.025 120.751 1145.36 248 214 193
-608.194 131.009 1289.84 249 207 197
-295.762 378.807 1257.39 208 186 159
-615.278 150.124 1224.66 237 239 234
146.845 -56.6182 974.138 125 124 116
181.863 -41.0964 912.739 77 76 72
236.727 163.891 1037.69 245 223 208
132.731 329.658 1096.89 158 154 137
116.872 -139.56 1154.94 114 99 93
302.322 -27.1743 878.307 191 195 178
-556.549 16.7945 1167.77 91 83 71
382.743 162.842 1014.53 142 153 141
-285.669 59.759 1407.22 122 107 93
128.461 230.542 1210.17 195 183 174
95.7541 144.525 998.95 217 215 216
333.493 234.333 947.402 169 190 170
154.505 176.269 989.252 177 159 160
-410.175 2.65639 1165.21 129 117 96
213.422 -49.4996 804.072 46 57 52
318.441 398.474 1224.73 120 153 162
54.3521 73.8844 1006.35 248 246 242
293.387 -140.443 1058.9 22 82 80
191.245 121.735 1029.3 255 247 234
-414.295 63.9705 1169.13 254 231 191
306.92 376.45 1144.05 228 254 254
118.621 -91.9774 1065.41 183 144 135
294.634 -30.854 893.173 210 216 179
330.352 469.845 1449.62 141 164 166
181.602 188.83 1031.75 219 180 168
83.0782 79.545 1029.69 249 241 246
-278.399 -9.9523 1217.59 83 86 84
165.927 74.822 985.388 216 212 197
177.734 176.607 1012.9 187 165 161
-568.136 322.202 1344.87 248 234 232
-436.693 77.0072 1108.21 225 184 174
73.5341 -51.2013 964.863 40 32 19
-310.237 0.882848 1390.9 82 79 60
-629.029 103.162 1209.66 243 250 247
132.13 148.522 1103.52 251 247 245
333.15 302.82 1055.67 243 241 227
296.061 -61.2008 890.987 178 189 179
-538.885 18.1334 1157.11 210 197 183
368.655 161.753 976.943 187 195 171
-414.818 89.9309 1132.37 170 146 118
-437.681 340.51 1441.7 154 124 101
262.686 81.7285 928.791 226 224 198
375.313 390.899 1153.08 98 135 140
-442.355 198.535 1231.71 180 170 154
99.9046 -81.3186 1063.26 166 143 130
366.99 377.501 1201.92 241 251 239
-585.69 320.816 1406.38 250 238 233
-545.455 314.04 1284.04 161 145 138
-445.395 222.315 1188.06 169 153 155
326.436 50.7188 980.768 227 245 207
218.481 6.68311 966.954 208 202 200
168.624 185.8 1050.81 138 131 128
280.021 7.17902 925.506 194 223 207
269.98 120.595 1055.4 249 248 219
-635.593 70.1499 1235.12 246 254 252
204.825 87.6353 1005.82 153 132 112
-683.524 39.5751 1239.4 217 213 193
-281.373 63.4694 1337.96 60 28 16
-593.447 345.599 1412.59 148 121 108
336.202 360.506 1147.24 237 237 229
-425.334 266.374 1311.67 222 212 193
-290.779 81.5468 1486.1 73 69 58
-523.148 193.74 1313.51 209 195 177
-602.892 225.796 1310.55 239 235 214
-384.151 549.492 1391.33 153 163 156
335.963 56.6134 933.798 206 207 197
-392.888 298.416 1277.16 212 198 186
-309.932 390.261 1317.05 214 189 153
121.448 113.873 981.523 234 212 189
113.946 -70.5442 1059.65 229 163 128
-395.513 291.674 1275.33 145 125 110
188.604 -76.3687 977.522 62 95 97
105.029 202.404 1061.78 182 178 162
133.16 119.297 1040.4 255 248 221
292.156 -6.43428 865.809 192 198 171
133.241 54.3598 1017.05 213 183 155
121.49 118.777 981.786 236 188 165
313.499 -4.26214 920.236 136 143 119
317.728 383.062 1146.87 130 160 169
170.84 67.5016 985.564 112 93 70
-354.895 255.172 1128.06 214 191 176
-390.823 253.281 1211.77 192 184 168
-564.938 236.077 1262.86 236 224 214
-268.74 199.434 1431.17 124 94 76
144.583 -135.289 1130.65 89 15 12
280.776 -56.6299 855.361 126 134 112
-569.142 242.247 1254.44 132 109 94
141.322 116.93 998.31 161 160 141
187.54 251.845 1100.12 172 173 158
-372.547 -41.5698 1295.01 127 103 88
103.921 -65.6597 1004.61 165 138 103
-308.653 262.745 1366.85 157 140 126
-403.789 -9.15747 1224.47 111 98 83
-231.262 215.164 1454.25 106 85 70
105.534 21.9156 892.841 138 133 112
343.354 58.6226 967.893 228 239 221
-520.779 386.538 1306.71 150 151 143
134.802 25.9377 960.162 183 169 146
192.271 173.769 1090.39 254 242 228
-565.553 229.719 1253.27 202 188 171
-290.77 227.859 1302.59 151 126 109
149.007 4.49003 852.495 179 159 141
370.897 462.549 1385.17 160 192 196
-676.276 260.494 1478.85 242 233 215
361.61 329.913 1102.74 174 170 145
308.155 36.4164 963.191 222 240 231
-622.29 195.306 1292.93 254 254 235
-335.425 -43.9472 1143.72 100 87 76
331.204 335.647 1060.69 239 253 242
371.258 298.713 1059.7 190 214 183
172.13 148.431 1010.05 237 212 201
-568.809 22.5684 1163.15 247 236 215
389.405 342.566 1169.1 197 198 176
-435.075 72.1249 1162.53 207 168 142
226.707 -143.855 1076.31 164 141 128
-357.38 330.737 1232.25 170 156 131
302.694 295.993 1140.01 255 255 208
