-73.653 -34.7238 1098.04 19 1 0
493.215 -290.097 1295.06 201 202 212
-90.7021 269.665 1167.67 41 26 23
-69.1083 -35.0325 1165.51 114 68 38
-80.1398 323.389 1228.15 206 200 193
-66.7461 -25.1027 1018.55 133 86 63
-25.9489 64.2356 1142.42 255 248 218
-141.858 321.732 1239.27 245 237 226
-22.9908 72.6747 1162.78 130 65 51
-89.1039 307.376 1224.99 216 213 210
-35.6059 28.6818 1090.46 255 228 206
-19.9732 83.9272 1178.21 35 11 10
-138.796 287.319 1157.35 220 226 224
-34.4176 49.9861 1139.96 88 53 42
-28.7796 52.878 1141.26 255 239 203
499.486 -217.728 1245.57 237 233 231
591.585 -94.3711 1400.19 255 243 247
630.562 209.33 1588.5 219 244 255
-181.582 6.89687 996.193 42 22 22
113.856 326.628 1418.17 70 61 51
553.996 -77.1623 1401.46 224 223 227
-35.5925 82.8544 1092.94 114 89 78
-99.951 364.253 1285.94 229 223 221
-153.681 190.782 1098.61 58 65 42
-191.502 -4.11763 1012.15 234 251 240
-50.2908 64.0243 1162.72 250 221 208
-78.121 -91.0324 1076.07 246 239 230
-94.788 267.496 1189.9 127 102 89
-186.59 9.90066 1029.2 128 82 79
-122.03 305.917 1162.45 103 74 55
609.531 -119.602 1332.99 228 208 198
-8.99016 100.89 1222.55 254 250 238
-112.73 288.33 1133.32 115 104 83
-54.391 36.6395 1087.09 250 234 208
451.392 -269.959 1191.61 197 200 196
-74.2136 -21.8933 1148.57 131 109 108
-91.9767 267.152 1221.6 220 193 183
-76.267 -99.2747 1095.11 55 37 28
-95.1855 340.958 1225.69 138 145 139
490.86 -144.806 1265.46 71 60 55
-61.9797 244.676 1172.64 240 253 237
798.258 -109.776 1468.29 219 236 230
-46.3589 50.1899 1089.33 124 81 68
-37.224 95.273 1141.66 245 218 207
-61.9089 282.149 1289.12 233 235 212
553.026 -172.906 1379.08 246 246 237
741.289 210.201 1610.13 105 125 128
-127.325 244.631 1107.82 118 98 99
741.59 155.757 1781.35 188 221 237
-179.489 147.426 1185.1 251 244 226
-97.7852 318.002 1191.23 87 67 60
665.512 -104.288 1468.39 232 209 205
-101.091 318.954 1222.87 148 137 135
52.3414 114.258 1235.56 87 57 36
685.763 154.734 1676.52 17 48 69
-84.2144 300.322 1252.18 212 198 190
-34.4915 38.0408 1159.22 133 91 52
94.2097 315.792 1357.17 84 81 90
676.773 -104.354 1469.11 125 94 85
-65.7779 6.47546 1151.47 127 111 105
-62.4076 31.6934 1185.31 253 199 185
597.473 119.705 1436.68 232 255 255
-135.905 174.952 1030.97 205 193 182
-176.941 92.3431 1110.23 111 72 60
892.184 -109.829 1634.65 187 204 194
577.921 -218.608 1377.59 243 240 238
79.2363 15.5409 1180.61 255 250 237
587.876 -96.78 1336.05 255 244 238
577.769 -96.7623 1335.65 238 219 212
-153.36 138.628 1095.66 242 225 190
629.304 -143.304 1388.57 237 229 225
513.755 -198.8 1232.29 246 241 241
675.203 -336.9 1296.71 211 229 212
808.798 174.334 1936.38 45 84 93
-169.579 86.966 1035.06 82 48 37
496.479 -157.093 1263.95 249 254 251
-158.391 0.110975 1080.8 103 107 92
-87.6098 182.04 1162.84 149 101 91
-130.392 287.839 1159.41 195 189 186
-33.1021 111.935 1196.19 232 201 189
-86.0519 285.954 1224.29 193 172 161
48.7856 -23.0143 1229.24 178 109 84
-119.176 382.442 1222.42 222 214 197
-86.6344 210.346 1115.14 255 249 240
479.941 -338.079 1353.38 222 183 176
-169.659 -9.11254 1016.89 103 76 66
-141.544 278.422 1156.15 243 230 225
799.128 -102.637 1469.81 88 109 97
-22.8536 -72.8301 1003.08 97 56 44
-91.2728 -85.5678 1073.68 238 221 213
-73.5775 -104.685 1095.45 215 187 182
-31.6846 -90.1842 1154.64 70 34 27
48.1126 -12.0063 1152.46 255 240 226
-119.392 278.562 1111.45 221 201 188
508.534 -122.403 1328.16 219 207 199
663.124 -13.276 1407.88 252 251 225
672.351 -217.582 1299.88 223 228 201
-166.845 9.98807 1033.63 86 101 94
701.573 234.497 1698.41 82 109 117
-171.798 9.96569 1032.53 103 112 99
-98.7085 184.181 1132.45 232 194 185
621.91 -228.653 1376.87 237 233 224
-135.606 211.986 1153.51 255 251 244
-22.4369 236.578 1235.35 144 149 130
-171.643 -1.33411 1060.08 254 249 242
-104.641 14.8291 1075.66 255 240 228
-35.6577 115.919 1110.4 113 93 79
-208.229 42.3828 1100.22 247 226 226
-198.796 8.36745 1010.94 202 154 133
-96.1882 202.089 1162.18 255 251 247
-143.853 194.283 1150.38 116 48 42
-10.013 334.02 1244.72 87 70 64
763.472 199.418 1652.23 63 83 92
709.57 140.385 1678.71 187 224 249
-91.7406 193.323 1187.3 118 67 60
532.799 -133.112 1257.66 244 224 210
-184.205 -5.24447 1074.68 132 93 87
-14.3616 55.466 1163.97 170 103 68
796.092 -127.511 1464.52 216 241 228
-79.6153 -106.418 1249.55 245 235 209
-122.104 372.95 1221.14 154 133 115
44.845 128.57 1213.07 250 241 224
-46.2642 113.834 1185.82 240 217 207
-207.053 22.0074 1052.72 253 217 201
-184.916 128.919 1128.48 255 243 226
-98.7616 209.648 1133.48 125 106 108
515.548 -111.055 1271.74 242 234 240
535.216 -193.482 1310.31 235 236 238
-22.4219 252.124 1236.47 225 217 182
570.352 -125.12 1458.17 103 100 99
570.052 -156.558 1326.26 252 207 193
-124.928 227.469 1145.17 222 228 225
-204.502 14.2205 1053.01 178 104 76
-13.5908 250.131 1330.23 251 250 237
-132.736 255.482 1107.14 248 253 255
36.4875 -37.4664 1148.79 255 247 231
65.449 -14.8464 1155.4 253 239 208
-158.634 72.4991 1082.97 105 77 63
77.6427 5.65887 1211.81 255 253 226
-195.532 95.0166 1124.81 236 214 207
-97.6406 184.284 1214.29 199 158 141
540.984 -392.446 1490.84 213 184 164
-120.625 209.894 1181.36 251 234 232
61.1719 -56.9358 1174.21 172 148 126
47.8769 -39.7813 1289.36 149 109 84
667.937 -122.198 1465.91 238 226 218
-143.663 294.232 1259.31 121 108 106
59.2863 6.56674 1316.03 255 229 228
65.1285 -50.902 1205.61 248 229 213
610.732 -238.485 1374.87 243 225 204
-19.338 -94.793 1106.64 59 5 2
-2.78257 -48.6838 1111.64 255 223 202
573.634 -198.307 1427.87 148 131 137
530.124 -202.629 1373.28 204 190 180
-136.883 10.1709 1040.18 249 254 252
-43.0398 193.481 1162.04 152 136 134
57.067 -38.9185 1104.02 250 235 211
-81.859 158.963 1162.59 252 229 220
-215.725 -17.877 1021.71 212 132 114
605.693 -133.444 1534.63 254 250 253
616.837 -170.158 1384.08 245 228 211
-157.508 167.851 1145.31 138 102 69
-154.806 58.5493 1096.37 112 84 80
38.3208 330.388 1315.45 107 88 67
-2.72774 107.728 1168 130 116 96
-123.541 -10.3675 1049.06 255 244 242
-128.947 199.888 1126.26 182 156 153
-125.647 37.788 1119.66 250 215 201
14.7855 326.048 1249.55 49 41 22
-113.723 172.123 1127.24 119 94 74
25.633 -28.8371 1076.66 255 220 220
5.25425 292.647 1189.98 230 240 203
-173.741 138.692 1139.35 143 122 100
403.112 -294.363 1239.1 39 39 46
71.2522 -14.8357 1156.43 251 235 211
568.756 -197.817 1437.46 255 252 249
614.766 -15.9716 1528.76 199 191 174
618.378 82.7135 1536.94 54 48 39
-103.674 236.454 1267.16 254 250 246
-107.613 230.742 1161.35 255 233 223
538.237 -151.48 1255.98 223 213 192
540.25 -366.949 1420.17 92 73 75
-146.835 228.814 1151.84 186 143 144
-11.4525 271.964 1364.95 254 254 229
-145.662 -1.3912 1049.92 126 104 87
591.949 207.472 1518.33 30 50 67
-158.873 176.831 1096.57 101 106 80
-16.4493 137.953 1229.04 162 130 123
-154.325 67.259 1046.55 200 176 166
-161.941 187.775 1198.66 117 55 45
692.778 -114.996 1281.5 115 140 127
-170.185 -7.80245 960.137 245 252 227
593.487 -225.734 1310.15 238 221 204
-93.4116 185.074 1066.38 255 251 245
-48.1188 108.332 1117.22 156 136 120
-118.796 385.557 1282.7 98 81 65
512.383 -2.54451 1834.95 26 16 11
-116.879 243.106 1132.33 255 219 201
24.9554 -46.2007 1116.97 237 198 174
-74.3136 220.811 1192.52 133 113 98
57.7088 74.1451 1184.85 251 246 235
-149.775 436.537 1405 57 50 34
536.74 -225.095 1306.46 216 209 209
-215.323 -26.3757 1005.82 212 181 150
-191.668 58.8408 1037.36 251 239 225
-24.7326 19.6809 1109.79 164 108 74
-40.0427 18.9471 1137.17 255 216 199
-93.4233 225.573 1164.32 150 131 129
-101.379 -15.3864 1046.93 255 244 224
-143.819 -5.28357 1044.93 254 247 229
42.7398 7.28096 1229.43 255 234 233
-207.227 48.1527 1053.76 91 55 42
524.753 -291.768 1184.7 163 161 145
-74.5393 134.578 1025.43 199 171 164
615.116 -364.292 1292.23 76 98 102
508.76 -186.801 1309.06 120 114 105
565.532 -18.4877 1412.12 176 169 146
61.5283 80.663 1236.16 252 220 212
513.556 -92.4087 1274.38 196 195 199
662.382 -180.696 1517.56 143 126 105
-43.3514 363.388 1353.16 119 111 90
795.524 107.56 1750.87 151 162 163
31.9404 -27.9512 1169.96 255 231 230
437.01 -334.361 1416.01 67 67 63
-158.334 -15.8584 1080.3 123 93 81
-146.766 217.253 1151.13 165 169 175
1.95018 137.553 1129.2 255 249 220
32.3158 -7.67878 1124.54 255 249 229
-98.6788 212.943 1206.38 254 248 250
-132.986 195.012 1206.49 145 78 48
545.252 -385.484 1492.31 105 57 46
-177.244 -176.606 1293.81 38 36 30
-2.82013 -73.2704 1110.68 136 50 22
631.742 -171.129 1324.77 185 141 123
-87.6846 -81.6258 988.893 52 33 10
71.3228 -3.42674 1157.14 252 245 223
-31.6424 125.345 1224.73 127 99 90
660.73 -150.277 1389.55 150 125 115
-112.012 -79.6502 1103.04 127 96 83
-124.959 348.116 1218.91 218 207 191
89.3747 80.0538 1165.16 251 230 195
-27.7617 16.0572 1005.9 184 130 101
620.832 -272.648 1196.73 125 119 114
490.905 -142.063 1312.88 182 142 136
28.0125 224.215 1304.67 187 183 186
550.571 -160.768 1255.79 150 138 115
537.428 -120.455 1271.41 208 214 215
80.8861 51.3366 1137.5 253 232 206
-3.86935 312.413 1244.66 199 209 174
691.635 -236.771 1481.48 115 101 87
717.463 -247.688 1526.62 97 82 81
-213.352 -7.82905 1022.55 170 107 93
557.433 -216.264 1373.59 235 241 241
79.6939 90.9668 1409.71 255 238 216
-177.185 192.797 1166.83 165 156 163
8.85231 78.8756 1169.42 105 88 61
-107.005 -74.0755 1001.87 202 181 169
-91.2935 243.355 1270.31 85 46 42
-3.76286 122.349 1018.29 195 160 131
606.414 -34.3993 1347.03 171 172 167
-92.5629 48.5443 1202.19 173 129 111
565.233 -85.8339 1463.18 118 109 107
701.489 -300.112 1369.75 154 156 152
13.6743 138.232 1181.4 237 219 189
641.223 -223.782 1378.05 178 169 169
36.2326 253.362 1373.97 240 239 237
535.407 118.097 1503.41 41 52 55
511.274 -81.6063 1330.65 118 106 103
667.406 -352.173 1294.22 132 137 121
64.4308 28.6688 1234.64 178 132 97
-123.014 229.03 1105.5 181 180 167
-113.775 360.404 1209.62 92 74 61
-118.334 285.426 1275.51 197 121 103
770.378 -305.181 1441.78 197 203 189
640.203 -178.964 1386.31 247 203 179
718.245 -23.6927 1539.1 177 167 133
739.668 -297.493 1405.39 72 72 65
-49.7881 179.881 1225.04 182 170 167
80.3669 235.791 1223.5 158 105 74
-142.814 24.2964 1085.08 253 227 199
-103.277 26.2278 1258.94 247 223 213
999.507 133.644 2165.98 177 188 189
-62.8458 28.8908 1056 199 175 150
-57.1307 181.339 1214.77 200 182 181
-115.086 276.69 1250.75 254 189 168
417.691 -168.596 1094.5 91 65 60
-327.806 -88.3892 1282.01 53 34 31
-0.293489 77.9399 1099.59 221 210 189
-207.354 82.1193 1175.67 226 228 229
-177.309 78.1788 992.264 251 254 255
-163.756 120.371 1114.68 181 144 115
672.185 85.5185 1489.46 164 185 188
