434.52 -169.623 1515.05 207 206 203
-20.2157 376.867 1138.6 255 247 230
307.363 166.508 1830.65 44 42 35
456.481 -109.084 1530.81 255 247 236
-25.8591 359.36 1136.63 219 224 227
370.082 182.647 1748.38 242 239 225
-72.2879 68.4617 1064.47 243 204 184
-23.004 63.3997 1162.56 57 52 40
18.1075 403.419 1255.86 193 185 182
16.686 379.336 1146.19 255 252 250
-9.84585 388.15 1168.21 78 58 43
-72.2656 57.9188 1063.83 252 224 195
-72.2767 63.1903 1064.15 114 31 10
30.841 461.423 1261.75 38 39 40
-8.83393 440.654 1143.64 250 246 239
-98.9668 495.346 1362.34 218 217 207
17.2697 351.773 1196.59 84 64 61
7.12569 344.047 1076.14 169 165 162
40.6954 -10.4519 1247.15 90 60 41
-22.2248 77.0442 1074.98 88 74 71
32.2049 -10.1255 1202.13 229 205 184
66.0566 -2.74094 1179.78 174 108 100
66.8385 126.292 1245.19 152 107 84
81.3765 3.31592 1236.19 173 48 18
22.9885 374.049 1225.85 234 223 213
82.4722 186.521 1198.54 120 116 99
60.9431 111.672 1188.68 237 217 195
-39.2697 84.1018 1047.71 133 134 122
516.868 34.5254 1707.21 243 236 240
67.7823 203.207 1218.32 75 47 40
-57.5055 76.5763 1105.04 205 210 210
498.059 100.424 1648.38 212 203 179
-56.5875 71.2986 1067.84 250 252 241
-54.0746 188.575 1075.23 92 80 73
-45.446 275.955 1128.24 96 80 78
-1125.22 -3.63241 1491.89 207 216 209
433.181 268.537 1774.38 41 64 63
-6.59001 290.648 1188.04 141 132 126
493.037 -81.358 1620.53 254 253 252
-65.5229 505.211 1371.55 182 180 168
43.0002 341.779 1257.23 248 252 237
-28.7208 345.084 1113.33 210 187 180
-112.199 487.193 1358.36 164 166 154
-9.3569 360.441 1118.39 255 251 228
-30.1513 208.275 1081.17 247 228 191
120.233 406.609 1266 90 92 86
77.888 -5.67283 1181.57 151 55 16
-3.59314 483.989 1255.55 200 201 198
70.362 133.408 1161.6 109 77 68
61.3095 168.06 1193.19 152 116 106
25.2324 -12.0989 1093.91 28 0 0
-62.4829 119.807 1089.27 235 192 174
421.783 12.2721 1405.13 209 189 185
548.115 293.418 1891.61 97 118 130
46.1331 123.247 1186.83 248 233 217
90.9758 408.286 1271.02 75 65 51
406.43 -57.0991 1362.62 136 125 117
473.412 -95.8801 1530.52 255 251 247
-18.2733 379.476 1190.64 126 119 114
424.849 -82.5281 1459.77 99 73 59
-61.8535 84.4428 1067.58 241 209 196
472.186 -81.1925 1617.98 207 197 196
-6.62448 269.806 1186.73 161 112 104
58.3896 179.894 1193.53 248 241 231
19.8051 348.935 1153.33 196 170 158
-64.4069 86.1008 1025.12 176 67 39
19.2063 253.463 1140.18 100 61 56
-140.591 -42.0373 1241.18 33 21 11
52.2031 144.068 1189.62 255 238 224
-70.1744 173.937 1116.96 56 35 30
73.2917 151.292 1248.63 253 233 204
41.1727 338.135 1200.65 215 218 186
85.759 192.055 1283.89 229 225 222
424.15 -241.974 1774.67 237 205 189
473.518 181.817 1577.66 56 46 29
-53.9773 87.2285 1069.35 138 108 89
11.1301 279.598 1191.03 127 120 116
347.239 -242.552 1733.98 193 192 183
42.7773 52.601 1180.41 203 155 141
10.9956 253.328 1109.02 255 251 244
421.176 -14.1883 1471.25 220 201 192
-155.358 43.3495 1089.39 163 135 114
341.083 -166.92 1508.56 60 61 58
629.407 -132.997 1719.75 242 253 230
590.515 26.24 1851.01 96 79 76
430.047 -30.0161 1543.7 246 193 171
388.913 31.4419 1405.8 202 199 198
-0.490846 266.494 1090.05 255 251 249
523.211 24.3863 1609.02 252 223 209
587.276 -142.546 1609.9 253 253 232
-57.4732 68.0546 1002.35 70 59 50
-61.9018 77.8731 986.121 231 143 121
5.17796 4.46312 1145.31 255 253 228
-78.9614 504.032 1368.08 214 211 203
368.162 -189.167 1586.76 81 78 82
626.465 -170.396 1712.15 249 252 237
-9.01298 303.397 1137.3 255 244 243
-22.8511 278.167 1172.57 130 86 75
44.7883 115.495 1212.57 221 189 178
406.909 31.4713 1407.72 172 163 164
513.545 -83.3109 1751.23 109 98 101
449.848 -99.4512 1390.92 244 228 205
667.746 -279.769 1880.76 37 49 48
547.983 -27.6412 1633.87 141 128 116
48.4427 -14.2578 1324.93 255 250 230
-25.913 271.284 1132.08 244 236 222
11.455 414.563 1198.66 158 159 156
449.738 -30.0675 1545.57 249 222 206
-42.2175 65.8055 970.642 192 165 160
63.4212 194.554 1220.53 248 235 223
-28.7653 152.807 1124.34 152 107 106
22.9494 259.22 1192.13 193 154 147
497.976 195.671 1660.75 123 116 107
-14.5134 431.617 1142.12 103 92 65
510.993 -23.5685 1632.12 255 245 235
-25.8678 345.109 1135.94 161 145 142
-60.7594 234.321 1031.54 228 207 197
486.491 -11.0311 1552.49 246 236 241
586.57 -150.319 1608.08 154 155 137
39.7944 46.7664 1179.36 180 134 117
-26.1343 256.227 1080.77 104 66 46
70.0613 138.77 1246.91 249 236 215
541.297 -7.45498 1637.87 243 211 203
-42.8696 173.971 1144.43 170 113 96
482.424 246.303 1683.76 83 112 125
-16.653 69.1329 1096.14 255 255 242
76.9632 220.25 1255.14 147 133 118
610.386 -28.5052 1842.36 204 185 179
80.8743 -51.2027 1265.6 81 56 36
522.27 374.365 1899.17 99 137 140
2.20211 258.296 1187.84 118 96 84
18.0733 317.25 1216.92 137 101 106
-73.2307 176.292 1089.37 192 169 149
448.471 -39.3458 1535.5 129 103 86
-41.8523 73.6941 1046.78 249 245 243
-0.306253 118.046 1150.47 249 210 187
-42.6517 225.344 1125.95 245 252 232
-35.4927 178.456 1078.45 242 224 189
-88.9856 499.711 1365.21 103 96 87
16.7515 408.082 1147.47 139 116 100
429.917 -83.6447 1447.19 254 249 250
54.0803 -25.9502 1175.59 144 122 99
-23.0875 302.634 1134.36 146 138 139
4.56679 32.0552 1171.41 230 157 134
-159.35 230.037 1230.81 72 25 18
32.0332 298.567 1196.46 131 108 101
-52.1969 164.381 1048.28 182 133 123
-10.8581 448.191 1193.56 89 74 60
113.852 -52.3505 1213.98 255 248 233
66.1379 137.423 1276.63 212 188 163
460.729 18.5762 1480.63 255 250 248
30.3562 318.999 1253.08 226 181 170
441.99 221.877 1544.66 117 146 150
498.146 341.575 1778.58 146 181 199
-14.4188 258.003 1153.81 251 209 186
549.636 29.8751 1685.86 191 167 154
525.242 352.83 1802.09 115 135 145
547.56 -11.9237 1722.99 234 224 228
480.439 -1.33342 1631.4 82 76 73
513.325 -47.5739 1627.05 249 227 202
-25.9388 228.864 1129.65 237 209 194
102.978 49.8722 1121.91 255 247 232
-32.8975 252.192 1121.82 251 243 216
-41.9687 224.056 1200.29 196 179 151
-57.1554 165.979 1092.3 234 233 229
458.799 319.116 1787.62 93 120 110
-76.7622 169.462 1047.33 202 172 160
-3.83915 50.0125 1122.16 227 146 134
128.689 81.2064 1310.86 255 237 208
-181.298 67.6826 1132.68 78 30 16
22.8061 323.875 1378.2 173 162 154
-9.00495 309.099 1137.6 169 127 119
-62.0545 258.219 1123.7 148 129 126
-48.0682 41.4194 1112.78 254 212 199
121.694 218.828 1292.38 252 244 227
22.9624 266.494 1074.12 196 175 175
121.164 196.396 1261.44 145 128 117
526.869 8.5155 1608.1 219 204 192
47.0058 571.168 1270.14 110 141 129
-35.8088 298.409 1155.75 157 164 165
156.832 180.365 1326.23 255 247 222
-23.0679 140.349 1146.98 171 136 118
552.629 -71.602 1624.34 253 252 230
34.6536 257.343 1277.1 169 118 110
-56.4577 188.347 1120.8 163 149 137
-72.4322 139.945 1068.68 218 188 174
128.868 94.2628 1312.3 255 249 233
568.039 74.0759 1745.24 255 255 232
511.36 -230.406 1586.22 201 214 215
478.725 -58.4275 1594.62 244 235 225
-65.8706 148.738 1156.37 217 212 212
101.504 595.28 1380.24 139 169 150
503.044 89.0161 1496.39 232 226 199
404.981 -273.174 1871.67 120 125 124
60.998 553.056 1247.12 72 97 85
614.399 26.2789 1853.79 242 230 217
-106.082 96.9835 1059.01 133 107 101
508.254 -329.968 2303.5 199 196 193
-18.2909 361.535 1189.68 175 160 155
632.612 -116.867 1700.53 247 247 239
-46.3784 112.029 1092.22 87 88 78
11.177 297.527 1192.15 172 174 168
-10.9012 426.778 1191.4 253 254 247
3.4023 36.7453 1182.27 181 131 111
-98.3573 102.33 1061 108 71 63
44.8403 9.9696 1291.36 210 154 138
-123.844 54.8275 1052.68 144 119 105
137.493 102.928 1383.44 255 244 234
489.092 -197.849 1515.51 153 153 148
12.6253 93.5698 1082.61 232 217 203
404.978 -55.0087 1497.19 145 119 114
391.914 -205.007 1587.5 198 159 146
25.5009 107.099 1154.96 211 165 150
76.1634 592.998 1340.45 205 250 234
103.931 59.2361 1142.05 244 179 153
-1.00773 69.516 1124.12 255 241 245
464.568 18.7593 1632.3 57 27 23
599.956 -109.921 1627.25 254 255 233
-78.4957 127.557 1086.26 100 54 34
420.427 -60.1915 1537.01 176 155 148
577.5 -32.2237 1941.33 109 85 77
620.17 352.915 1910.53 186 193 192
501.639 282.246 1562.51 160 171 165
618.078 -107.686 1723.56 251 252 228
600.334 99.4002 1665.06 253 254 230
-27.2559 -9.94656 1190.2 102 64 46
424.527 -53.5016 1564.5 53 19 11
-18.4354 395.889 1048.05 161 148 123
-36.7192 244.828 1066.04 227 219 215
-75.4172 34.4081 962.431 155 127 99
-75.1696 34.9804 1010.85 216 192 169
89.4574 283.977 1179.45 153 138 142
602.509 -78.096 1727.61 254 255 234
397.63 -204.728 1616.72 156 155 145
48.3769 260.924 1220.72 200 199 199
603.351 336.584 1847.59 180 183 184
502.916 440.836 2031.16 114 130 123
-3.39517 437.532 1196.67 99 71 56
451.269 228.72 1676.92 115 142 143
-10.6488 383.328 1049.14 77 52 48
117.959 103.611 1198.13 255 248 230
109.912 172.621 1316.87 198 182 168
128.03 391.645 1304.4 255 252 231
104.069 311.174 1291.49 169 169 167
-11.7318 106.43 1147.6 255 226 214
