455.298 -214.401 1303.98 205 204 196
530.652 -62.5486 1471.8 72 64 68
502.462 -164.618 1371.23 255 248 244
572.918 266.816 1602.97 223 254 255
123.25 171.874 1319.45 75 62 46
519.19 -66.1318 1470.39 231 222 221
464.185 110.192 1630.7 201 201 194
-6.41763 -43.98 1069.94 255 236 229
-4.76021 347.93 1137.64 216 208 204
7.24524 15.0001 1121.81 45 3 8
1.5585 -44.0189 1071.36 255 236 222
-85.2032 37.3206 1060.05 44 46 41
-12.3124 -42.9793 1113.73 84 69 59
92.8221 100.725 1143.53 103 71 46
-516.673 -83.99 933.728 235 235 230
28.3351 112.685 1182.73 255 241 222
47.1203 116.776 1136.68 130 83 68
-737.02 -102.185 1281.35 228 244 237
38.4304 82.6426 1132.61 121 75 51
-4.14211 328.921 1165.06 239 224 216
530.725 -58.9418 1310.15 253 231 222
51.9115 -32.1571 1126.05 128 76 65
20.2279 81.697 1101.97 247 226 213
-59.401 25.1947 984.008 75 46 59
47.0747 108.245 1136.06 251 226 206
-12.7819 346.072 1164.59 220 217 215
612.517 44.2731 1654.06 234 233 215
-356.396 -46.9586 589.924 251 255 250
-12.8285 316.627 1162.26 95 86 84
36.3825 -38.8038 1077.73 150 105 94
-68.3093 183.054 1065.09 249 226 189
-98.8771 37.2784 958.191 86 52 40
12.7061 279.442 1117.17 238 239 223
-103.293 42.3279 1056.56 247 254 248
44.173 96.9393 1134.7 253 238 216
-24.9401 -36.0193 1067.13 178 155 141
-56.3009 346.424 1180.73 215 199 192
40.2886 136.701 1186.9 88 69 60
-52.3581 344.682 1127.16 217 188 173
629.55 -88.3586 1545.46 255 242 237
64.2052 149.166 1192.4 251 250 247
-70.2817 245.579 1121.35 133 129 126
-20.4377 331.147 1114.2 203 201 197
569.982 -37.2767 1478.85 240 233 226
-42.421 340.929 1110.25 112 79 67
39.9207 94.5333 1157.15 122 97 76
581.739 275.116 1605.27 48 68 71
520.052 -158.079 1372.74 223 214 209
409.418 85.1371 1733.11 67 61 56
-6.50571 328.715 1190.48 251 246 239
526.976 -112.563 1462.23 255 246 245
-59.2776 263.127 1124.71 127 99 105
122.759 -1.38985 1189.58 255 255 228
-40.2391 360.257 1178.21 80 45 32
67.2404 155.259 1193.43 140 128 116
511.932 -124.207 1391.2 154 142 145
-106.897 83.804 1034.89 255 244 237
511.205 -19.8813 1402.46 216 210 209
-38.814 428.298 1188.81 205 194 185
-80.0551 53.1809 1062.09 123 107 107
-17.6672 339.745 1115.37 132 122 116
-81.7484 131.327 1043.68 128 93 88
41.2399 -30.2339 1014.34 224 162 151
-20.0132 383.866 1156.86 246 233 226
38.3883 74.2038 1131.98 251 210 191
528.974 -109.402 1443.92 249 247 246
-4.98709 192.288 1071.16 197 174 186
-58.6879 267.287 1101.55 158 141 142
-20.5503 221.829 1106.07 215 184 177
16.0915 303.507 1167.17 228 223 200
52.7193 99.9055 1136.47 125 72 45
64.1653 143.19 1191.93 255 243 237
131.062 357.174 1264.98 75 78 75
541.877 -100.7 1396.98 225 206 195
-42.4309 371.911 1112.28 188 176 159
38.7659 153.569 1137.71 255 245 247
-5.03577 396.235 1189.67 64 39 25
521.197 -144.869 1375.58 250 249 246
548.774 -69.7649 1471.55 245 230 226
110.999 19.1875 1189.59 255 218 213
-13.9076 383.364 1186.42 140 130 126
-62.6729 344.92 1200.99 223 215 211
-3.41941 257.383 1136.02 113 78 75
529.601 -76.8974 1469.06 74 55 43
572.808 141.15 1571.78 75 74 63
412.42 -237.116 1431.52 35 36 30
57.4593 -45.9501 1125.84 147 66 39
602.077 197.489 1586.54 124 145 152
581.095 185.292 1583.1 188 228 239
463.843 -288.264 1496.03 180 148 144
46.3918 166.602 1190.36 101 78 63
61.136 137.179 1190.89 181 143 124
631.394 -272.228 1403.45 223 247 222
508.529 -77.9973 1331.6 238 219 199
-0.709115 200.629 1133.16 240 232 222
-47.8559 292.964 1105.75 151 120 121
45.0371 279.813 1146.76 251 250 231
414.081 -298.12 1490.63 191 190 177
-113.616 55.2675 1055.12 241 168 148
-16.8719 367.968 1184.14 128 107 99
622.929 216.856 1691.41 131 151 160
44.4672 350.225 1058.11 58 66 72
714.92 -258.529 1584.7 37 38 35
144.263 389.728 1368.33 51 53 51
508.474 -156.262 1288.12 219 193 174
-82.987 189.083 1069.31 245 233 208
-7.2397 228.932 1156.07 133 79 72
-37.0699 269.928 1129.8 254 246 232
527.673 -95.6739 1538.96 201 160 145
47.9845 -42.3698 1037.45 66 5 3
85.8494 507.373 1249.11 52 74 62
35.8716 142.102 1136.38 220 194 169
573.791 -157.218 1257.9 249 253 238
-38.1187 19.4836 1068.33 255 234 229
454.208 -259.565 1364.69 82 67 65
630.136 199.772 1688.43 220 246 249
-98.1982 58.1779 1058.59 151 157 137
596.195 -37.2382 1480.21 230 214 189
-37.0722 84.1229 1118.17 254 207 175
520.897 193.715 1655.4 23 42 43
95.2345 11.3373 1152.83 255 241 223
22.7636 140.991 1044.64 115 91 82
-69.6578 241.465 1031.91 47 45 47
-13.0045 406.803 1249.54 146 130 127
-95.599 52.9491 1058.83 127 140 129
461.796 -114.834 1380.9 159 144 142
395.248 -235.964 1354.28 100 96 98
53.2486 175.764 1162.86 150 137 127
518.506 -130.993 1390.41 206 196 200
-56.6989 187.403 1074.73 248 213 181
614.177 238.226 1597.01 119 141 145
-35.8803 422.53 1189.17 237 226 203
-116.465 35.4683 1011.89 194 131 101
81.6178 367.709 1237.21 119 105 90
-108.802 137.391 1060.9 49 34 27
-31.4737 304.365 1132.82 240 197 190
126.576 -11.9283 1219.35 251 237 215
134.725 262.941 1269.42 229 221 198
-95.399 128.966 1015.21 253 253 250
-67.1326 114.608 1068.44 109 85 49
734.528 -224.448 1592.78 245 249 223
547.532 -257.125 1369.63 166 155 144
46.8423 65.9408 1132.88 172 119 86
565.27 185.233 1582.72 97 134 146
-20.2975 256.583 1132.54 138 122 124
-88.0786 138.051 1065.4 154 123 106
555.506 177.775 1678.31 68 97 101
632.158 358.052 1813.98 102 115 112
103.713 -94.3176 1177.61 234 225 205
50.7297 287.042 1188.53 151 146 130
-50.0577 340.649 1156.11 184 169 162
28.8225 148.348 1109.49 199 180 173
696.005 44.4008 1657.58 238 237 208
111.202 36.9763 1191.24 255 252 225
-88.1624 170.08 1067.18 255 248 226
488.059 -131.544 1378.02 137 115 108
-108.485 55.3125 1056.23 254 198 186
-114.388 24.5124 973.27 231 136 118
626.528 7.02054 1565.5 255 254 235
634.523 -303.607 1428.99 163 192 206
-84.9537 245.131 1138.55 116 110 112
-31.4371 395.702 1137.21 114 82 56
5.55369 96.6554 1202.54 249 227 194
-95.936 159.107 1064.9 96 75 67
-22.2234 59.5596 1073.98 254 206 193
-31.483 221.338 1103.8 240 189 191
72.1611 351.475 1233.93 243 250 216
109.121 22.0858 1186.35 197 126 102
88.0307 125.842 1194.89 195 158 132
681.648 -181.599 1482.59 187 192 173
36.9661 65.6381 1180.58 255 237 206
746.255 -245.194 1613.15 222 236 220
554.99 -37.2487 1478 243 240 239
-38.1347 234.162 1081.02 159 146 149
-51.1413 281.113 999.604 183 175 174
678.421 -45.0541 1636.07 243 218 204
-28.7567 215.847 1103.94 169 110 105
-82.8217 232.732 1093.72 205 203 200
529.075 -84.058 1467.69 84 69 48
532.825 -28.6361 1408.85 108 107 106
131.025 63.9012 1164.07 249 243 220
-12.8952 275.457 1158.9 143 136 129
537.272 -66.5471 1402.65 215 206 213
136.919 282.694 1239.1 161 96 67
27.7098 235.928 1140.9 170 165 164
-188.807 3.24429 1079.05 145 122 105
-34.284 250.195 1129.28 244 223 216
51.1106 358.155 1151.95 130 122 103
631.707 273.021 1703.16 102 137 145
612.16 -31.3999 1462.21 161 146 144
-14.2306 65.0141 1075.85 245 189 184
521.779 233.64 1592.9 59 89 94
-51.4069 184.921 1075.68 176 142 135
513.872 -100.245 1300.95 225 207 183
640.123 -161.03 1429.32 250 248 226
733.221 -284.421 1598.56 148 168 150
35.9714 164.889 1137.95 169 154 136
-19.5971 24.8279 1072.22 255 204 188
-61.8662 101.365 1068.74 134 98 93
546.004 -153.067 1507.46 242 235 233
50.9623 266.842 1170.88 253 253 245
620.487 -286.85 1366.13 184 194 181
-51.8617 374.487 1177.12 249 251 248
-47.6879 107.691 1091.22 146 103 80
-91.727 78.9426 1037.75 186 178 192
497.548 -288.021 1586.2 163 144 132
-48.7895 247.212 1079.5 232 215 217
532.535 -31.4291 1552.27 155 135 124
610.79 -80.8211 1546.37 219 212 213
568.367 177.919 1679.41 66 97 96
520.599 -98.3038 1464.51 119 82 67
497.017 -28.6296 1406.4 150 133 126
-51.7493 51.5856 1025.78 255 253 254
703.517 -325.582 1568.81 87 88 86
-58.2465 459.418 1271.39 141 127 116
510.982 -22.7077 1477.74 145 138 132
545.761 26.4248 1381.07 177 174 153
737.712 -155.716 1723.82 253 255 234
66.1483 376.234 1234.93 94 75 58
105.131 30.9854 1189.69 255 222 179
95.8433 1.38338 1185.45 255 225 217
579.03 246.305 1598.19 113 143 142
-31.5797 -62.0111 1108.64 136 141 150
111.401 55.0103 1192.86 255 242 227
111.335 48.9156 1192.32 254 243 215
173.117 150.575 1392.84 255 246 222
489.464 -278.899 1429.06 167 150 152
672.007 -239.443 1513.42 180 179 178
520.603 7.8661 1408.69 154 146 127
65.3567 -93.9267 1171.45 100 79 53
76.4846 188.566 1197.66 178 163 142
615.822 161.258 1769.48 172 191 188
-56.5349 37.7026 1065.9 255 247 245
-14.7003 242.601 1132.88 250 251 250
-36.9385 287.968 1107.71 253 220 201
831.01 318.435 2016.5 168 176 180
-64.4297 64.1281 1065.95 219 218 219
-35.4819 27.4082 1069.36 255 216 205
117.453 234.892 1147.63 172 157 138
-72.5567 219.03 1073.12 152 144 126
-50.0442 326.015 1154.99 180 177 179
-67.5015 226.016 1120.83 156 122 108
692.132 269.36 1706.37 185 195 201
393.908 -243.664 1428.86 83 82 76
-48.8142 414.864 1269.66 250 250 242
-96.878 81.2264 1018.4 210 169 172
174.824 231.709 1294.56 236 223 201
527.783 -151.374 1454.96 181 169 166
-28.6788 301.28 1137.24 254 194 165
-121.472 94.6904 1055.69 90 40 34
23.114 334.681 1076.38 180 183 155
-51.0258 371.423 1132 51 35 24
-38.2762 105.345 1093.65 156 89 78
629.421 -40.7879 1356.18 214 217 215
636.222 16.3401 1538.56 159 162 153
-31.4251 371.344 1090.12 136 117 115
134.005 175.334 1206.83 203 167 146
0.454732 402.491 1295.38 64 56 54
-70.7673 207.133 1027.21 200 182 160
-49.2593 102.816 1029.11 210 157 135
-3.53295 70.5495 1078.22 203 143 119
491.28 -36.6196 1317.05 138 129 127
-72.4546 159.971 1069.94 209 183 152
646.417 242.392 1598.4 162 177 181
574.863 -69.8076 1472.95 229 215 220
76.9069 521.076 1271.25 119 141 129
