126.763 -49.0044 1295.78 234 222 205
41.4831 416.131 1203.85 255 250 217
33.9054 379.917 1148.69 222 220 218
60.6377 395.407 1182.06 244 238 229
71.2875 -8.81568 1156.79 28 0 0
295.368 267.512 1653.89 43 65 75
71.4981 -2.9613 1210.07 253 246 222
39.9151 393.988 1177.89 82 71 61
376.255 -99.8613 1795.86 230 214 197
-3.33364 181.034 1084.51 19 15 8
-0.353613 45.4491 1098.06 97 63 44
116.975 449.45 1277.04 33 34 33
47.7544 483.365 1207.98 243 238 229
45.4426 386.457 1151.19 254 232 224
15.8648 280.205 1093.21 39 24 16
6.41979 96.177 1057.93 108 18 4
63.4485 365.882 1162.8 248 237 226
431.172 -234.914 1884.51 207 222 220
5.00031 66.996 1055.2 106 31 10
15.2979 86.438 1082.48 66 54 38
358.339 220.87 1753.53 61 58 45
98.6734 172.729 1254.79 131 95 79
71.5741 -15.3087 1266.75 229 210 195
-46.0813 106.848 1071.94 164 143 131
29.8174 365.285 1125.66 205 188 180
71.8023 403.222 1265.94 213 211 208
82.7322 4.49741 1062.76 176 104 85
33.1017 -35.8983 1280.31 160 182 176
2.31991 58.9413 1012.92 225 152 124
334.821 8.18819 1705.57 208 191 186
322.817 281.299 1738.53 68 91 102
358.136 37.8974 1715.2 247 238 234
343.081 -60.9286 1695.59 184 171 168
316.644 56.7788 1709.41 164 163 156
297.582 -10.2134 1586.76 226 178 144
31.0314 266.174 1074.94 102 107 91
5.0106 72.2664 1055.42 196 122 113
7.32001 167.277 1011.06 163 163 167
-59.0906 97.4068 1114.2 142 123 118
12.3693 186.616 1109.13 83 49 36
39.4335 316.805 1146.83 151 142 141
94.2617 -42.4838 1290.94 67 45 33
94.4683 176.871 1199.51 126 105 92
97.3815 209.956 1227.24 129 99 82
12.8787 180.196 1087.49 254 253 252
23.963 6.41747 1124.1 241 217 196
350.907 67.785 1720.74 28 19 10
132.094 -32.3492 1339.63 234 217 204
26.7374 69.4796 1071.22 255 251 241
208.208 -144.336 1495.09 68 71 71
10.4111 277.189 1092.03 134 102 96
88.1743 474.816 1272.97 107 113 113
17.7145 200.586 1046.37 244 231 204
63.8744 437.702 1185.61 91 57 30
110.187 9.84523 1275.9 179 84 51
50.7316 272.359 1037.81 98 82 86
15.6552 203.532 1089.35 110 76 65
339.86 45.5615 1616.95 238 231 230
-13.7748 178.947 1020.2 199 173 155
5.54908 101.441 1070.92 184 130 99
78.5724 477.292 1271.19 121 128 127
41.514 314.581 1180.86 144 93 102
-158.706 -22.851 1238.56 38 42 34
32.8591 419.732 1129.62 37 18 2
366.691 271.742 1863.77 122 147 147
33.6666 307.857 1145.27 250 254 253
52.1339 9.32273 1129.31 226 202 180
333.404 376.503 1846.4 110 125 138
74.1111 324.472 1153.74 236 212 191
56.4759 268.675 1147.54 247 213 199
26.7575 305.434 1120.99 111 110 112
348.521 20.8842 1710.19 87 82 80
-103.25 54.8895 1074.95 178 153 134
380.872 2.14839 1815.74 143 121 114
-13.5193 131.643 1037.16 107 60 51
28.2524 411.277 1148.89 127 115 103
69.6336 429.83 1238.87 214 205 199
297.689 -138.379 1489.92 153 150 147
110.139 194.738 1318.49 137 114 94
37.1425 451.75 1261.49 159 148 131
98.5202 206.292 1223.64 135 112 101
45.1812 317.119 1147.95 243 221 210
348.1 394.854 1996.26 167 184 213
-154.035 60.1131 1165.74 186 128 120
156.868 293.979 1302.49 63 61 54
-103.942 74.6915 1126.33 152 121 100
71.9614 329.502 1230.84 112 79 63
313.47 -0.500388 1535.09 96 77 63
281.208 327.072 1665.43 61 95 115
101.715 160.212 1254.29 241 218 193
278.953 -14.7446 1420.23 90 62 44
-115.769 57.6636 1099.38 193 166 157
355.489 338.402 1983.72 127 152 141
44.1041 316.508 1199.17 221 209 205
306.661 -37.8215 1691.56 150 123 117
101.652 153.922 1253.74 181 135 107
43.0197 7.95282 1040.01 169 149 126
38.7304 150.48 1137.03 190 146 129
33.0961 219.498 1088 243 222 192
60.3303 273.097 1124.93 167 159 145
229.463 -16.0829 1199.92 160 126 118
-38.1443 109.706 1073.69 117 107 102
391.407 -31.1286 1793.75 252 241 219
349.866 39.5865 1786.07 43 21 14
452.541 354.55 2292.99 146 173 174
30.5582 238.808 1140.93 149 134 113
41.1142 59.7217 1131.16 254 248 242
75.8647 110.539 1191.04 255 252 241
387.177 126.732 1832.88 188 182 155
49.4791 346.564 1128.2 232 214 208
283.603 303.163 1584.05 95 122 129
211.879 -182.94 1645.54 182 155 147
24.1688 216.092 1045.95 239 223 203
30.1741 534.807 1104.51 87 119 104
322.697 -67.6346 1603.09 52 41 39
50.0901 310.792 1200.02 172 151 156
69.8814 110.424 1189.95 255 246 244
37.3103 502.711 1263.99 178 158 138
163.808 -209.158 1803.51 173 183 168
40.6675 70.1601 1061.81 254 253 251
22.9945 219.177 1048.2 227 218 206
35.8402 129.106 1047.13 177 149 148
1.1752 -37.2411 1334.98 116 140 147
