61.2824 -75.2988 1606.94 5 7 4
-5.36981 376.718 1109.56 226 212 191
83.4418 -52.6527 1242.37 204 196 185
5.84578 500.581 1258.41 228 229 217
301.117 -93.0965 1566.59 255 243 230
308.55 358.935 1873.86 219 247 255
-40.7798 63.2796 1070.6 123 36 7
-105.9 62.3563 1075.12 196 182 172
-40.7809 68.5656 1070.93 248 196 175
65.5451 0.669863 1290.57 109 13 3
-9.90394 401.432 1249.7 253 252 250
51.1325 451.139 1237.91 160 165 168
359.557 221.916 1852.32 108 105 91
58.5998 -2.46377 1197.08 105 24 4
-45.7822 170.544 1053.85 58 49 46
31.2814 438.799 1180.29 147 145 142
252.855 -61.8587 1378.67 73 46 42
-90.3295 105.677 1081.99 179 166 153
-132.244 459.837 1217.19 205 198 186
2.68729 485.746 1318.96 191 185 165
-30.098 212.608 1178.01 114 96 87
27.7758 -5.39716 1172.75 255 249 233
778.633 -366.771 1729.92 67 66 63
-5.033 -43.3029 1271.95 172 178 183
341.34 51.52 1808.91 143 135 136
20.8862 283.997 1248.65 255 242 227
329.454 287.649 1862.33 47 73 81
306.638 -68.9879 1640.47 232 208 205
208.246 -168.866 1648.19 83 87 82
-47.7634 183.047 1097.28 213 186 177
55.5817 202.966 1216.01 130 118 105
-18.7595 180.353 1149.21 114 91 78
21.8885 435.489 1199.25 135 111 97
85.9359 453.627 1320.18 48 50 48
-9.10773 223.894 1132.8 255 250 212
-31.5413 124.681 1121.98 251 187 193
316.069 -23.0516 1696.49 237 216 197
-5.33584 284.973 1177.1 110 86 71
29.1767 380.702 1227.7 247 239 230
-10.9619 378.008 1186.35 249 243 240
24.0196 -18.4836 1185.53 198 171 161
-3.32343 309.37 1138.77 154 150 146
46.3794 132.884 1167.99 183 152 122
-40.9794 52.4192 1090.63 221 155 129
-26.092 272.515 1082.4 106 102 92
238.911 -0.704919 1326.7 244 223 213
284.809 -47.9428 1686.54 183 156 147
322.041 349.321 1859.5 192 218 233
-39.8426 102.241 1118.77 169 109 90
-47.1736 294.578 1261.11 254 243 238
38.0949 330.114 1198.3 254 255 237
-10.3257 430.714 1223.36 170 166 146
20.746 338.344 1141.76 225 204 184
24.2051 313.583 1186.42 148 124 120
-10.0014 262.411 1084.68 123 118 102
-28.756 86.1452 1143.16 125 85 84
293.08 44.2365 1707.83 171 156 147
208.128 258.962 1718.69 145 164 179
-32.8435 74.0387 1072.82 98 70 56
-151.208 53.5713 1139.24 167 142 127
-155.084 232.972 1136.67 56 18 12
319.988 -31.4316 1695.18 130 84 76
317.453 6.26862 1703.16 199 191 185
50.97 126.363 1214.91 126 90 69
175.761 -143.257 1734.7 14 14 1
245.618 309.333 1558.1 73 95 102
236.275 281.579 1808.48 45 74 71
33.6027 -11.0294 1173.32 151 126 102
-16.2021 1.53207 1132.56 222 202 182
57.814 176 1247.76 163 152 139
11.534 244.26 1087.09 163 128 113
-47.8206 254.604 1102.86 183 158 155
60.8594 163.633 1247.31 164 115 91
283.349 243.002 1655.58 116 147 165
-33.9452 111.014 1012.18 252 243 235
-6.42323 153.391 1128.92 190 149 126
335.868 27.4078 1710.37 247 231 214
13.2211 6.0575 1171 255 249 228
-189.539 82.1772 1183.75 106 47 23
-14.9043 91.5882 1123.06 158 146 149
-24.0675 308.86 1207.82 85 63 63
228.611 212.021 1786.79 28 29 26
-27.2602 -15.955 1189.92 198 176 170
264.973 23.3343 1482.05 145 123 116
-4.56303 418.239 1144.27 78 56 45
319.561 -22.0382 1800.87 230 186 166
-10.5854 1.55078 1133.62 108 73 58
70.5872 199.994 1272.42 179 178 176
-36.7539 131.587 1066.38 146 57 41
87.8513 -37.1581 1290.44 250 241 225
167.904 25.8219 1510.75 47 53 25
-6.00862 273.702 1027.11 197 161 154
347.18 259.538 1858.94 140 160 160
6.02375 478.101 1213.38 246 243 230
13.5645 258.928 1139.38 254 232 230
33.8173 258.568 1230.47 123 107 101
-51.3968 123.245 1009.66 121 73 55
-33.0411 101.187 1169.38 238 228 213
-5.09413 369.325 1186.66 209 200 194
25.6489 355.249 1155.37 227 214 202
223.731 39.1484 1591.09 175 138 121
24.7405 321.682 1108.78 200 185 167
4.45896 294.695 1163.96 146 145 149
346.478 -209.786 1603.24 167 196 194
-199.697 -29.7799 1294.79 80 68 55
190.984 28.6105 1655.2 139 139 108
-34.2154 172.451 1099.24 204 205 203
-11.9717 187.063 1129.97 255 222 202
64.4642 172.725 1214.44 163 149 131
-152.548 250.38 1139.27 89 38 20
447.206 122.451 1938.5 255 254 234
7.95067 190.314 1184.4 91 56 39
50.8283 -44.9174 1236.61 145 121 110
277.62 243.771 1647 128 160 172
192.01 230.54 1508.41 68 95 95
5.33348 324.097 1192.54 255 249 243
66.8067 152.171 1306.51 194 155 127
-101.296 55.4499 958.791 168 133 124
345.695 -35.6644 1697.63 245 222 207
48.4036 169.498 1245.37 255 249 234
43.1037 370.231 1285.51 221 216 193
-413.754 -88.8 705.031 114 116 116
-481.888 -147.506 782.34 14 14 9
309.379 -162.305 1664.25 66 57 44
67.3035 188.815 1250.67 195 197 188
239.732 234.617 1639.68 100 128 121
-37.0793 141.356 1121.93 212 181 163
10.6903 122.586 1179.94 255 251 240
-5.77773 1.91667 1233.46 192 166 148
43.6144 150.382 1169.81 213 193 173
403.829 -1.92815 1993.04 251 242 238
62.8844 164.185 1175.56 252 254 246
-14.0045 69.1759 1188.09 255 252 235
-267.468 40.052 1123.6 72 58 38
391.007 33.6624 1810.8 191 176 169
58.34 -174.222 1704.06 96 94 77
19.4258 99.2418 1179.84 230 234 221
-391.623 -96.3366 560.37 136 130 118
-82.3923 105.771 1083.72 110 99 92
262.989 -144.134 1436.98 171 166 148
5.49748 348.047 1150.45 188 147 147
3.86767 109.161 1147.01 255 239 221
355.902 -12.4778 1660.11 179 160 154
18.8389 422.971 1197.33 184 175 169
-34.4617 103.386 1161.61 245 252 243
290.323 258.174 1849.41 123 143 137
-78.2235 112.58 1111.37 105 74 67
-103.418 89.1775 1077.81 128 107 96
-221.841 -37.66 1584.26 155 152 148
-22.5926 480.807 1194.21 115 109 93
291.761 -155.213 1549.59 171 167 157
-37.0786 146.964 1122.29 201 188 190
-31.5141 194.849 1126.46 99 92 83
9.5847 54.7046 1191.12 222 170 163
-131.928 427.607 1250.19 124 95 84
-542.132 -171.191 729.362 82 81 77
19.3815 304.905 1143.06 253 239 233
103.588 75.2488 1369.05 189 160 140
86.6519 10.44 1152.6 82 57 35
32.5911 116.481 1237.67 239 200 189
233.619 -42.4224 1247.34 138 120 117
-258.032 19.9996 1160.29 170 161 142
