-62.0906 345.507 1178.38 254 252 226
446.327 -157.247 1448.44 255 250 251
-10.1171 -52.5975 1161.59 251 211 200
467.84 -237.666 1591.71 208 209 197
21.4756 101.134 1265.25 96 56 35
324.074 102.813 1823.65 38 36 25
-64.5207 42.0908 1158.24 60 29 20
508.228 302.461 1790.04 6 30 46
-73.2129 116.803 1161.95 74 28 22
384.986 126.13 1738.5 252 251 247
-17.6352 -47.7507 1268.93 208 191 190
38.7989 118.944 1239.2 164 122 92
-113.512 30.0308 1053.65 248 194 166
-16.4949 355.057 1215.12 199 191 185
-58.4881 23.3756 1040.29 96 59 57
-113.49 24.8265 1053.35 100 30 5
41.9684 131.396 1240.91 80 58 43
-73.3638 186.429 1166.72 251 228 208
-98.1151 32.8302 1057.1 252 251 252
35.5888 97.2945 1236.66 255 246 225
17.5794 105.264 1206.66 255 246 234
-118.255 20.5642 1096.59 255 215 190
-19.2871 309.125 1241.43 233 223 210
39.7848 -45.6473 1258.27 71 20 10
98.0319 368.97 1310.32 75 77 72
-25.2256 367.708 1285.04 217 217 212
-87.5378 132.017 1132.95 89 63 50
2.99431 -54.4125 1279.05 106 80 62
25.427 125.128 1183.09 179 160 146
10.561 80.7782 1176.72 246 230 218
26.6494 168.148 1240.92 114 106 102
497.631 212.769 1679.15 71 107 114
10.8911 75.4116 1229.77 255 239 218
-52.9512 366.04 1237.27 154 143 118
-34.6886 360.707 1266.35 239 238 233
-291.911 -27.8255 381.305 217 226 221
-79.0898 192.032 1165.8 78 63 38
479.153 -63.4319 1621.02 252 244 246
-109.438 81.0235 1125.67 253 246 233
-108.471 51.03 1055.98 144 40 24
29.6914 155.841 1240.52 255 249 232
43.2541 137.378 1187.46 242 231 215
30.8589 76.14 1265.51 255 241 215
507.991 -17.5419 1647.93 232 224 223
-16.1738 337.436 1243.87 219 218 213
-12.9846 412.819 1248.81 71 73 72
-28.4534 383.442 1243.8 112 109 107
50.1626 136.494 1273.43 172 141 118
412.997 -289.156 1651.74 210 186 178
-50.4582 307.905 1179.07 76 66 60
7.41722 10.7616 1170.36 184 136 130
26.541 143.379 1238.84 255 244 227
654.981 244.474 2153.84 227 255 255
-28.4197 367.452 1267.99 91 90 89
602.61 252.573 1989.23 81 110 117
457.434 -94.301 1533.92 111 65 50
-82.7525 53.1769 1182.26 142 131 128
-31.5796 268.046 1235.98 114 110 108
-63.3643 299.218 1075.75 244 241 237
455.021 -131.598 1526.41 202 187 180
-558.753 -53.6296 807.076 206 212 201
-103.311 45.8609 1056.78 247 224 208
25.0835 300.801 1310.87 213 214 189
633.835 -293.594 1688.11 208 224 205
1.45104 288.618 1213.34 246 251 229
-96.976 50.7832 1103.3 126 132 127
46.8754 102.242 1297.7 137 92 69
-49.4923 423.164 1212.82 202 195 185
50.1447 -34.8292 1203.95 254 239 205
-131.672 436.034 1349.11 145 140 135
468.026 -86.2733 1637.42 190 158 151
2.32678 310.369 1246.22 236 224 199
-114.842 61.4134 1123.47 255 237 215
-1110.83 -82.0067 1570.18 185 194 192
21.5459 123.166 1266.69 252 209 187
-90.6229 241.047 1166.22 78 81 75
480.096 -89.3067 1617.77 229 208 192
-45.1721 398.426 1368.31 243 240 229
100.066 164.964 1349.73 126 117 104
477.065 -33.8436 1547.35 251 239 248
630.908 -69.1215 1836.17 238 218 214
-105.404 444.949 1356.7 147 147 138
43.6262 -38.3148 1171.69 228 165 135
-64.7743 248.486 1122.14 172 164 161
522.015 -14.0155 1730.02 103 94 90
-49.9278 425.465 1241.13 236 230 211
-46.0088 338.346 1173.62 191 175 161
-14.7479 203.055 1130.2 254 236 219
610.713 232.259 1983.87 223 246 247
497.03 -30.049 1549.72 244 238 223
61.9453 388.881 1351.37 81 69 57
-25.5036 59.7114 1252.44 254 255 251
-9.66818 194.856 1181.02 255 246 238
-30.0905 223.442 1178.59 234 211 193
638.823 -285.616 1690.13 56 75 55
2.33515 3.41455 1144.83 123 73 55
407.636 132.081 1653.48 17 25 19
69.9512 122.731 1245.56 135 125 109
538.992 -161.675 1685.42 220 216 214
-113.421 132.823 1104.87 70 49 39
-14.9612 264.859 1221.24 172 148 149
-86.5632 183.325 1113.87 253 251 231
612.21 -220.059 1592.92 233 240 231
460.445 132.221 1519.38 18 17 7
49.1995 -51.9176 1259.62 105 44 8
-155.834 439.984 1414.93 178 168 156
522.275 -81.5496 1624.01 250 241 225
-74.1358 333.564 1230.45 191 179 170
38.1994 301.539 1313.73 150 147 131
551.959 -79.5102 1622.62 245 239 233
-55.6889 417.085 1300.58 225 218 205
-41.6846 79.8905 1166.02 253 232 217
-301.021 -134.086 743.525 156 165 153
391.168 -249.175 1670.28 76 74 70
90.7685 26.0702 1254.17 204 151 124
-31.6259 -38.8595 1135.62 230 207 184
515.569 207.043 1771.02 93 129 140
-37.2801 217.389 1162.27 157 107 100
-65.2663 409.744 1297.83 155 150 141
576.841 -28.6191 1709.61 255 246 233
627.854 -313.648 1683.54 52 64 61
-74.8928 454.686 1298.24 131 123 113
-38.8172 223.022 1176.69 244 218 199
-55.0854 -63.1396 1259.31 43 32 22
-71.1069 327.598 1230.8 115 108 107
-64.7848 256.885 1122.55 169 150 137
-91.4252 1.69996 1101.14 254 238 226
-94.2742 75.0189 1080.74 204 153 167
-101.705 162.174 1158.65 86 73 65
51.4296 153.365 1244.64 168 154 145
-64.5528 95.3484 1113.22 132 94 90
-20.1382 222.422 1150.99 161 108 109
386.23 -96.8631 1402.77 182 165 153
504.661 -112.337 1695.53 123 81 68
398.93 -265.369 1668.37 75 76 79
-34.5063 390.615 1213.87 248 237 231
485.902 -22.5226 1723.87 143 123 103
571.421 -77.9128 1724.43 244 235 235
-113.607 409.041 1252.32 75 61 56
-149.078 451.414 1417.81 125 125 114
530.828 51.7405 1711.11 163 160 137
-118.494 144.418 1153.52 183 147 136
518.627 -101.907 1595.99 241 207 179
-63.3893 366.952 1172.52 45 41 31
434.611 -355.74 1967.87 218 219 210
438.397 -86.6996 1533.74 227 162 147
433.33 -269.152 1837.42 181 182 168
23.9885 -73.4817 1252.92 156 129 108
-56.7446 302.979 1200.03 173 155 157
-34.6435 221.534 1232 80 80 66
-91.9522 166.492 1111.71 255 247 227
473.027 328.672 1686.82 129 146 140
631.763 -166.11 1687.87 230 231 206
86.1012 106.235 1305.78 141 106 87
-64.5526 59.3243 1159.56 252 243 240
-46.818 282.641 1233.54 242 212 194
-1.27784 399.382 1221.89 255 254 247
35.5137 63.6225 1207.74 179 111 86
-191.343 -1.27463 1078.15 175 147 129
-78.9904 151.386 1163.1 249 234 214
-41.9472 104.011 1194.17 179 130 90
468.915 223.299 1866.96 43 69 66
25.1513 60.4976 1177.9 255 238 210
660.505 -183.237 1712.58 167 172 157
-14.6049 60.1598 1051.49 255 219 212
45.5277 337.684 1174.87 137 129 111
92.198 101.754 1374.2 212 171 154
504.21 -252.929 1505.51 146 148 143
-9.67842 188.96 1180.62 182 175 171
-49.4807 407.82 1211.73 89 65 41
573.539 -174.183 1706.49 236 232 202
-11.698 122.764 1148.48 148 123 109
-109.504 103.393 1126.74 192 175 166
47.3902 183.541 1305.63 166 146 133
94.3421 51.9668 1243.44 255 246 228
568.358 -126.911 1612.77 245 238 225
35.924 162.212 1242.31 119 90 77
645.888 -327.1 1780.34 134 145 145
121.852 64.5233 1307.95 250 227 204
571.67 -163.758 1492.35 243 247 230
86.5504 -97.6632 1226.87 228 216 195
80.7807 16.1147 1213.19 249 245 235
-48.178 232.487 1124.88 180 176 175
617.96 320.616 2029.42 171 204 203
97.5715 36.0626 1275.74 253 227 207
410.462 -96.8469 1402.54 114 83 79
102.043 61.041 1304 198 150 120
523.621 -132.793 1689.54 165 143 136
-37.9507 15.7848 1043.61 255 239 242
-101.341 131.653 1129.88 227 215 212
-19.4641 388.694 1217.09 111 75 67
558.666 -69.3907 1724.57 254 249 253
-61.9357 213.151 1171 186 156 130
-43.658 11.234 1212.64 197 120 109
658.64 53.0376 1744.93 251 250 225
385.42 188.267 1576.87 30 42 45
487.963 -55.4784 1623.46 163 151 158
84.5431 8.89779 1237.45 254 241 227
518.968 198.304 1872.3 95 123 121
-38.7942 -0.893802 1160.22 178 124 103
-68.4542 218.87 1194.1 161 115 91
-19.1162 159.038 1114.93 139 128 100
560.438 59.0776 1801.38 86 82 60
-56.0554 105.663 1164.89 255 218 191
495.39 -36.7046 1591.1 139 119 121
576.569 -37.376 1836.76 249 248 246
100.216 185.145 1351.16 237 224 214
-75.7524 236.713 1119.14 254 250 250
-121.611 468.36 1426.82 134 129 123
661.664 16.0543 1961.84 253 252 225
-9.47354 10.1862 1118.29 255 232 222
-5.15716 -94.7178 1266.51 136 159 164
-36.2254 -33.404 964.427 192 163 142
-121.25 88.629 1100.37 97 42 30
-74.0381 232.137 1110.54 167 167 156
524.771 275.141 1786.33 110 143 150
400.512 -116.733 1371.18 157 138 129
-66.9751 242.512 1194.14 166 135 115
12.1368 -64.6072 1071.72 201 177 166
4.38848 -29.6932 1166.33 203 138 115
27.9616 348.387 1172.14 225 218 190
369.88 -113.592 1258.62 66 38 26
-79.4802 70.9188 1209.93 118 107 113
-44.62 225.685 1175.6 171 123 110
-65.086 346.562 1233.34 204 201 197
538.692 41.807 1741.61 129 120 102
537.109 -20.1349 1704.68 88 75 85
439.32 -306.163 1725.71 161 130 127
-122.841 0.15734 1071.1 159 124 94
514.36 141.125 1666.91 82 66 44
620.431 51.0044 1752.66 248 249 230
539.892 -21.2725 1814.16 144 133 122
-41.6673 30.7841 1162.18 255 244 242
-62.6353 242.104 1318.83 218 194 162
46.3698 -90.4112 1169.72 102 80 74
511.233 -137.054 1689.89 243 233 240
94.47 64.318 1244.66 254 243 225
506.515 29.2056 1643.16 162 154 135
547.553 154.474 1722.82 197 203 197
619.479 -34.5875 1810.53 160 135 119
-118.951 -2.50736 1026.09 214 190 163
653.009 -87.2372 1834.51 156 141 135
-61.5892 -50.1993 1103.62 102 79 65
503.942 -303.532 1674.02 109 83 83
-67.2443 73.1917 1111.18 177 154 141
434.197 -120.177 1478.43 166 149 146
496.44 276.208 1882.6 88 116 109
385.974 -272.133 1752.9 83 84 62
-47.418 418.213 1284.42 110 91 83
450.005 -25.7591 1516.17 104 77 74
-37.87 -11.5683 1244.7 210 137 121
-48.7119 378.473 1163.46 87 71 61
502.329 -138.342 1606.34 168 160 163
47.3098 170.47 1304.41 166 149 138
604.531 166.347 1878.65 248 252 244
122.328 100.317 1311.88 255 251 230
