57.1644 79.635 1239.18 54 15 13
-32.9112 338.684 1159.2 240 229 205
-53.9074 28.3252 1065.83 23 20 28
10.414 341.599 1168.57 242 233 233
579.151 229.968 1878.95 4 30 38
57.1207 73.4755 1238.6 253 235 208
526.642 196.887 1678.82 207 246 248
-797.365 -62.8564 1160.4 251 255 248
65.0258 -48.2231 1262.96 73 33 22
24.9106 5.57928 1173.2 73 56 53
8.63934 351.835 1250.44 223 217 213
-76.2795 34.3217 1130.52 246 254 241
-37.0556 312.357 1131.56 213 211 208
15.9219 -51.9987 1166.53 244 234 218
69.8521 122.624 1304.24 145 106 80
511.812 -171.984 1599.3 255 251 241
493.878 -17.4598 1551.72 231 224 225
508.295 -58.2956 1624.2 93 89 88
71.6919 -39.4115 1230.29 89 58 38
-22.3088 365.446 1244.52 104 86 72
-1.52948 215.174 1155.8 242 206 191
-59.5836 136.489 1192.08 67 36 29
69.7589 98.3529 1243.28 67 27 21
24.9758 20.1168 1174.45 117 103 94
402.288 118.004 1738.84 212 211 202
-44.6032 184.972 1173.01 233 224 191
432.489 -77.9767 1461.24 217 185 170
63.2403 61.2298 1238.62 67 19 11
44.7918 112.267 1212.44 229 207 194
117.508 152.354 1256.91 82 63 61
-36.0579 42.325 1191.79 105 91 84
49.0679 114.237 1186.74 145 106 84
86.9285 424.859 1369.71 218 222 233
29.0071 279.997 1194.53 246 246 226
10.9909 219.634 1187.01 106 73 57
494.765 -74.1729 1619.72 226 206 203
57.529 132.191 1243.98 118 92 81
499.757 -62.2591 1622.69 214 207 206
-16.5083 346.13 1214.76 221 210 199
107.451 102.073 1250.52 117 91 68
-40.7342 336.091 1238.6 255 250 252
609.736 222.984 1980.77 60 89 104
-59.0897 242.944 1173.63 75 67 67
446.102 -44.1357 1415.51 254 253 250
-78.3998 75.607 1084.11 255 243 244
63.5903 107.518 1242.95 244 230 204
63.9952 163.425 1247.92 79 50 51
490.932 -60.9928 1537.55 246 245 242
124.553 370.656 1315.51 70 70 67
-44.2057 113.311 1137.82 120 55 43
544.016 290.839 1757.05 89 105 119
-38.8062 100.599 1168.18 114 70 70
-16.4024 420.196 1220.73 255 253 246
-83.3404 53.6573 1049.3 157 53 33
-18.3849 244.969 1182.57 125 114 111
-863.849 -58.7382 1194.22 195 202 197
517.454 -46.3596 1627.48 142 127 122
568.346 -30.3689 1634.36 255 241 242
518.065 -38.3552 1629.27 243 233 226
570.623 302.343 1895.87 209 230 246
5.95048 197.12 1081.17 250 230 218
525.999 294.167 1790.12 52 72 94
-84.7593 58.1717 1133.09 255 224 197
52.9935 149.043 1139.94 133 114 111
-88.8747 19.2654 1079.29 253 202 177
76.3954 145.069 1248.71 228 226 223
531.408 142.004 1668.43 37 32 21
42.7062 102.433 1202.72 250 233 212
11.2464 409.978 1282.27 120 92 72
-53.1236 48.3053 1161.14 94 95 91
7.4307 270.888 1213.15 99 78 71
22.9537 252.872 1191.61 111 84 78
38.2328 308.423 1314.39 248 254 238
41.6895 82.4771 1236.47 254 225 217
572.133 -82.2572 1622.89 242 230 223
79.588 151.404 1249.86 127 118 106
54.187 145.13 1262.75 254 253 232
-69.145 48.1197 1126.51 123 109 105
77.6739 -54.4943 1264.84 152 53 23
574.261 -34.2185 1732.49 225 216 217
471.512 -132.121 1525 186 165 160
11.7029 333.191 1249.92 255 251 245
20.8263 252.496 1176.45 235 211 196
-104.194 463.412 1431.17 144 142 135
404.484 -273.365 1569.44 190 155 143
-4.13528 446.233 1304.93 252 253 247
-118.055 451.28 1426.4 154 152 138
490.446 -123.174 1530.62 144 141 142
416.054 -264.158 1670.83 55 57 61
-64.6033 128.885 1115.39 246 237 246
-20.2884 259.489 1132.4 255 252 239
63.4979 95.164 1241.81 252 240 214
-70.7601 51.1898 1132.6 158 144 135
2.17221 245.191 1241.82 123 103 98
-9.63054 215.807 1182.51 144 96 90
79.8379 139.155 1307.83 169 133 117
513.157 -78.2482 1541.18 255 243 232
-36.2616 249.409 1255.84 146 80 66
0.316777 228.214 1171.4 235 198 189
69.3362 386.039 1235.91 251 255 255
66.0673 363.929 1233.39 103 91 75
-67.5217 72.5843 1041.78 234 192 194
-20.6844 307.827 1086.23 255 251 240
498.046 44.299 1563.89 143 126 108
0.687297 395.062 1240.82 126 113 105
515.4 -154.202 1558.57 220 213 205
-24.1295 381.285 1189.02 170 154 134
-139.502 -94.2468 381.915 173 165 153
57.6751 153.919 1245.89 254 236 227
-74.3443 136.293 1154.23 123 84 66
2.49423 386.019 1251.17 119 119 119
-84.6428 139.984 1161.04 57 19 4
-12.5192 245.252 1183.83 253 244 239
431.21 -214.031 1418.7 149 152 144
-94.1278 7.4558 1100.97 230 194 174
-77.9885 -49.1037 231.02 126 130 124
573.51 -66.3654 1626.56 242 216 202
-70.8038 171.351 1220.06 176 178 160
-12.7778 77.8562 1171.8 243 232 214
49.5296 373.745 1169.53 15 21 23
-38.9819 241.49 1201.68 248 247 233
613.759 -90.5634 1706.52 138 121 111
502.698 -22.274 1631.58 164 156 158
-97.1102 89.4471 1105.81 84 41 25
590.719 56.7995 1831.35 71 57 41
497.826 -156.365 1452.09 222 206 185
-190.013 -88.7129 411.525 120 111 101
51.8586 84.8419 1184.88 254 226 204
-35.9023 270.587 1180.43 124 118 116
-28.4761 346.272 1241.98 205 195 188
-72.5524 182.092 1273.1 255 248 230
-27.1543 253.369 1181.24 234 219 211
-35.9253 19.7173 1162.46 160 152 146
465.808 207.325 1765.46 56 82 78
-70.1248 156.454 1115.94 106 87 74
448.058 -177.568 1164.6 171 183 159
123.33 179.672 1320.06 255 252 239
-50.3526 149.701 1169.31 253 239 210
-38.9882 199.654 1199.77 254 231 214
132.915 35.2076 1345.92 255 218 192
-27.1275 294.777 1183.75 146 134 127
454.152 -21.3052 1547.55 150 141 136
391.185 -307.996 1721.21 191 190 178
78.767 408.564 1312.47 138 144 151
70.3585 176.049 1250.22 146 133 126
-43.8911 205.888 1114.55 255 248 220
-317.492 -132.375 777.145 132 136 131
458.771 -74.4443 1464.1 79 53 37
-30.1725 30.6138 1192.31 255 240 244
2.54001 408.077 1252.42 158 139 123
-79.4165 -57.5881 217.862 128 126 114
-172.59 -0.86646 1130.2 158 135 118
-17.6747 378.331 1111.91 214 188 165
42.7173 40.6431 1179.5 153 139 132
36.0844 -63.7258 1118.2 249 232 208
552.626 -70.3422 1624.5 245 233 231
-8.4743 426.217 1242.41 199 203 198
602.272 15.0848 1732.64 254 252 228
8.51728 304.774 1247.38 254 240 229
137.752 73.9906 -452.212 11 6 3
573.25 214.119 1882.41 129 157 169
-58.6083 220.266 1097.8 207 206 200
80.2395 553.531 1391.22 146 162 148
-27.1753 220.938 1179.16 255 221 197
-20.8638 363.07 1063.67 103 87 63
493.798 -130.59 1529.37 233 220 227
490.868 -96.1402 1462.68 230 204 182
681.698 229.687 2061.38 121 148 156
111.287 -97.0634 1230.95 253 249 228
495.04 -249.04 1314.82 168 197 203
96.3755 405.178 1418.66 99 84 70
-53.9234 44.1457 1066.83 159 151 149
109.478 6.21502 1241.49 255 234 207
-19.9495 270.781 1168.72 186 131 125
121.281 22.7558 1303.19 215 146 129
-80.1486 91.2961 1064.34 169 148 145
580.595 -72.4578 1726.25 244 233 230
573.156 -147.983 1496.11 242 241 212
-59.0274 190.247 1170.22 250 240 226
-22.5558 315.069 1210.76 154 120 118
44.8087 157.531 1262.45 183 162 149
-15.007 13.3911 1117.45 255 241 232
-116.787 56.4117 1030.79 145 120 109
74.5066 297.093 1321.03 253 253 231
93.4931 410.799 1426 89 74 54
43.9514 -69.6682 1200.28 150 126 104
444.335 -115.499 1528.53 163 139 132
98.9279 1.48795 1200.53 194 146 149
581.115 22.356 1646.81 164 164 159
-35.9256 -51.6989 1156.6 102 79 62
140.202 40.367 1406.01 230 165 134
61.8927 299.278 1281.92 245 244 222
119.395 46.2222 1247.22 255 247 226
588.33 -129.592 1612.86 255 254 242
-0.864793 266.812 1242.74 178 158 149
-27.2754 63.085 1167.69 254 228 205
-14.9874 27.2085 1118.48 255 250 245
636.256 49.6892 1742.87 241 238 226
1.53482 -14.6247 1167.05 255 240 206
476.946 -117.2 1502 252 241 240
-71.8132 124.231 1087.53 219 217 214
-236.936 -22.3089 307.117 152 164 156
96.8195 16.3673 1116.84 255 235 232
587.454 258.529 1788.45 154 169 169
1.63689 22.8588 1170.22 255 247 227
31.8518 302.875 1221.14 197 192 158
1.72244 54.7952 1172.86 255 252 249
539.598 175.103 1650.13 171 187 185
715.68 52.5351 1837.42 215 217 195
-33.0114 188.325 1175.73 118 100 63
598.831 292.976 1896.01 170 194 192
653.405 -237.073 1669.58 192 203 189
11.1811 123.68 1153.07 142 118 100
-15.8232 9.91621 1057.75 177 107 88
-42.5508 444.591 1273.16 107 94 78
506.195 350.045 1900.3 92 105 102
666.658 289.9 2003.19 163 181 182
583.949 287.9 1893.58 97 124 125
453.606 -92.4723 1353.35 143 118 91
466.203 -279.462 1651.95 99 85 78
44.442 27.3645 1231.87 157 150 141
21.1771 198.735 1219.79 200 165 158
-2.42975 384.971 1173.38 219 200 184
102.786 126.544 1310.95 192 170 137
450.45 -88.7638 1460.88 121 83 70
57.9667 252.163 1167.57 174 180 160
-70.1532 147.476 1044.05 182 141 123
51.2447 -40.862 1136.76 255 255 243
-49.106 164.551 1282.83 202 150 129
125.026 55.0612 1307.45 255 247 223
-53.2576 178.797 1170.71 159 137 109
-37.9424 275.546 1055.62 215 210 212
364.941 -224.515 1500.34 118 120 108
43.6643 238.931 1217.36 202 183 181
556.897 -164.509 1603.46 238 219 200
16.3746 66.6851 1176.68 204 141 117
-34.1423 243.767 1087.89 160 130 127
585.238 -26.3153 1636.22 191 177 156
-155.059 -105.293 1423.95 62 51 38
-80.9081 100.827 1110.08 183 172 176
-469.762 -87.023 610.305 69 88 84
7.57549 60.6864 1174.48 255 247 246
489.107 -146.745 1560.7 172 160 155
39.3347 221.856 1247.78 171 168 170
-335.392 -291.869 956.237 93 89 80
20.0892 -94.0855 1271.54 134 150 156
