-14.7584 -40.5976 1138.77 255 251 232
-7.10662 17.4369 1167.77 21 1 0
8.53022 93.7644 1203.76 78 48 28
-20.6186 -41.0323 1112.16 213 189 182
453.677 -153.841 1449.36 243 235 230
26.7945 118.1 1151.76 88 45 27
26.0884 -36.836 1199.1 79 38 27
402.774 129.288 1740.64 214 217 211
-80.9618 120.798 1110.91 77 38 26
40.9564 -33.1065 1225.14 123 42 7
-69.6374 47.3678 1063.57 74 38 26
-31.5802 377.642 1284.25 203 198 193
20.5006 81.9872 1205.5 255 245 222
360.368 113.536 1948.08 47 44 28
-22.307 375.169 1244.47 227 224 215
-24.3441 -39.4201 1188.87 218 200 193
513.507 -9.9311 1633.82 229 209 215
-69.5856 317.088 1101.84 243 240 243
-121.382 37.543 1010.73 225 166 147
-44.663 419.05 1185.97 229 232 224
471.975 -233.11 1574.43 165 170 155
29.5457 -28.4049 1099.67 104 69 56
26.5886 103.03 1207.93 252 243 229
98.0816 375.695 1310.57 64 63 60
29.4973 119.246 1236.84 246 228 208
-64.8984 359.327 1127.5 63 58 57
441.189 -54.2245 1465.88 255 250 249
-77.7317 179.618 1069.35 239 225 199
-28.5531 312.026 1208.5 236 222 205
-3.85702 319.962 1245.07 255 251 234
29.7358 129.662 1153.43 104 106 94
21.4956 100.278 1228.79 157 122 111
19.632 157.969 1183.9 255 252 236
11.5581 105.766 1205.06 149 107 99
-71.0128 30.0395 1100.67 131 75 90
-108.432 41.8057 1055.15 248 252 251
-128.803 28.6575 1049.98 248 169 151
-54.8134 419.782 1179.87 249 247 233
-91.6005 57.4673 1080.22 60 62 65
16.6397 146.095 1182.43 255 250 234
475.368 262.29 1595.24 193 226 248
23.5273 88.0112 1206.46 160 99 77
-30.0488 318.849 1183.96 100 91 83
38.0476 -42.8278 1200.98 133 50 24
382.212 -309.618 1719.8 214 212 202
-36.9353 219.079 1101.79 227 204 192
35.8358 140.289 1135.74 242 235 226
-24.1764 331.097 1185.91 225 222 218
-94.4008 135.125 1082.88 109 69 60
440.875 -122.011 1454 216 199 191
472.989 -139.918 1453.28 255 251 242
34.161 102.299 1182.53 105 69 52
443.005 -86.4878 1460.43 89 54 42
-34.6229 327.526 1238.78 141 122 107
-133.528 20.5747 1100.38 155 92 63
666.882 -250.733 1692.76 232 242 233
-116.596 89.1739 1092.73 225 184 178
-27.0711 390.538 1188.41 97 82 65
512.451 -50.8663 1472.14 246 235 225
-40.7395 373.897 1240.28 130 123 120
-59.2046 358.521 1179.74 146 122 103
-61.4656 381.114 1155.5 147 130 113
-94.3187 62.8151 1179.85 137 150 154
-118.754 59.9691 1053.95 172 64 38
-27.1528 268.583 1181.63 235 227 228
522.341 199.221 1678.15 226 250 252
-24.3297 316.355 1158.85 209 195 189
1.72412 82.0176 1228 253 225 216
-23.8033 285.246 1261.6 102 67 61
-38.8136 365.863 1184.62 124 125 117
-84.9409 251.005 1167.75 113 116 87
592.651 222.96 1877.35 237 255 255
-87.8292 47.2096 1059.81 250 255 252
-27.1021 242.411 1203.76 146 92 98
513.353 -88.4015 1750.85 210 188 180
-34.5119 385.251 1213.37 130 131 134
-125.763 70.7488 1121.13 255 250 229
66.6744 138.693 1304.65 157 139 122
-79.3781 327.63 1173.52 180 163 159
-400.849 -263.163 1108.67 129 119 106
461.198 -32.6351 1471.38 209 197 198
-111.203 46.0191 1092.64 200 217 219
-113.613 54.8079 1054.78 242 213 201
-118.731 54.7521 1053.66 226 154 141
-73.4796 245.713 1170.03 143 104 85
-91.56 38.7781 1079.4 116 103 90
-54.9854 369.757 1262.76 246 242 231
38.8114 139.33 1212.36 169 141 114
-73.5387 277.971 1171.99 113 93 91
52.8166 380.215 1287.5 77 67 52
538.213 210.519 1772.93 59 109 111
-53.7431 266.87 1125.33 255 247 245
-59.0053 332.233 1233.54 153 107 105
-76.4921 321.925 1173.86 160 153 152
8.26458 109.56 1151.43 255 224 200
-105.924 57.5055 1056.58 103 67 58
537.655 -74.127 1540.57 244 236 231
-109.615 91.0868 1169.14 55 68 55
76.0769 110.804 1245.12 136 96 72
462.141 -81.1853 1531.11 201 193 166
-24.2745 212.59 1178.67 195 190 186
593.307 -228.074 1514.16 219 229 218
-94.8768 239.603 1114.85 126 120 123
567.847 -196.681 1447.97 215 222 203
11.6109 126.717 1206.22 254 237 215
511.242 233.015 1961.39 17 40 43
21.3419 186.341 1299.78 119 108 92
-93.4044 184.366 1066.25 243 253 250
621.193 -246.79 1586.61 151 162 147
27.9083 295.588 1233.34 156 155 137
523.464 152.771 1669.2 67 59 45
-162.701 450.556 1413.09 42 33 24
-6.57329 290.41 1187.3 224 222 201
507.206 51.8169 1608.71 171 152 134
-44.0636 370.232 1264.31 171 164 155
-103.777 54.2559 1044.64 176 175 166
44.9543 157.577 1214.54 162 152 142
-40.7342 277.491 1234.07 110 99 97
25.6982 -30.0102 1222.57 253 243 235
82.2013 153.594 1195.46 145 138 123
-94.5651 194.61 1133.41 250 245 229
16.5619 289.957 1216.13 168 169 155
-30.0277 369.305 1115.53 100 84 67
-199.098 8.20149 1076.61 161 136 123
-62.0556 311.018 1176.49 254 248 241
-44.623 220.603 1174.83 156 144 125
-73.044 257.458 1120.65 174 158 170
-18.1861 209.782 1204.19 228 221 221
385.739 -247.462 1579.78 50 51 49
539.008 -78.1827 1626.06 255 249 234
-51.2736 85.8395 1138.17 253 236 212
508.902 -92.7852 1534.8 244 214 193
-33.1523 -36.4309 1187.24 237 232 217
446.201 -83.255 1534.65 212 157 139
-50.4651 314.668 1179.27 247 222 212
-25.6875 355.064 1168.33 245 248 244
508.856 -26.7127 1550.73 253 243 229
90.1518 188.367 1313.98 247 233 215
661.553 -167.25 1715.52 252 252 226
-108.164 164.187 1107.53 76 68 52
-24.2621 227.332 1179.64 158 108 87
-44.5777 106.741 1166.95 112 65 37
552.061 -70.2745 1628.76 244 238 235
-119.254 436.434 1313.07 142 133 118
-44.3467 335.564 1155.99 111 104 101
-98.5544 168.262 1064.29 253 249 227
499.825 -105.691 1617.17 255 242 234
77.7036 16.5769 1212.42 255 243 227
-53.7258 241.557 1123.95 148 141 144
-97.4994 137.051 1008.76 210 178 157
530.72 17.3514 1552.67 249 245 213
425.66 -289.66 1653.83 205 170 157
84.0567 22.3109 1200.28 254 239 212
379.971 -285.172 1572.83 214 205 190
-107.86 87.2647 1102.89 195 153 151
-119.082 135.938 1058.07 95 64 55
-45.888 226.562 1160.9 159 114 97
-120.251 261.086 1280.4 160 145 138
-100.303 239.908 1135.83 198 206 197
36.0119 184.389 1243.56 171 159 158
549.688 -172.998 1611.38 214 185 160
86.4834 -95.6073 1293.77 253 251 231
2.11919 229.815 1240.04 143 133 140
88.078 55.3157 1242.22 255 243 220
568.049 -14.0486 1941.92 152 148 141
440.238 -132.606 1452.08 56 37 27
441.092 -94.7674 1449.09 117 82 77
433.124 -105.608 1529.2 170 150 143
106.37 49.1811 1415.65 201 152 126
-47.5239 232.233 1174.94 238 204 186
474.718 -66.2232 1534.72 65 29 21
-34.4144 63.4893 1140.55 223 218 205
619.649 -83.0757 1727.99 154 144 137
72.1628 23.4553 1183.02 251 244 223
592.552 -299.201 1574.01 147 192 202
4.34217 -56.8379 1215.93 255 242 209
443.717 -10.8346 1473.56 145 135 137
-70.6251 -42.9275 1127.33 90 65 51
6.55717 346.01 1138.72 218 221 196
-26.1534 204.459 1075.15 215 148 143
43.6629 -87.1784 1220.37 74 48 31
74.3455 31.5192 1158.44 237 175 153
81.6582 36.8346 1239.31 255 234 208
93.9469 61.3208 1303.73 255 244 232
-56.2845 335.023 1179.12 155 147 150
448.056 -346.333 1860.06 137 151 143
-26.8396 25.7305 -65.6188 29 31 30
115.328 74.3865 1307.34 253 242 223
556.761 -19.1376 1555.54 164 151 140
32.0518 407.626 1319.48 146 138 121
19.2953 69.8637 1177.12 255 210 183
486.033 -128.294 1529.05 209 210 211
12.5271 64.0763 1080.44 242 195 171
731.655 57.9933 1871.07 239 242 218
8.39118 366.019 1194.65 115 102 81
-56.3267 397.308 1182.36 90 71 61
629.398 -129.442 1720.13 255 254 240
634.811 -15.7353 1846.96 190 165 154
504.415 -3.6037 1479.97 242 226 202
527.063 272.008 1692.19 137 163 168
-114.611 101.784 1004.62 207 181 159
462.725 272.814 1599.09 115 136 143
8.08564 243.5 1187.43 161 157 156
-121.938 115.846 1142.71 193 182 183
95.6125 77.4247 1304.05 255 250 246
-124.232 141.046 1057.2 185 152 135
-56.2442 284.798 1176.26 156 103 111
506.371 197.539 1582.07 99 119 129
-90.3784 160.62 1160.64 248 216 186
-15.528 198.181 1179.55 168 162 158
-455.856 -222.156 1263.74 134 140 138
-259.293 -205.955 1014.49 144 149 143
7.47196 34.8454 1172.02 182 154 149
397.402 -244.93 1655.1 72 73 68
-44.9126 313.535 1202.78 195 139 118
549.58 -110.045 1621.98 221 206 184
-53.6468 19.2248 1186.35 196 132 123
-64.8648 325.432 1125.91 128 132 126
701.479 38.3217 1925.79 171 177 142
661.82 304.358 1907.51 171 183 179
426.909 -257.413 1769.28 147 146 133
547.525 191.003 1678.9 168 189 189
122.408 110.325 1312.38 249 231 210
-80.8456 217.75 1025.3 230 233 226
637.089 -166.5 1605.63 246 250 227
-56.0739 118.1 1165.3 234 204 170
-78.15 82.2665 1109.06 174 141 122
-38.8178 106.852 1168.18 161 134 70
-51.8198 291.802 1357.01 182 170 169
-77.3432 442.779 1235.75 104 92 82
318.476 -218.607 1417.73 76 83 58
55.3687 162.178 1410.2 221 207 186
703.156 -340.714 1781 206 215 205
599.686 -230.818 1669.98 189 179 169
-102.191 11.0213 1099.22 222 181 168
606.366 -125.187 1536.22 250 255 235
20.3497 34.2853 1202.6 192 173 158
-57.6689 102.045 1058.84 244 198 164
0.923629 172.099 1254.65 173 140 127
639.278 -103.991 1620.3 145 152 141
-20.1091 77.701 1163.47 212 156 130
581.453 28.6223 1647.73 173 169 151
473.639 341.378 1792.53 93 105 101
540.107 -265.158 1579.79 126 116 104
579.109 -260.463 1507 168 184 170
-93.2863 141.946 1064.02 146 103 68
520.172 -288.62 1498.99 148 172 170
130.583 119.691 1382.54 192 164 144
-664.438 -229.142 1424.24 47 53 48
28.3744 288.671 1276.63 175 176 162
108.858 184.593 1276.9 211 183 162
584.023 -317.908 1672.83 117 140 134
-122.123 8.02488 918.08 102 72 41
-131.936 97.7377 1098.08 111 54 43
-91.2825 76.4356 1123.87 175 190 199
-121.128 114.135 1168.66 240 232 205
56.988 522.447 1300.79 87 111 98
377.002 -18.8564 1271.2 52 24 17
162.792 230.201 1513.51 223 206 182
324.857 -201.115 1496.11 24 22 7
-124.236 7.23957 963.111 205 176 151
-56.8875 108.312 1138.07 169 140 107
71.0882 286.811 1318.78 202 192 185
-72.4105 221.205 1140.65 173 122 99
551.969 255.171 1691.56 170 193 196
537.722 -209.557 1515.8 105 90 78
543.602 -54.7666 1711.55 206 197 204
117.748 169.63 1183.99 190 178 157
129.489 143.243 1317.02 219 196 172
78.4143 58.699 1187.13 252 240 219
-56.2901 68.2533 1004.63 251 224 203
-57.1119 111.757 1089.74 173 141 103
583.51 -253.299 1508.61 125 149 130
61.695 279.709 1279.01 197 178 168
-14.2816 82.5222 1282.41 250 197 210
606.775 -231.567 1589.78 87 89 85
