71.7782 -28.9859 1288.37 216 206 188
302.677 -63.5871 1601.67 235 227 219
67.2403 -49.532 1829.3 58 45 17
-123.952 77.0532 1053.94 221 191 175
8.06396 14.6743 1146.45 237 215 193
-172.997 601.509 1504.8 199 194 191
-16.3285 511.065 1227.88 239 244 235
-15.7961 448.036 1274.39 70 46 42
-31.4609 383.984 1115.27 185 178 173
5.76504 408.58 1314.94 246 242 225
332.572 242.412 1755.22 52 47 40
-0.0271267 466.072 1344.63 255 251 254
298.974 9.95976 1662.64 244 223 202
343.936 -70.4144 1778.79 254 252 243
302.481 -132.201 1670.36 180 182 180
-61.8386 77.9758 1067.18 247 216 190
-47.5869 320.1 1181.1 101 80 77
2.4818 395.242 1252.15 111 96 80
-25.8271 410.518 1138.88 252 239 221
-56.6292 109.995 1070.18 125 43 17
-61.847 83.2812 1067.5 112 31 12
4.78567 406.295 1224.79 250 247 245
-3.94383 438.768 1172.96 133 132 126
-67.6993 212.845 1169.87 72 36 34
278.834 371.302 1757.87 203 231 242
39.3788 233.626 1248.81 141 133 118
66.2834 478.789 1319.75 74 72 74
327.461 446.379 2123.67 64 93 98
-34.3176 112.444 1120.53 154 160 149
-28.4976 469.221 1222.27 30 11 6
-32.9361 391.831 1163.56 241 230 231
306.878 -37.7779 1692.24 138 113 105
1.89967 471.852 1229.16 113 88 75
-52.52 140.955 1064.05 241 189 180
357.722 45.3527 1935.16 73 69 66
-25.8971 296.007 1133.48 108 99 81
8.32725 3.68904 1198.35 200 176 159
71.9837 -6.85272 1290.89 194 181 158
-27.2134 182.197 1176.55 93 53 36
224.552 254.04 1837.28 53 63 59
316.619 80.2828 1719.54 130 122 121
-61.8551 88.5916 1067.82 226 166 139
-40.8105 188.164 1077.91 134 111 109
44.1907 196 1306.16 152 110 86
329.544 18.7668 1900.37 245 204 200
-31.4993 295.687 1132.3 132 131 118
-25.8785 327.309 1135.12 150 134 144
311.754 430.169 1944.74 89 109 117
200.957 -138.895 1653.65 93 91 95
335.965 348.226 1985.03 102 118 133
316.349 400.787 1853.66 125 148 157
21.1386 368.05 1254.47 243 245 229
35.8561 149.3 1241.2 123 92 78
296.822 -15.658 1798.09 166 140 126
-41.7628 503.554 1191.17 175 168 163
270.747 9.44224 1589.71 254 204 188
-110.724 127.261 1105.08 177 150 143
51.8284 221.571 1250.37 174 167 167
349.587 31.0125 1805.45 154 133 115
39.2118 199.24 1246.04 148 131 113
2.30361 310.285 1246.65 139 117 111
3.97167 330.702 1309.12 148 145 138
-254.501 634.532 1668.72 21 11 10
-42.8301 8.92282 1135.99 66 42 33
37.7413 23.2412 1144.44 182 121 96
15.8064 12.9368 1238.94 126 98 78
35.8251 143.126 1240.66 247 209 202
34.3496 164.063 1271.88 208 173 145
298.453 -33.6174 1691.97 203 175 163
-170.484 72.112 1135.72 155 119 111
30.9986 152.49 1205.96 165 126 108
-27.2926 22.0361 1164.26 92 64 33
-59.2699 117.945 1070.11 204 140 119
23.3922 476.809 1234.12 209 213 218
-17.9995 -20.5377 1228.2 91 109 114
-4.49757 334.319 1216.68 146 136 135
-218.561 519.467 1375.29 162 141 122
-5.68879 423.128 1095.15 253 251 242
35.7332 216.824 1267.68 253 248 235
-212.782 -6.62291 1285.52 63 72 64
23.4452 142.848 1238.13 255 238 217
18.3364 491.721 1260.71 41 49 55
-15.7423 306.893 1059.51 255 240 213
-50.5575 205.475 1031.11 90 70 67
-42.5828 62.3273 1115.38 254 232 216
-49.5124 16.9731 1306.1 98 61 49
-4.86816 25.718 1136.99 186 168 139
-30.0626 386.104 1163.79 168 151 154
0.878262 303.749 1090.71 250 249 246
386.139 26.6156 1808.96 152 148 140
-16.1344 303.691 1130.76 159 152 151
302.203 -6.43586 1658.26 137 109 99
344.197 -67.0504 1690.62 232 208 185
-48.708 91.526 1070.65 182 189 170
328.986 63.2534 1717.66 238 228 227
23.4954 155.215 1239.2 255 245 227
-33.0455 21.9759 1163.09 222 195 169
72.7746 465.575 1319.35 136 138 137
-77.6828 149.372 1068.11 127 80 69
-24.3102 170.55 1176.32 193 165 148
-80.1742 224.221 1191.9 158 137 121
295.293 17.0281 1429.69 255 245 235
306.145 68.9942 1608.4 228 227 225
7.63494 341.269 1219.87 143 110 110
405.425 75.9503 1923.83 255 250 235
45.2817 168.208 1244.69 183 139 110
-2.40378 455.391 1174.38 146 120 110
-11.7633 359.731 1139.58 158 91 88
27.4583 10.0111 1259.97 255 247 229
-34.5377 453.084 1219.74 129 122 111
247.348 347.497 1966.23 72 94 95
366.617 140.79 1705.58 255 254 234
343.74 94.0712 1820.36 125 98 80
-26.0133 268.932 1108.49 201 152 127
170.605 -212.146 2080.51 209 213 202
343.958 410.586 2001.32 147 168 172
47.821 258.57 1312.51 176 156 140
-32.9613 213.459 1149.22 255 249 215
-46.396 225.373 1096.76 248 237 228
54.0964 209.452 1309.44 163 146 140
201.259 -170.885 1732.41 203 175 167
-23.2325 101.51 1122.02 149 150 141
-178.758 257.422 1168.18 79 24 8
-3.3092 410.731 1202.14 85 79 81
259.401 54.6671 1490.68 123 97 101
-26.2003 349.939 1062.03 252 248 247
12.5972 282.393 1232.66 156 137 137
265.71 72.8676 1604.94 137 122 115
-9.96005 297.59 1087.97 221 210 206
-37.087 320.899 1132.46 153 152 152
-44.4231 59.6337 1045.64 138 116 96
43.9641 180.209 1274.84 239 197 175
-10.3522 364.897 1066.8 236 233 235
347.031 478.779 2017.56 148 167 165
29.2731 194.288 1263.76 252 219 201
293.32 467.905 1893.27 152 164 162
409.455 71.0021 1920.39 186 176 170
282.468 81.8892 1707.45 66 56 48
-24.9003 228.834 1062.18 244 225 206
-52.2838 200.444 993.668 185 146 128
-9.31185 146.188 1203.37 255 240 223
77.6461 89.558 1263.09 198 168 159
-200.456 96.7154 1129.88 110 54 31
1.88911 121.243 1178.06 255 248 251
-88.2051 180.933 1067.65 84 48 31
314.008 276.599 1738.05 153 170 177
74.0401 224.599 1276.09 170 155 155
160.057 -106.127 1653.59 35 31 11
338.978 -0.265372 1705.03 234 203 191
-40.651 8.05987 1212.84 164 130 122
-34.3037 250.29 1129.17 177 154 123
232.533 416.305 1982.56 67 83 80
10.7243 133.262 1180.74 208 161 147
455.172 5.79282 2216.05 201 164 139
12.5966 522.679 1323.42 33 39 38
-7.39655 162.426 1149.84 242 197 170
328.225 445.327 1867.64 159 172 172
23.9445 -6.26113 1123.03 169 136 122
-54.7999 185.284 1108.53 210 213 213
-25.9235 250.672 1130.94 152 125 98
363.706 -25.5687 1702.52 251 240 214
330.512 -52.5038 1695.25 255 254 253
-170.023 467.54 1218.19 149 125 104
238.138 -155.386 1655.93 119 114 109
234.136 446.966 1855.96 101 116 110
-149.165 427.43 1190.29 126 94 67
-24.0777 -20.6602 1226.97 43 60 73
-15.996 127.672 1144.84 254 221 191
-260.178 508.129 1390.92 115 96 76
-12.0934 706.598 1433.45 163 194 180
-103.006 146.219 1228.99 171 138 118
-103.713 371.757 1146.04 61 49 30
18.5157 364.143 1191.05 172 163 140
31.9751 -6.62978 1226.1 169 139 120
-66.714 174.749 1138.52 223 221 217
-21.0387 586.562 1202.06 73 100 88
-131.599 76.8893 1052.23 183 138 120
313.638 425.949 1814.89 158 177 176
404.388 147.173 1782.48 244 251 229
-4.70779 103.339 1030.46 194 156 138
189.477 59.6382 1431.7 85 47 29
