-259.199 357.903 1131.23 230 228 224
-197.004 110.314 1038.95 255 245 214
-250.643 -30.955 996.989 246 240 223
-194.616 120.741 1040.1 251 233 214
-134.364 122.407 1054.28 36 14 3
-216.847 151.25 1103.35 67 37 29
-221.154 120.78 1051.89 231 203 185
401.677 -52.4737 1148.72 250 244 245
-271.752 305.811 1124.56 237 232 215
-239.023 -25.0761 960.497 82 65 61
443.045 25.2395 1131.89 254 248 240
-217.598 90.5676 991.72 255 233 226
-184.914 158.786 1089.51 242 226 208
-200.256 136.592 1084.34 95 49 27
-212.843 236.925 1041.75 118 112 112
-216.652 109.785 1034.09 97 77 61
-182.381 144.429 1044.33 221 201 176
-203.464 146.877 1016.67 255 242 229
-249.593 306.691 1154.14 207 220 207
-344.11 131.038 1001.04 26 12 5
-195.19 147.56 1086.28 44 30 17
675.321 55.9106 1195.12 245 253 251
-177.359 -12.8511 937.774 87 49 30
-295.5 390.895 1235.32 248 247 245
499.329 -2.7265 1132.37 255 235 222
-237.942 24.2442 983.59 67 32 30
-198.736 86.038 996.008 223 196 182
-100.129 11.9698 975.418 255 231 220
-339.081 56.6803 958.497 59 54 42
-274.864 345.176 1126.17 250 253 248
-354.097 81.7182 933.621 255 253 251
-374.055 43.754 987.63 231 237 227
-128.569 413.236 1266.35 249 254 255
428.081 4.61547 1206.88 220 217 217
-204.282 -17.002 1051.6 219 199 186
-198.747 157.225 1018.54 251 230 212
-302.211 344.839 1107.22 51 40 28
640.908 331.123 1393.78 58 69 74
-237.424 -34.0829 981.014 202 188 163
597.05 278.386 1460.51 26 46 55
-235.319 308.017 1107.7 226 226 198
-230.193 28.8325 975.407 95 52 51
404.026 38.2126 1143.46 193 191 189
-297.119 240.521 1137.99 251 230 218
-211.961 133.107 1036.52 107 72 57
418.57 -254.588 1234.42 212 193 185
-354.183 56.4153 954.22 98 86 83
524.271 235.979 1333.47 165 205 217
-215.109 213.363 1039.98 111 88 85
642.116 -20.4882 1183.67 62 82 74
-300.148 454.855 1264.24 49 48 45
-155.768 15.8263 923.878 186 163 149
-235.742 36.4016 984.7 94 59 50
435.864 -77.8856 1166.6 194 190 192
-345.291 58.9655 996.869 85 100 88
-221.437 99.3825 1032.34 108 81 58
-87.9061 76.0337 1061.72 254 247 228
-104.653 22.538 1075.99 254 243 224
527.236 33.754 1237.79 255 247 238
451.534 -36.0464 1125.61 254 250 219
417.142 -114.63 1144.7 255 250 249
428.582 19.5351 1208.17 232 217 213
431.625 -2.88741 1232.3 55 48 46
-214.367 127.88 1035.64 232 183 163
637.791 -72.896 1176.09 75 82 62
-201.807 94.7005 1036.93 77 39 16
-271.74 -24.1948 972.937 211 197 188
-345.064 244.631 1099.38 103 105 92
-244.258 34.7552 1044.08 250 225 208
-301.635 302.688 1088.47 92 62 68
-125.845 390.794 1193.17 86 90 95
-258.781 320.085 1102.15 226 211 196
-311.235 281.388 1132.57 243 225 214
-167.493 163.228 1048.88 132 126 114
-216.926 162.227 1103.85 87 51 38
550.996 -200.475 1025.77 172 190 185
519.648 29.3663 1185.14 111 95 86
-100.107 4.73897 975.063 255 248 210
-284.31 388.046 1150.06 255 242 227
373.744 -87.3096 1053.78 245 239 235
398.806 -86.8785 1032.42 254 252 252
-115.386 174.283 999.676 200 193 178
485.505 -137.696 1071.8 190 187 173
435.248 -54.9052 1202.31 232 231 223
-169.184 148.475 1092.74 48 14 1
504.449 21.488 1234.74 254 245 234
-87.8839 68.1209 1061.25 246 237 208
-244.072 403.914 1162.91 118 115 113
553.973 22.5224 1293.55 93 66 64
-303.212 242.524 1038.18 254 249 243
-255.566 323.714 1031.28 120 124 118
-162.443 335.703 1082.25 187 193 157
-84.0015 350.82 1149.02 246 245 235
496.27 -151.995 999.022 65 62 58
-323.251 265.403 1078.98 136 104 99
-286.545 242.846 1116.36 239 219 219
534.437 -23.1937 1179.3 233 217 215
-319.373 52.2312 963.743 77 81 71
-190.728 -19.7644 934.697 85 39 27
-104.854 97.3478 1079.37 122 90 53
-258.036 221.571 1048.54 115 65 56
554.807 329.724 1463.32 146 175 212
519.413 -108.533 1204.11 255 255 228
-335.743 178.97 1006.07 244 251 245
-185.565 259.175 1023.16 255 251 232
624.109 -104.927 1159.69 219 216 204
516.054 25.1295 1193.27 239 217 213
-367.567 172.11 1063.39 254 248 229
408.324 -49.2716 1140.23 164 131 135
-235.965 195.493 936.121 236 194 179
-320.095 109.757 966.228 235 230 212
-130.171 337.27 1066.06 31 18 14
341.128 -213.75 1177.83 7 5 0
-280.055 226.572 1001.8 123 117 112
-109.872 35.4671 991.946 237 206 182
-312.795 247.08 1035.73 124 121 126
-215.307 295.385 1127.37 209 210 190
446.499 -22.125 1126.87 255 250 233
-251.48 198.505 1029.98 248 246 237
-72.8288 140.584 1114.3 244 235 214
703.959 43.0196 1246.2 201 214 209
-269.572 305.748 1009.83 199 188 168
-317.175 228.568 1033.08 249 244 240
-145.417 21.3416 1084.39 254 239 238
519.39 11.854 1187.87 96 89 86
611.743 -146.411 1074.13 221 243 228
698.144 25.6316 1228.66 173 186 175
408.349 -109.975 1097.91 229 222 226
484.525 21.6616 1162.27 169 174 160
-193.627 275.819 1094.1 126 124 96
-227.074 30.376 948.739 133 74 59
-88.346 288.713 1096.41 113 69 43
-280.94 67.6757 1015.24 228 206 201
-129.461 164.747 1057.7 246 254 241
-43.4595 229.556 1079.58 245 235 207
412.108 -256.838 1142.78 182 151 139
-261.63 -28.2532 1083.05 67 29 23
-236.178 492.468 1192.01 40 35 32
-184.974 116.751 1062.09 154 90 54
568.422 36.8813 1240.52 99 81 67
-219.709 63.5386 989.901 251 242 233
-72.3965 129.462 1068.1 255 248 216
610.519 -128.16 1076.52 245 255 238
628.11 322.16 1399.58 79 114 130
-230.647 -27.6866 891.525 228 218 197
594.345 116.281 1287.53 255 254 227
430.766 -5.91375 1225.87 247 238 235
621.316 6.56078 1101.4 218 239 225
-135.335 11.2963 1025.11 255 249 232
-292.464 314.272 1046.49 160 143 132
-338.778 42.6253 936.016 117 116 110
-277.494 256.861 1071.17 95 77 71
-304.233 300.099 1042.11 234 234 228
-110.551 57.3382 1032.28 254 198 178
-176.797 -17.189 988.687 157 62 28
-118.035 47.0189 1030.28 162 104 88
-113.677 70.3715 1055.88 244 205 173
343.953 -219.507 1177.56 133 130 128
-269.858 243.904 1072.48 250 244 238
389.481 -189.768 1162.38 124 124 129
511.248 -106.601 1167.21 218 205 178
-152.526 192.766 1053.93 255 251 229
-321.892 168.451 960.365 255 251 241
-229.006 60.9511 987.518 167 146 148
564.121 -25.818 1234.79 108 75 73
627.882 -152.263 1117.3 220 236 229
-327.992 181.321 1026.4 215 183 147
-48.1802 233.718 1125.27 255 246 217
-109.264 265.848 1187 226 222 213
500.127 -46.2331 1174.52 235 208 190
-177.907 173.85 1005.13 120 116 105
-331.18 107.51 1024.28 87 52 49
437.371 100.805 1215.34 162 155 131
-298.356 237.625 1039.22 135 112 114
-93.0216 54.9431 1059.37 232 219 194
-131.805 -5.21639 1040.74 255 241 206
578.419 348.866 1467.78 70 107 116
-340.055 121.865 939.972 250 247 245
-360.606 56.2955 952.376 123 69 56
-278.301 -138.56 1195.56 25 25 17
659.789 -144.821 1156.88 229 243 220
-123.793 29.873 1009.94 251 234 203
-275.371 256.006 954.562 137 128 124
-295.261 89.9972 1012.54 236 174 155
-320.034 104.96 966.017 176 152 154
-177.1 -25.4089 974.478 92 21 1
-165.635 4.5993 961.519 255 236 221
-241.896 537.725 1289.86 53 55 51
589.371 386.136 1438.35 98 135 134
-114.085 55.008 1013.33 239 229 207
614.955 327.096 1468.23 63 90 101
-144.615 137.874 1052.81 150 120 99
-138.105 259.956 1106.64 254 253 255
655.533 -138.821 1166.64 240 251 237
-330.451 44.0073 1021.7 236 226 214
484.127 113.976 1244.64 198 200 171
400.259 -77.716 1164.06 98 82 74
-187.691 291.85 1119.13 224 218 201
-272.878 -26.9839 1034.1 225 220 203
-130.652 266.986 1085.11 255 251 235
-56.7066 217.553 1196.76 240 220 211
-368.392 105.379 992.542 227 225 219
444.682 195.982 1266.67 61 63 60
409.901 -69.1311 1119 97 83 86
380.955 -80.0105 1115.65 195 169 157
518.926 313.996 1356.9 117 150 174
510.834 -229.232 1104.59 141 146 141
605.553 -61.6682 1214.75 149 149 124
-317.086 147.046 960.128 98 85 57
443.939 13.561 1209.2 198 194 196
-210.679 408.362 1260.88 202 189 166
-74.9914 118.759 1066.94 242 232 201
493.026 -213.739 1201.78 158 154 152
-263.636 72.5365 979.409 221 167 157
-280.868 71.2617 902.181 252 241 226
-308.142 270.985 1184.97 247 246 243
567.479 -18.9388 1288.17 242 225 219
-257.736 -20.9386 885.631 195 173 152
-303.119 400.701 1145.59 86 84 78
-106.222 139.054 1061.44 251 220 187
-311.185 61.974 985.101 241 226 214
581.595 261.669 1400.33 91 129 132
-325.922 56.7569 1023.5 254 227 221
-117.051 -9.56246 962.421 134 93 56
-349.539 41.634 994.753 147 142 140
489.904 -16.6639 1130.2 196 177 168
-176.931 -11.4148 1015.04 251 185 136
-304.048 289.593 1041.4 234 233 233
-148.782 262.05 1104.25 229 236 230
-266.894 78.0133 1019.52 129 91 82
-121.748 7.34069 1000.98 255 243 205
-121.528 72.4593 1012.67 245 215 208
-296.378 289.374 1088.93 247 203 174
-304.551 269.004 1157.58 217 199 203
-114.089 21.5554 1028.7 200 148 108
-77.8083 222.812 1072.03 241 205 174
625.464 -130.464 1157.02 138 144 134
361.031 -248.401 1176.35 181 159 152
-244.885 239.288 987.853 250 240 232
-279.492 210.627 1014.57 134 84 71
546.376 71.1391 1223.12 142 140 125
-228.399 261.285 1154.99 114 120 115
543.607 26.4552 1186.12 228 205 199
-240.233 254.622 1056.61 250 239 230
-334.991 33.8504 1020 140 128 104
-375.243 39.6533 947.391 74 46 28
-176.55 149.245 1139.66 192 168 143
-75.7516 238.259 1119.54 154 109 88
-254.721 250.965 1010.24 246 227 237
-163.157 -6.18027 978.192 131 58 28
513.421 239.246 1351.71 104 144 152
343.56 -238.186 1228.91 52 56 50
524.196 89.3507 1244.66 254 253 250
479.919 67.6382 1139.06 246 237 200
-181.125 362.16 1101.72 107 94 77
1174.11 -294.608 1867.28 74 73 69
630.606 -119.657 1121.9 215 246 220
-305.859 9.77041 1005.5 211 166 151
-291.917 223.802 1065.26 162 113 103
479.076 -41.2846 1156.52 165 139 125
-338.359 122.526 1022.96 132 105 98
-303.654 356.395 1172.15 79 70 60
-156.864 286.595 1207.55 160 158 168
582.935 -24.3042 1232.69 155 125 111
-143.527 276.189 1106.27 240 235 224
-243.324 431.099 1099.52 59 57 50
-288.494 358.836 1067.45 140 140 122
-239.965 275.521 1082.26 216 218 189
-184.426 76.3796 998.88 149 90 57
459.886 -17.3161 1175.65 228 226 218
565.973 -19.0314 1186.75 247 238 221
-126.869 476.209 1136.56 101 143 124
402.791 -178.306 1009.15 115 117 114
350.71 -169.572 1030.19 140 137 138
420.812 -95.0074 1146.8 238 241 241
-220.847 475.48 1144.1 113 111 108
-290.859 81.6559 972.762 181 131 106
-119.052 67.4866 1012.94 248 222 202
-146.31 330.913 1033.94 63 56 54
-322.266 30.0073 977.373 214 219 202
-314.527 227.69 1046.78 142 68 50
576.052 -64.6798 1161.19 247 250 244
-286.289 41.0241 951.259 238 218 216
409.144 -1.29236 1106.63 192 194 196
671.959 -52.7408 1179.61 197 213 190
-153.903 185.042 991.756 244 224 213
-281.994 29.9129 935.27 254 244 239
-58.553 185.534 1095.19 233 217 204
731.433 78.1617 1292.81 191 197 176
-297.228 25.4935 987.365 149 66 62
-356.05 35.1755 1059.87 125 118 101
447.842 -132.233 1070.68 143 147 131
584.314 94.7613 1196.63 252 251 227
-133.893 31.0047 1049.13 249 227 198
-102.545 377.563 1197.8 164 171 172
-327.873 30.6698 960.449 246 225 218
-208.727 345.526 1071.27 147 159 135
-308.906 36.0226 1044.91 248 190 172
574.804 -228.122 1054.02 216 219 199
422.962 26.2787 1177.99 240 238 239
665.998 326.594 1442.14 185 210 226
603.199 -65.1703 1070.95 220 238 226
-81.3281 285.534 1120.95 241 172 145
413.941 -294.049 1287.42 157 142 132
-261.884 36.5776 957.119 251 210 191
-130.544 59.5981 1028.13 252 188 170
464.831 -107.568 1102.61 193 168 133
418.297 -11.0392 1126.1 179 159 150
-98.6173 189.832 1065.85 179 101 88
552.663 320.753 1393.29 94 130 133
473.9 -282.844 1294.04 202 173 161
725.032 -122.164 1279.51 239 245 223
-131.49 32.0051 999.646 214 190 155
678.333 69.6723 1202.68 175 179 161
424.235 -269.556 1233.23 154 125 121
333.664 -286.667 1290.81 52 48 38
-86.5984 198.642 1114.85 199 127 112
-319.728 80.9351 964.966 214 172 154
507.504 230.21 1328.73 67 103 96
-345.113 46.6252 996.288 244 239 240
569.69 -66.9665 1127.6 231 227 206
652.786 -232.515 1197.43 71 97 89
377.09 25.3514 1025.81 240 237 241
-353.367 146.835 1042.9 102 69 35
-190.534 -14.1567 947.192 215 187 178
391.498 10.769 1082.4 169 163 167
561.518 -63.8984 1175.11 255 250 231
-176.402 382.923 1234.27 177 181 152
-125.438 -12.4573 1117.08 162 106 62
357.379 -83.7069 1041.22 71 50 39
626.35 -103.211 1124.13 140 152 128
373.056 80.4205 1411.21 84 78 69
513.811 252.823 1352.65 176 202 206
406.419 -201.883 1103.32 114 116 99
-318.973 42.9343 943.008 245 237 231
-78.4698 226.896 1118.3 167 113 80
620.239 -175.75 1184.13 146 143 140
-190.338 236.033 1021.3 158 113 106
-232.727 -43.7892 981.708 117 96 85
540.794 79.6779 1192.45 227 224 198
-95.872 139.419 1063.69 251 206 180
-120.184 -59.678 1025.24 219 205 182
459.736 -55.791 980.305 234 197 169
-66.4157 146.47 1047.84 235 198 164
-111.329 125.656 1059.58 243 206 175
