-56.5929 51.541 1187.61 255 247 216
-49.9588 526.735 1246.12 26 32 37
251.243 -29.1309 1591.4 252 236 223
-98.5089 462.763 1231.78 222 226 226
263.421 442.031 1880.89 217 237 239
-89.5943 458.992 1175.48 228 205 180
-66.6818 511.153 1351.51 206 209 204
123.163 279.229 1819.87 249 253 234
44.8159 206.767 1441.24 26 20 19
270.633 369.776 1868.27 63 78 86
-19.3038 66.8119 1253.87 111 71 49
-200.676 123.108 1131.3 172 148 134
-25.5124 60.5374 1252.1 123 48 44
-116.475 360.597 1205.81 121 116 113
-189.982 145.095 1087 196 190 173
-132.632 235.018 1105.95 30 22 16
-81.2049 529.614 1183.85 237 231 220
-89.6337 326.716 1120.51 83 62 49
-20.457 230.413 1294.41 161 137 101
-94.9754 275.947 1116.76 244 237 212
-119.244 175.507 1060.12 229 192 182
-62.3962 43.8029 1304.91 230 190 184
-61.4262 426.295 1210.42 89 60 49
-89.5763 516.545 1236.55 175 168 160
-59.0877 422.556 1238.85 235 208 193
314.672 -34.856 1909.45 237 230 216
-40.7282 524.489 1248.09 96 104 119
-23.6675 223.795 1293.13 255 246 217
-67.8972 360.96 1177.9 110 105 107
-185.428 174.064 1163.75 190 170 163
-42.8559 422.095 1303.5 251 247 229
-33.0235 180.013 1174.6 110 64 43
-34.6483 225.302 1231.69 253 239 216
-30.0757 197.674 1289.44 169 124 100
243.711 0.347229 1604.66 168 143 138
-129.225 114.713 1054.66 231 182 156
-28.4954 16.7866 1334.53 75 64 38
-62.2085 512.992 1242.71 137 113 107
278.177 452.479 1885.66 62 85 91
-121.868 269.519 1160.24 118 111 99
277.883 102.176 1717 254 246 245
-33.0197 191.748 1175.4 151 124 109
-121.669 141.164 1057.77 231 182 161
332.329 533.08 2267.7 179 209 215
-124.628 257.748 1158.87 190 169 152
278.553 119.396 1720.64 248 242 238
-28.535 259.581 1235.52 255 247 229
-126.89 152.613 1102.56 198 120 98
324.173 317.465 1973.5 103 98 90
340.824 127.383 2053.24 252 249 250
-132.54 121.297 1090.12 106 38 19
19.2134 281.693 1372.7 109 83 77
-13.9909 259.978 1298.32 255 251 240
-23.6161 279.086 1297.67 96 73 63
381.869 95.6412 2328.19 249 246 243
173.536 278.471 1731.51 43 55 46
-78.0387 448.021 1177.18 233 226 216
-129.175 104.244 1054.1 255 237 218
-65.2547 503.303 1241.56 158 158 153
241.183 50.795 1700.3 247 218 201
-59.1094 450.671 1240.35 193 190 187
289.259 59.5107 1709.9 255 249 233
363.118 85.1569 2206.82 146 128 120
120.13 -176.366 2208.37 224 225 219
-30.0822 184.772 1288.31 255 237 216
238.268 85.2723 1496.41 179 158 154
141.605 -94.0466 1561.32 85 87 84
308.27 35.9949 1799.73 255 250 225
-104.3 533.076 1178.6 152 145 133
-10.7577 266.654 1299.59 197 186 186
-56.7676 366.904 1202.05 255 250 247
-68.1088 344.122 1232.16 252 237 215
-113.957 46.8059 1256.01 200 192 193
222.761 -3.36348 1471.32 130 110 102
-37.8766 35.69 1247.72 114 100 74
271.795 61.2677 1891.92 222 192 186
-89.287 379.794 1229.35 244 230 236
-94.7892 209.057 1113.14 140 113 109
281.747 -16.3344 1692.51 234 224 218
335.535 118.172 1944.18 138 119 112
313.638 74.4636 1816.2 255 252 246
342.873 515.336 2263.65 150 170 171
-95.6767 59.9568 1152.34 115 76 60
-95.9808 143.175 1158.16 165 148 151
-17.1612 295.752 1300.45 148 141 122
-19.6459 66.4736 1409.66 186 98 69
-28.5424 247.193 1234.64 248 244 224
-118.767 130.901 1103.12 251 246 235
14.2677 529.465 1372.86 109 107 107
-147.941 195.425 1121.58 91 46 34
-91.9732 325.734 1192.77 148 97 77
-120.577 146.12 1125.79 144 108 96
208.768 104.408 1532.74 132 125 116
-54.6362 317.829 1169.25 227 195 192
-115.747 123.883 1033.48 93 81 76
-38.1979 563.626 1345.05 28 26 46
-121.985 138.54 1143.38 232 237 231
-99.8867 444.364 1202.68 228 219 215
-89.704 360.455 1122.08 185 144 129
-87.4062 300.266 1030 134 132 117
-37.8546 219.4 1258.79 232 219 212
-104.307 279.1 1091.43 249 255 249
207.94 385.777 1961.13 58 80 82
-71.8165 392.361 1126.12 149 121 104
177.471 432.89 1861.64 32 40 39
-73.0895 63.0802 1157.58 201 188 165
-25.5479 170.235 1229.5 164 110 91
-100.328 244.968 1113.9 241 221 195
403.037 203.358 1955.18 252 253 226
242.767 24.8345 1793.73 175 152 145
249.528 31.167 1662.45 175 138 129
206.095 22.7787 1404.56 88 82 77
-14.0113 246.942 1297.24 194 171 159
341.177 61.0908 1819.07 171 145 140
-73.8856 494.037 1269.02 214 203 192
-93.0266 55.0662 1059.18 238 196 180
-68.3248 524.922 1241.86 139 121 114
-60.1534 322.008 1217.73 87 71 61
-236.977 292.424 1154.59 88 38 23
-127.113 199.38 1105.23 162 135 114
301.707 195.53 1836.46 186 181 156
-79.4633 374.912 1176.01 251 233 214
-55.0028 382.684 1263.93 174 153 146
-103.616 360.521 1144.3 165 156 157
-92.2767 287.292 1117.95 233 200 177
-102.054 261.87 1164.45 130 93 66
362.235 -39.6057 2033.46 247 224 200
-122.278 322.95 1333.01 206 187 166
365.952 12.4031 1928.85 255 255 235
-53.3912 319.248 1260.07 213 206 199
-121.294 137.521 1170.87 251 243 232
-75.9229 338.887 1124.12 182 183 180
-90.6663 192.256 1088.21 166 129 127
-131.538 162.539 1124 229 188 173
-96.2167 212.655 1162.73 222 165 145
378.121 127.913 2061.96 251 240 227
268.225 110.183 1813.1 55 29 27
-122.683 59.3023 1291.3 111 87 65
20.1618 318.617 1447.84 255 251 225
-99.6563 250.964 986.475 252 251 235
-76.2024 178.55 1165.05 250 220 198
-81.1614 412.517 1293.73 205 159 148
339.043 -151.39 1756.44 88 89 81
15.2026 165.558 1263.4 207 179 144
-57.8414 60.2097 1244.47 198 135 120
-107.182 125.606 1154.37 251 244 231
-103.434 268.665 1040.63 158 128 120
313.995 -151.918 1666.88 179 201 208
-87.3702 383.492 1077.84 243 247 249
-104.136 149.408 1129.65 175 182 173
11.4706 140.783 1293.48 255 237 207
-95.4365 416.374 1150.1 152 144 141
-94.3053 533.972 1210.27 152 138 121
-21.179 197.756 1202.98 198 149 127
-91.6132 136.205 1184.4 254 250 237
-73.7795 437.577 1180.34 218 215 213
-136.976 335.261 1184.89 222 217 208
-139.859 92.1725 1095.9 214 194 169
16.2978 290.963 1337.53 188 161 133
-137.071 90.2151 1042.19 134 104 76
275.42 -5.87711 1692.29 202 210 212
-113.691 345.935 1166.56 237 236 230
363.546 -138.375 2165.5 62 45 41
-17.2756 211.075 1293.49 203 163 138
-55.8775 236.71 1227.74 186 166 154
370.329 131.308 2035.42 176 155 144
-109.813 514.296 1152.86 60 44 24
-113.671 340.077 1166.24 178 180 172
17.8713 159.909 1435.85 252 226 186
303.753 98.2634 1686.68 166 142 123
-105.704 230.796 1111.91 189 145 128
-289.457 32.865 1381.25 87 66 54
252.11 95.0222 1702.62 110 89 87
197.661 487.198 1875.77 63 82 78
234.977 -146.436 1985.31 124 107 102
-87.5074 149.195 1160.5 254 244 233
