-199.938 372.209 1099.68 16 14 14
-194.709 400.717 1200.53 234 230 226
-242.926 346.142 1090.21 235 241 237
-72.4404 133.674 1104.24 54 19 1
-217.759 385.846 1186.8 239 235 231
-57.2119 189.732 1154.42 44 23 20
-167.8 333.661 1149.07 223 212 192
-146.206 174.961 1131.93 254 246 219
-213.91 373.4 1144.48 93 83 73
-156.67 140.602 1125.43 254 232 213
387.669 -116.518 1161.28 222 214 212
-166.704 310.004 1105.58 249 253 234
-171.176 39.3665 1028.19 82 56 52
521.537 -21.0786 1319.43 248 233 228
-179.423 -15.1023 1023.77 230 208 193
-135.057 159.122 1179.63 125 83 65
441.123 -129.583 1296.29 247 243 242
394.142 -58.747 1216.71 65 71 69
-58.7573 209.202 1159.72 248 236 227
-43.7174 31.0595 1095.1 255 238 218
-303.648 70.5382 1034.8 223 234 226
-114.013 169.058 1094.88 236 222 202
-221.777 315.812 1048.11 65 57 58
-191.775 317.865 1099.58 252 243 232
415.629 21.6034 1251.34 253 251 250
551.252 -37.6328 1398.78 226 205 208
-207.209 381.24 1146.88 106 104 108
-278.94 161.633 1054.57 51 19 19
617.225 312.646 1511.22 65 72 82
-266.318 146.754 1050.54 114 78 72
-251.277 203.269 1028.79 190 158 130
-206.237 378.781 1239.97 251 241 229
-236.62 361.702 1092.5 240 224 209
367.216 -231.552 1275.68 233 234 226
-179.624 -11.6407 1061.14 89 67 55
-157.74 158.369 1173.78 237 199 182
521.289 246.446 1494.98 29 76 88
-126.816 138.264 1086.71 255 236 195
-239.867 271.418 1041.52 144 128 127
397.287 -13.7356 1225.6 16 16 15
-165.516 43.3965 1033.49 118 74 68
522.333 10.2463 1349.24 255 246 242
-230.495 279.175 1219.68 245 222 215
478.977 8.35716 1327.64 236 214 222
-138.815 107.349 1085.78 223 194 173
-142.523 188.396 1137.18 249 238 223
-240.093 279.428 1042.64 132 112 104
-136.261 112.854 1087.11 112 72 54
368.159 -181.525 1193.38 134 131 126
-188.953 316.197 1062.43 110 99 95
-168.108 250.721 1139.74 123 109 115
-195.069 287.967 1094.36 71 78 74
-175.375 54.2226 1068.53 95 63 57
-199.487 292.678 1133.05 255 248 242
-140.514 138.253 1175.6 220 183 161
531.034 8.32765 1326.34 110 85 69
-168.485 122.814 1166.51 206 180 158
-199.909 341.126 1135.93 130 117 111
6.12928 398.556 1325.87 77 72 59
-219.304 271.029 1086.02 242 231 229
469.419 -66.9195 1397.71 104 57 56
-191.66 416.243 1157.33 38 30 25
556.977 -243.149 1220.53 183 195 185
-75.9318 33.61 1088.95 255 243 234
-241.591 362.824 1133.68 125 111 104
-232.905 380.387 1139.98 137 119 96
491.729 5.09785 1326.64 237 215 208
480.139 215.999 1343.02 186 219 228
599.243 -0.36098 1228.65 211 239 219
-99.5349 21.2294 967.529 250 225 209
-126.931 164.268 1135.45 63 43 31
-41.022 39.2397 1096.52 255 231 206
525.247 14.1736 1279.01 120 99 91
-56.8725 49.2695 1137.56 252 238 208
484.985 -115.947 1250.85 252 249 226
457.572 -123.32 1297.34 205 190 190
413.166 -88.4599 1211.16 251 251 253
-47.6691 16.2822 1180.55 255 249 223
503.744 -133.556 1320.23 229 206 176
-139.509 162.055 1092.84 126 97 75
-276.787 82.8338 1045.45 132 113 101
-234.261 466.448 1197.61 53 53 48
-232.3 408.795 1144.52 225 208 205
-56.549 -122.315 367.503 136 125 118
469.385 -8.22305 1407.17 116 98 102
-235.23 365.419 1137.25 209 197 181
-209.825 288.502 1127.65 125 113 112
450.021 -109.751 1268.96 246 245 243
-147.536 156.697 1131.26 110 54 49
-272.734 202.007 1061.59 215 197 173
562.753 -279.361 1346.94 77 100 91
-242.673 337.661 1088.92 248 246 238
441.415 -205.709 1145.42 150 146 138
-229.01 299.169 1125.85 255 220 214
-275.476 212.587 1062.11 253 252 237
-290.337 65.6942 1080.32 136 134 133
420.825 -21.5417 1240.19 239 227 223
-25.3909 383.219 1239.69 223 224 220
527.7 212.808 1587.04 173 182 185
-121.177 135.969 1133.58 151 97 61
-28.7889 84.7124 1106.06 253 247 233
-192.45 384.678 1104.21 116 116 111
-262.736 77.1218 975.613 85 58 47
669.727 22.1164 1369.39 127 151 136
-18.2111 138.497 1203.24 255 243 240
-241.063 128.263 953.791 234 212 197
-253.872 268.082 1118.06 107 86 64
-318.883 41.8592 990.666 226 210 189
543.752 -274.774 1292.92 159 175 171
-170.23 51.6123 1069.54 246 215 213
-88.0839 159.809 1144.03 126 96 76
482.092 -63.0462 1310.59 255 254 228
-123.182 -1.24583 1075.24 147 83 70
-107.777 187.864 1142.73 154 138 117
477.719 -40.525 1316.01 251 240 222
-133.534 -6.54022 1072.4 96 62 49
-169.611 82.4289 1075.02 173 146 144
-13.5875 -58.9859 172.918 161 164 162
-114.888 -12.8895 1038.59 126 53 29
435.978 -202.927 1146 49 42 33
550.23 136.485 1313.64 118 121 116
-106.418 26.826 1082.56 201 152 138
383.169 -96.7186 1164.74 255 252 246
-183.243 -14.9673 1126.39 95 58 40
648.326 27.7948 1324.34 202 225 206
501.327 -63.0297 1310.01 253 244 229
-133.961 331.175 1201.25 251 254 232
-131.779 99.0078 1126.8 133 76 52
-174.357 -27.3633 1060.93 169 147 148
429.993 -52.4584 1333.58 194 182 173
482.548 185.253 1423.67 54 50 40
583.399 341.38 1619.47 107 137 144
-270.567 76.8611 1087.4 162 117 114
-167.878 407.834 1161.82 82 59 49
-178.626 -17.4431 1102.45 211 195 173
-24.2076 102.264 1197.05 247 236 222
623.813 40.7331 1273.39 198 204 193
518.033 4.69477 1276.99 244 218 206
-209.349 232.819 1036.12 128 69 58
-137.403 312.182 1113.4 140 130 118
-209.5 294.022 1091.69 254 236 232
544.229 137.442 1307.45 245 243 227
327.422 -206.937 1280.05 49 51 46
-122.583 300.319 1151.71 211 202 187
-251.959 260.383 1075.26 195 193 170
532.356 -40.5036 1314.22 203 172 174
-309.316 111.626 1036.86 229 197 191
386.47 -82.4678 1211.98 64 48 41
-77.7845 380.653 1170.94 49 32 27
-296.765 80.9821 1037.83 122 86 81
398.164 -255.227 1317.48 199 172 163
478.989 205.559 1340.03 167 206 227
-275.54 189.978 1018.77 255 251 232
-287.447 293.459 1204.21 129 139 120
-235.636 115.923 1101.66 251 184 164
386.073 -88.3744 1210.85 163 135 128
-244.382 286.271 1118.98 212 186 187
492.543 218.375 1421.9 41 84 97
-278.391 63.0845 999.906 122 111 110
-103.519 14.1069 1041.09 151 88 64
-217.069 94.3573 1104.47 238 209 197
535.703 -187.602 1233.32 56 50 46
-54.9575 87.7759 1181.29 254 249 228
-99.9183 361.839 1130.57 199 206 176
-212.355 -6.2799 1053.44 237 217 215
-147.414 140.37 1042.89 238 222 204
528.583 128.922 1257.59 209 203 193
576.507 91.8148 1396.7 239 237 214
481.084 281.743 1404.76 133 170 184
657.978 316.532 1615.66 105 125 144
-80.025 286.977 1122.64 255 240 226
-26.9498 -73.9783 199.137 156 148 142
-288.1 76.4986 1082.12 232 228 220
-59.6999 60.5427 1138.34 193 127 87
-124.229 209.358 1136.93 144 125 119
-22.5229 370.377 1208.19 131 129 121
-151.442 264.375 1103.35 169 180 179
563.021 5.35176 1373.74 239 198 196
-328.695 120.681 1119.16 232 223 214
543.213 238.223 1456.71 92 117 126
-102.63 362.634 1087.2 191 185 163
-289.905 203.407 1089.66 247 238 215
-248.921 238.684 1073.39 125 64 48
-62.796 82.0117 1056.24 255 247 234
385.741 -184.456 1192.98 153 157 153
-60.8141 400.469 1186.81 46 51 64
-257.981 354.452 1174.93 202 197 203
-293.029 64.3515 1038.26 242 225 218
-71.8895 49.3576 1054.76 233 205 182
-130.158 303.152 1157.03 157 154 140
422.835 -104.48 1106.71 244 236 206
-205.458 57.2071 1051.1 255 236 221
-149.565 128.855 1086 130 89 64
-202.297 321.968 1233.62 201 146 137
-119.884 312.213 1153.66 207 201 179
-302.687 132.594 1040.86 224 217 210
393.116 -73.6089 1213.81 161 137 136
-199.696 265.108 1089.32 251 240 238
-225.19 256.086 1119.88 230 198 181
637.882 -27.6957 1310.44 199 217 203
-135.967 320.567 1158.06 230 220 207
349.46 -174.764 1128.93 141 138 128
-232.841 59.6184 948.399 233 209 202
-244.11 53.187 978.557 128 118 110
-304.26 166.847 1087.92 236 236 234
-311.844 92.8221 1027.41 246 215 203
359.568 -228.078 1370.74 11 12 15
538.627 -4.78566 1372.38 133 115 106
-245.511 256.011 1001.9 203 198 196
-74.7478 19.599 1127.43 163 146 111
609.152 -124.094 1321.81 242 234 204
516.901 -163.62 1285.9 185 181 169
452.756 85.0887 1345.95 141 137 119
505.277 285.097 1404.32 126 158 164
507.372 282.27 1442.58 119 154 154
-265.128 60.8709 1045.25 169 143 129
-131.916 189.979 1098.39 96 72 62
-51.3659 100.497 1144.92 252 239 220
-255.647 74.0492 1049.17 158 107 103
-221.762 70.0472 917.721 225 222 202
421.797 -216.264 1278.2 169 161 141
710.307 -253.912 1439.09 125 141 117
570.961 -163.822 1191.18 239 253 230
392.235 -234.582 1274.98 205 154 137
510.175 -173.05 1237.75 114 107 95
-83.0759 282.154 1159.2 239 239 230
-95.2383 229.645 1198.34 254 254 231
505.828 0.609415 1468.69 126 121 120
383.989 -96.7443 1147.02 255 253 251
-224.321 63.0573 1020.63 255 236 234
602.348 -28.2472 1256 235 250 242
-205.759 335.797 1022.63 129 103 82
340.727 99.6811 1506.4 65 61 54
-12.873 163.691 1161.89 246 212 189
-199.824 -8.91848 1056.39 186 172 163
-266.414 252.915 1112.1 133 96 73
-180.473 282.282 1281.5 153 139 140
510.304 -27.3056 1400.36 224 223 220
535.307 56.9836 1389.09 252 251 239
-12.1979 156.815 1206.97 234 217 198
-194.802 -8.94399 1057.65 207 194 177
392.364 42.953 1016.54 168 168 162
527.385 54.2369 1291.12 255 255 240
609.037 -222.377 1248.37 199 219 191
-47.9 161.854 1200.22 242 233 214
434.743 -250.335 1352.75 59 23 34
419.991 -79.359 1259.52 173 150 155
-421.242 -204.481 913.738 58 74 68
-74.4137 269.943 1120.95 251 254 255
-276.806 172.378 1056.58 109 77 37
-15.5464 136.431 1073.59 239 220 180
-198.267 269.179 1134.24 173 141 136
-104.936 9.40054 1080.29 134 66 39
-80.7045 308.504 1205.78 187 177 156
388.691 -240.631 1273.82 94 47 38
548.845 -215.22 1182.31 94 111 97
476.938 -32.9479 1269.24 224 209 207
-213.565 443.301 1303.07 48 48 44
-44.5175 248.35 1168.74 169 166 150
489.635 74.0038 1300.63 231 226 201
-308.34 -195.173 808.191 75 87 78
-68.044 71.6517 1094.68 254 214 188
-155.201 86.5381 1076.67 194 161 162
-220.514 293.87 1176.56 237 234 231
-248.499 84.621 1052.17 236 227 222
466.607 -152.181 1243.72 153 150 135
483.418 -108.218 1214.16 228 214 193
583.104 -236.212 1265 181 211 194
-162.328 82.2091 1162.97 195 155 146
519.891 -132.51 1292.84 237 213 192
-51.3132 72.0053 1141.46 236 183 150
348.988 -91.2699 1046.5 198 202 202
-101.148 214.352 1105.5 240 224 197
578.862 230.408 1523.28 146 178 184
422.641 -85.5041 1258.24 182 169 177
-146.523 378.394 1121.89 154 158 130
-146.061 259.106 1104.01 238 233 231
9.69492 241.161 1148.6 222 206 192
-115.795 372.222 1083.78 144 127 104
603.044 -41.4345 1479.29 102 79 73
-59.8166 103.193 1143.48 254 249 231
353.745 124.439 1320.43 75 67 63
459.836 -59.8549 1311.81 213 176 155
-65.3937 91.7036 1140.91 251 209 201
427.388 81.7093 1185.41 196 193 169
-95.358 466.587 1323.15 12 17 29
353.751 -246.445 1350.46 185 155 164
304.012 -228.248 1275.39 75 60 51
440.019 22.6011 1382.12 115 111 102
-101.861 -59.5545 1073.91 57 52 44
431.883 -249.604 1271.26 178 157 163
553.678 -197.14 1307.76 127 117 104
3.06675 218.479 1218.47 255 230 211
650.09 91.4249 1391.49 207 213 189
1.82482 217.482 1173.23 252 218 194
-400.73 -7.79679 1176.98 55 39 28
564.097 192.4 1424.7 148 192 189
349.083 13.3053 1114.98 128 102 97
-69.432 64.5686 1135.28 254 196 169
5.02896 25.4062 -100.621 143 154 147
-314.375 138.344 1106.43 221 204 199
