-248.28 337.895 1076.79 255 253 251
-269.143 343.226 1080.9 24 20 19
-217.516 116.145 1011.09 250 214 203
-251.5 315.206 1041.76 252 252 246
-262.596 301.218 1069.23 15 2 2
-185.121 113.303 957.347 229 198 170
525.862 -193.277 958.816 218 228 222
-172.567 147.015 985.097 249 239 222
-194.159 107.605 990.581 251 232 210
540.888 -62.584 978.029 19 27 13
366.298 -102.643 1002.18 239 235 231
-71.3582 324.527 1077.1 52 50 43
435.106 22.4121 1103.11 255 245 240
-196.766 139.089 956.357 251 245 225
-232.572 24.9603 963.782 49 19 14
-197.693 85.4642 975.514 252 228 210
377.558 4.34836 1053.39 243 234 236
-252.843 312.879 1073.14 229 219 209
-219.6 92.2057 982.969 216 182 159
-129.676 116.715 1006.56 82 37 25
373.879 -102.693 1002.52 248 243 243
-207.284 121.518 975.305 249 206 191
-225.535 33.661 914.106 79 49 42
459.765 -2.1348 1023.5 225 208 205
379.377 16.1849 1061.41 234 225 223
-24.6593 313.599 1097.61 211 199 183
585.507 -18.7967 1056.53 27 47 39
366.747 -224.44 1063.4 229 211 202
-329.646 56.4501 915.169 56 55 47
546.088 -207.103 991.528 226 238 225
-137.146 120.907 1030.7 101 78 59
-186.414 122.162 980.361 106 63 30
455.737 -85.6661 1007.49 253 249 242
-100.875 21.4293 969.108 251 245 218
454.292 21.0608 1100.19 245 245 225
-194.418 132.037 956.431 77 55 35
-246.343 270.359 999.963 251 240 225
-228.974 32.4187 941.095 226 201 187
479.054 -219.515 1027.14 199 205 193
-113.446 13.222 1052.58 255 249 213
-232.518 331.533 980.638 195 182 181
-269.368 370.868 1119.55 172 167 168
572.037 -140.121 995.687 209 229 217
-198.788 102.551 989.035 116 73 49
-217.431 108.627 1010.62 143 102 76
-222.033 262.956 995.594 212 217 193
-199.449 154.362 992.953 253 243 230
-241.803 189.538 984.653 255 239 236
-181.263 260.664 1045.49 253 253 240
394.62 -92.9966 1004.58 240 233 234
521.856 240.075 1277.95 139 180 217
-104.077 10.0777 1013.05 249 236 215
-259.546 388.835 1092.38 52 57 54
-240.6 234.212 973.427 254 246 238
380.25 -47.6694 1047.06 241 223 219
605.634 -134.454 1038.34 243 255 242
-117.392 165.372 1038.2 107 67 48
-263.864 -21.5944 918.419 217 196 188
-206.123 169.57 1017.44 87 76 65
-172.152 261.14 1008.18 218 200 177
365.199 34.2353 1018.2 213 204 206
-198.664 92.7206 988.296 53 18 3
-123.623 334.118 1065.94 67 51 45
-88.2192 72.7091 998.894 255 242 215
-302.384 163.016 929.96 218 193 156
-318.576 113.518 957.127 76 53 39
551.54 -116.274 1002.73 168 174 157
-181.537 -23.688 956.92 75 6 4
342.795 -48.4992 979.417 225 205 201
-227.239 213.596 1029.31 129 108 108
464.19 22.7877 1060.11 244 227 215
-207.462 461.532 1112.73 28 30 26
-83.8487 63.4801 923.32 254 246 224
-345.776 54.4963 919.431 112 99 87
637.557 44.4409 1098.94 234 236 232
-325.522 56.5318 916.383 78 90 79
450.065 -94.5099 1008.65 235 222 197
-279.25 315.996 1023.61 160 123 111
-231.505 -28.6632 925.964 183 171 149
-238.078 -21.7779 924.709 98 76 67
-47.3816 230.916 1073.82 255 247 225
-350.502 78.5835 910.27 253 236 228
-252.315 208.882 956.527 231 221 209
-333.635 49.6251 913.584 225 210 205
-224.912 60.4763 943.948 155 131 125
-249.417 245.822 1026.02 132 121 118
513.379 32.0966 1103.93 85 82 74
-173.61 104.053 959.42 127 70 32
378.809 -82.7141 970.071 242 240 241
-331.659 126.904 942.64 95 63 47
-122.494 178.11 1037.92 238 235 203
-327.109 54.4782 977.482 51 60 44
-182.436 75.3257 955.3 118 67 32
-312.802 247.039 1035.53 111 89 95
-291.147 235.431 1040.95 134 116 114
668.846 -137.807 1143.93 236 255 238
485.148 -21.6411 1054.73 245 226 221
-75.4781 115.596 1018.09 248 241 217
466.481 29.7525 993.794 72 54 43
-246.795 256.392 1069.46 139 134 128
-106.298 184.929 962.443 223 217 202
-241.084 288.669 932.708 247 245 233
-211.666 99.6408 972.962 219 180 162
-188.9 139.78 1019.76 68 47 27
-249.57 243.598 986.732 96 96 88
-277.079 259.974 1046.68 255 250 235
584.696 303.084 1244.68 81 103 114
-105.458 26.8969 1032.12 254 245 222
-277.972 245.226 988.238 248 232 221
-146.787 133.806 1004.06 89 61 31
-253.17 -21.6733 921.057 186 176 162
-190.15 268.327 1070.49 110 122 100
-269.434 236.811 1047.17 250 247 248
378.921 -69.935 1011.78 232 228 231
-296.304 234.963 1011.63 233 228 224
-283.243 221.645 975.66 155 147 144
-105.063 92.1257 1009.88 146 87 46
-218.49 79.3585 946.823 248 196 182
609.572 -199.16 1028.33 235 250 239
474.809 -43.9258 1091.67 222 198 184
-137.889 21.3655 968.272 251 243 241
658.48 -54.9492 1131.25 214 235 217
-172.023 160.778 1025.23 129 107 95
-300.571 215.174 995.176 114 62 37
-264.356 64.4882 933.988 242 227 220
431.702 -252.064 1099.03 71 51 35
-274.052 294.365 958.257 246 239 220
-318.347 167.106 933.326 255 254 237
-183.154 174.99 998.657 137 126 121
-303.349 244.847 996.324 145 151 145
404.656 -248.886 1102.79 177 148 139
-354.259 137.059 1025.23 143 99 73
477.55 205.902 1310.78 33 33 28
-113.228 176.676 988.44 234 225 210
-174.515 19.8077 998.398 253 238 216
-220.073 455.29 1114.08 35 34 31
-110.594 71.7391 971.004 245 196 169
437.724 -22.411 1093.41 235 224 207
477.254 32.0217 1102.69 248 217 208
375.507 -88.5588 1041.64 252 249 244
-244.019 184.474 983.666 155 150 135
-314.303 312.551 1085.25 247 252 252
354.087 -47.3171 980.336 141 125 116
-112.456 67.3903 993.547 242 212 178
-300.91 213.224 969.918 203 185 174
-117.211 55.0418 991.753 235 196 180
-294.097 279.778 1057.9 255 239 202
-55.2459 198.068 1069.09 221 209 184
-141.621 335.437 1061.72 152 149 149
-47.803 227.226 1100.59 238 217 196
580.649 -47.0997 1013.77 211 236 223
546.288 274.02 1231.96 111 154 154
460.208 -132.171 1001.46 166 156 146
-301.646 59.7913 931.463 233 236 228
-131.459 37.899 964.047 230 221 205
-105.317 135.006 1013.48 240 222 206
576.438 -110.376 1004.89 220 236 216
-314.09 301.626 1084.44 252 253 253
-133.511 17.455 1007.29 254 241 225
-216.027 60.613 946.172 229 203 200
-55.8781 193.752 1096.34 218 197 178
-250.088 281.874 936.724 237 231 221
-322.515 44.8663 978.248 240 228 221
-281.525 41.8347 916.729 248 232 232
364.716 -61.4736 995.021 160 110 120
-43.0641 271.711 1167.25 232 212 202
442.532 -104.394 1033.21 216 188 164
454.205 78.3634 1066.9 234 234 222
-147.203 280.316 1128.3 255 249 246
336.122 -213.739 988.083 69 44 37
-309.645 394.472 1172.69 64 46 39
-47.3935 241.831 1074.83 244 207 188
439.673 103.584 1110.52 202 205 179
-77.8067 217.006 1071.67 146 95 62
545.399 -91.2133 1000.72 232 233 211
-277.419 271.254 981.169 127 115 112
300.342 -190.64 1028.63 29 31 27
447.233 -85.2737 972.349 229 212 202
414.41 -93.2809 1116.62 243 238 242
473.241 -37.7806 1156.35 224 168 152
-297.853 298.191 1067.75 244 236 234
-316.578 221.637 991.047 243 246 240
-344.601 164.217 990.748 254 250 232
-143.427 249.789 1053.93 240 238 235
-354.567 98.1138 945.02 234 218 211
-294.003 89.2763 989.024 230 157 133
-287.446 374.655 1079.27 95 75 65
-284.252 52.5207 871.701 255 235 222
-54.5858 161.947 939.644 231 222 209
441.036 -131.902 1038.38 162 159 144
397.005 0.446918 1059.53 184 183 199
-328.879 232.057 1042.57 153 160 145
472.39 25.4219 1060.78 136 116 100
-152.997 193.842 1046.62 252 251 227
-70.535 130.975 1020.46 242 231 213
457.309 204.845 1168.94 61 104 118
-253.806 201.929 968.18 117 80 82
409.23 94.0476 1038.61 184 187 161
481.502 238.738 1093.61 101 146 146
-159.813 -34.332 920.064 158 101 71
-263.541 237.173 1021.3 251 250 246
-84.4795 184.72 1046.74 174 142 129
-95.2218 218.65 939.754 255 252 249
454.36 27.0914 1028.2 255 248 233
443.712 -40.9774 1082.31 255 251 215
604.435 -147.001 1036.41 194 213 202
511.801 -19.0567 1055.74 240 216 198
463.207 16.3361 1231.09 99 98 98
344.777 -75.6223 1004.27 108 84 71
508.639 24.9616 1091.62 221 216 203
324.959 -213.789 1096.83 42 42 39
418.521 38.9472 1144.36 96 93 98
-102.426 252.078 1063.79 234 237 220
-165.609 -2.42904 961.305 100 32 3
-290.234 75.516 927.627 191 143 134
357.89 -244.412 1145.9 205 200 191
374.462 -93.9083 974.032 192 179 182
460.269 -140.951 967.386 74 69 54
-119.589 -52.9143 927.022 252 232 199
-336.652 40.5398 936.604 158 156 158
490.502 -57.4179 1014.34 255 243 227
409.522 11.473 1100.64 183 183 186
520.221 -246.587 1023.38 129 154 149
-232.453 298.182 1077.49 160 148 128
419.951 -89.8803 970.753 151 154 126
506.318 -21.6543 1055.25 150 120 101
-223.073 184.59 897.264 235 175 166
-277.449 206.459 1001.05 154 89 70
-244.764 253.915 1028.01 185 138 131
-284.594 291.299 1061.85 233 185 170
382.372 21.4457 1062.34 168 161 159
-167.981 9.44089 961.316 201 147 138
430.514 -12.6077 1058.18 240 239 239
438.224 -14.3011 1094.56 251 253 246
-266.002 242.149 1021.03 138 131 128
-354.783 126.366 973.663 229 227 228
-179.246 357.77 1097.41 102 91 68
-275.51 70.4 867.408 255 235 228
312.534 -263.795 1170.3 169 162 152
-56.7155 226.765 1197.05 221 186 167
371.705 -6.0964 1051.75 201 194 186
400.704 98.8596 1075.07 73 72 69
395.896 -199.144 1060.57 148 147 138
-255.793 71.6241 936.721 239 196 192
558.674 27.461 1186.9 94 72 59
599.691 -99.773 1039.11 231 238 218
-335.739 225.978 1119.69 168 108 80
-303.774 305.234 1102.21 131 90 82
-296.537 191.281 933.567 181 159 138
382.824 -91.5035 1031.01 170 167 169
-153.692 -71.2297 960.784 66 49 38
-211.621 232.929 1020.12 186 178 174
-319.161 32.987 951.288 169 159 150
-167.45 37.0652 1000.85 213 163 146
-68.2219 116.964 932.057 244 204 180
404.982 3.22553 1082.68 79 75 78
477.768 -159.857 964.258 145 130 124
-136.307 280.944 1131.04 254 255 247
-261.789 36.8462 932.925 248 190 164
-80.8838 276.405 1081.16 252 199 174
550.762 -9.14458 966.066 219 246 220
411.416 -37.5138 1017.31 181 158 128
502.599 -166.411 997.318 128 116 111
396.602 -225.418 1062.33 99 95 95
-304.874 199.981 992.982 142 85 59
-318.937 98.4265 982.506 122 113 109
403.629 -232.356 1063.51 143 158 151
551.239 -144.372 1000.2 160 165 160
-215.042 209.023 1032.19 167 149 142
-216.82 58.1475 981.085 167 134 126
422.292 19.3098 1085.58 243 242 237
375.943 -267.634 1095.29 121 138 128
-163.022 193.42 1044.12 240 212 179
-102.894 197.747 1111.12 175 107 81
-329.066 113.439 893.119 246 241 244
395.268 -87.3019 1075.35 152 153 154
613.158 -3.12346 1058.9 181 220 200
-260.748 228.014 982.458 220 224 225
475.204 -132.168 1001.69 143 142 141
-317.86 77.8269 954.765 161 111 95
533.639 22.5441 1103.42 151 134 114
-173.125 8.91226 1014.81 47 7 4
486.515 77.8282 1113.66 229 233 234
448.141 103.688 1111.01 175 177 152
495.047 -78.0137 929.116 170 170 133
502.257 -275.959 1098.78 20 73 85
585.953 -5.68904 1012.05 166 200 174
-182.164 337.646 1051.75 127 113 80
-325.65 35.2575 949.516 135 124 112
370.57 -76.5449 1073.35 85 68 65
-204.185 70.4355 869.363 151 98 86
526.992 -60.51 1049.96 239 241 234
379.351 -216.572 1025.83 164 140 139
479.088 -144.453 1037.36 164 154 140
-251.621 235.353 1024.5 234 217 206
