11.8497 402.983 1254.53 250 250 251
280.207 159.368 1729.88 21 19 13
29.785 50.187 1128.51 29 3 2
475.541 -114.641 1609.49 255 249 242
24.5393 460.935 1260.43 57 61 55
16.9984 407.874 1227.44 255 251 242
465.442 97.6641 1570.89 237 224 199
-15.6394 387.742 1166.98 107 75 67
-10.4313 393.494 1220.37 254 249 231
-24.3035 387.113 1165.07 255 244 229
127.803 213.387 1358.55 59 34 28
-9.82598 483.465 1254.2 243 245 239
24.8462 -8.57273 1171.86 255 220 210
-107.944 521.978 1435.16 215 215 207
36.7086 341.358 1255.95 249 253 238
71.9582 -5.76172 1180.57 84 19 1
15.5404 -5.51011 1121.62 67 46 34
-77.4748 57.8297 1062.77 249 191 165
462.565 -3.34444 1632.32 228 224 218
-121.852 513.313 1430.72 180 173 166
410.055 209.144 1976.21 253 254 244
-32.9435 359.996 1161.21 245 237 234
74.5842 1.64222 1210.97 133 26 0
17.2983 363.801 1197.28 255 251 246
4.32432 259.513 1160.98 255 238 219
65.4505 -1.33922 1209.07 111 74 65
471.156 0.670404 1633.97 51 43 40
40.4188 -8.1406 1392.37 130 81 83
122.13 425.031 1323.12 73 72 69
-27.1462 316.252 1185.26 139 121 122
-46.1184 164.663 1075.56 115 71 69
-76.4005 50.0809 1038.6 255 234 212
14.8838 368.471 1253.09 98 74 72
-31.5467 152.669 1123.8 92 43 28
439.103 -75.3845 1535.9 216 208 202
520.718 215.567 1773.51 73 76 66
-1138.11 -3.34825 1489.5 218 226 218
-56.6075 87.145 1068.84 138 124 114
58.0176 120.465 1188.88 133 84 61
-75.6479 173.732 1115.79 40 31 17
512.234 39.3787 1732.73 255 251 246
-77.0538 563.116 1527.69 181 173 159
55.0016 114.496 1187.84 244 215 189
-12.4859 290.276 1186.82 105 89 96
422.177 -29.9959 1542.94 253 218 194
-61.7929 74.2878 1112.26 250 242 229
464.842 -31.5151 1626.57 255 240 224
15.0369 343.835 1141.16 247 231 228
17.0197 264.855 1191.35 103 69 53
-67.0933 84.3419 1066.53 240 190 179
448.927 284.447 1879.11 38 60 57
452.273 336.372 1687.46 75 111 110
-101.64 456.562 1260.18 83 80 71
472.255 262.749 1670.71 70 102 121
64.3063 212.314 1272.73 115 98 86
441.402 -37.6499 1543.37 118 74 60
439.563 -67.8802 1537.4 87 77 73
79.8739 188.916 1253.15 253 249 252
60.9292 175.867 1248.39 114 96 90
55.2225 160.116 1211.37 130 87 71
559.542 -24.7853 1720.65 253 241 224
417.419 -82.5393 1459.11 55 39 32
-59.225 196.604 1120.75 88 72 70
544.593 276.332 1887.76 231 255 255
-16.8094 426.344 1190.08 249 241 231
14.95 264.265 1175.75 105 83 76
83.0785 195.281 1254.3 145 140 135
-78.1266 71.3383 1108.6 242 160 150
-22.5187 389.543 1217.38 129 119 120
-28.4819 393.861 1245.17 253 252 254
-28.6535 277.807 1171.34 91 49 19
1.62465 2.81269 1119.69 169 156 133
6.42996 1.59084 1184.5 255 244 226
416.276 14.4009 1431.95 132 106 105
61.0934 200.868 1250.51 253 244 234
-67.1496 116.118 1068.43 253 252 239
486.995 344.25 1770.47 187 233 244
29.0401 298.364 1195.89 134 110 106
17.1084 439.098 1229.94 95 70 54
49.1712 135.069 1188.38 126 89 73
-32.9674 223.01 1150.05 255 245 204
-107.05 401.669 1132.25 202 186 176
-50.4766 288.331 1178.48 117 113 102
-43.7121 99.6865 1220.21 162 158 153
8.1626 279.369 1190.46 124 122 123
66.2685 149.088 1218.69 241 202 176
70.2286 139.254 1211.8 168 124 93
60.5626 579.862 1307.18 83 118 103
13.622 317.716 1218.95 96 69 62
-79.0949 187.298 1165.52 172 146 130
477.829 -22.5678 1549.56 255 244 229
415.293 -237.699 1774.34 229 186 169
22.8838 241.219 1190.98 254 252 252
-27.5416 76.9452 1073.97 132 140 135
40.195 123.061 1185.72 235 215 196
73.2725 174.576 1178.14 255 246 233
-68.3195 95.5653 1187.82 249 225 216
-9.83821 473.987 1253.71 255 254 237
-31.4969 263.829 1106.97 200 191 171
-51.7564 111.876 1091.15 100 111 116
67.5742 210.009 1197.52 150 139 132
430.939 -14.7446 1546.69 239 213 205
380.808 -196.031 1678.37 43 38 39
505.298 -9.47823 1633.34 246 238 236
51.0347 441.656 1237.19 247 248 251
477.915 -82.025 1592.14 240 237 238
524.202 -25.1494 1594.49 152 135 120
318.926 -151.929 1585.82 23 23 16
446.759 318.789 1682.79 77 118 125
533.204 24.4478 1737.98 252 249 248
-16.3866 464.466 1224.6 137 110 82
-14.6544 303.062 1136.17 247 254 246
-41.7608 306.538 1181.5 116 113 113
488.79 23.5483 1559.37 126 102 102
-69.7346 97.5506 1066.78 228 174 159
67.1129 577.143 1308.35 184 212 198
492.173 -97.3058 1617.89 249 245 243
124.476 227.699 1344.08 156 133 106
-28.9409 58.4693 1030.43 142 134 128
-167.955 47.8439 1161.71 153 128 116
606.45 -165.913 1687.11 249 249 236
372.752 -183.698 1679.39 60 62 61
-84.8022 190.051 1164.4 200 183 170
-86.262 464.473 1264.64 85 78 72
80.224 568.322 1310.41 155 179 167
61.6802 128.598 1238.18 235 188 170
-150.636 520.863 1503.25 42 31 19
-28.6151 355.681 1180.1 253 251 254
-12.2971 253.579 1110.14 159 113 87
94.5365 594.664 1378.76 115 141 129
39.903 354.184 1257.45 210 206 184
7.87871 422.795 1226.69 174 163 164
-42.5906 63.4468 1115.48 254 251 245
-6.02049 117.858 1149.36 255 247 224
5.70065 446.798 1255.66 239 225 217
410.281 -246.149 1771.86 106 101 90
-15.1816 411.747 1096.84 68 44 30
395.477 -23.6097 1370.78 238 202 186
-51.2996 39.5868 1066.93 254 237 224
397.227 -54.9583 1496.02 143 118 110
46.6157 456.256 1264.8 36 39 47
387.655 -37.0258 1367.41 141 104 89
528.825 -7.52955 1637 241 213 197
500.585 191.084 1675.45 93 82 63
455.226 -67.9727 1538.79 160 158 155
57.8787 188.268 1248.83 223 208 202
436.22 -79.1086 1461.43 174 172 171
-113.293 100.994 1102.82 146 124 112
-11.0611 350.811 1183.35 134 103 98
-67.1817 134.731 1069.51 156 128 110
465.222 37.2087 1641.05 158 153 153
-38.837 194.518 1174.92 250 234 204
-21.3225 266.063 1183.44 250 198 177
526.291 70.0458 1653.43 255 250 217
78.0169 -50.5875 1287.11 90 62 42
-40.7869 76.7529 1071.36 208 197 194
-3.87553 324.122 1117.05 215 131 123
8.66561 412.214 1204.75 255 253 246
538.832 -12.0152 1722.42 248 235 228
-27.2364 298.843 1157.67 183 160 161
535.661 -50.0867 1712.89 255 246 230
-59.3523 180.336 1073.72 128 120 104
-184.004 67.5467 1132.03 96 41 20
-25.9971 136.027 1123.83 151 102 101
-78.3143 145.872 1113.46 224 195 184
27.2232 318.756 1252.46 218 184 173
2.86844 380.197 1111.6 175 174 161
610.087 -129.201 1696.68 237 245 219
-20.4565 340.017 1114.74 160 151 155
476.377 338.261 1894.67 100 125 120
610.901 -120.965 1698.82 180 188 159
-8.41921 468.58 1247.59 153 132 110
-67.5702 257.961 1122.51 111 87 83
48.7919 -26.7218 1141.04 140 110 91
-167.022 237.145 1259.49 99 45 26
405.684 329.602 1760.68 68 83 78
-25.8767 69.0267 1162.21 201 169 163
-20.555 0.0541991 1115.27 116 82 63
-34.446 461.458 1189.67 131 124 110
590.473 -107.384 1618.19 253 255 242
-20.4766 85.9212 1121.51 255 248 234
-8.94695 365.247 1307.73 186 117 101
-59.2006 177.035 1119.55 194 141 121
-20.2859 72.1489 1144.12 252 252 243
544.737 -67.6137 1624.78 252 251 224
429.078 -203.465 1374.98 168 196 191
-99.3834 549.367 1520.28 174 161 151
143.232 171.735 1263.21 255 249 224
5.24872 300.143 1191.14 169 145 143
574.867 335.074 1803.82 163 170 171
110.026 52.5253 1246.15 255 241 228
121.805 61.6245 1307.52 254 209 184
90.3084 303.006 1232.73 254 254 247
104.205 -49.5201 1181.87 236 218 196
59.5922 329.506 1229.35 208 211 187
533.849 -243.12 1688.88 186 210 203
22.4067 110.953 1181.33 188 146 120
-72.9795 207.306 1118.4 180 135 109
541.303 316.031 1796.62 158 179 176
-146.58 -42.1891 1239.71 83 76 66
-61.9062 179.12 1168.81 231 235 232
-8.8707 363.724 1313.81 255 221 212
-107.136 111.394 1153.74 96 59 56
503.515 237.922 1684.62 143 166 167
327.86 -180.968 1582.14 76 83 65
428.564 -220.974 1663.19 125 101 102
-4.15233 34.7929 1169.96 255 233 213
668.95 114.637 1876.85 243 245 215
108.247 55.536 1244.24 251 239 221
465.057 -66.5012 1703.46 199 177 162
14.5696 238.094 1096.11 213 161 149
-80.6887 36.3356 1047.91 215 186 163
-65.5166 126.028 1021.02 160 90 58
-4.42618 54.6538 1224.63 197 120 109
103.268 172.459 1315.62 189 169 157
-12.0179 -25.8759 1333.52 31 52 64
-80.2472 126.459 1066.29 113 61 46
-0.626103 485.463 1318.24 171 148 125
-23.8774 -0.067999 1027.86 211 179 159
-61.3122 159.442 1049.87 204 198 199
130.438 95.9979 1381.69 255 243 209
701.171 -171.008 1938.14 233 236 215
556.241 259.978 1887.75 136 155 156
489.871 442.746 2029.32 101 121 112
-12.1025 108.368 1124.74 246 221 216
-13.0266 100.133 1067.6 222 174 165
120.562 97.4579 1310.85 254 242 215
450.095 246.194 1772.06 83 121 121
84.5693 407.868 1269.76 119 107 92
42.9178 617.786 1369.63 111 142 129
113.992 335.393 1420.33 164 165 167
-48.5247 230.696 1145.71 237 224 203
113.823 342.708 1436.13 173 173 173
-146.607 62.5178 1224.09 152 125 106
450.606 4.74247 1632.86 89 71 65
-25.8172 430.753 1139.79 153 130 105
-70.0807 202.402 1114.57 112 81 63
604.849 -182.164 1682.89 210 212 200
