-94.2854 53.6085 1103.72 202 175 163
336.935 368.688 1990.16 225 252 252
327.238 378.746 1990.97 17 40 54
333.074 -115.876 1677.84 254 245 233
48.4374 -18.4642 1324.47 255 252 233
11.4279 396.114 1197.62 250 235 208
-88.9912 84.0769 1106.9 196 190 185
-31.526 174.499 1125.01 24 14 10
5.43126 377.648 1195.42 221 197 202
-11.8555 277.21 1135.14 59 22 14
37.9735 -30.7447 1224.75 204 203 190
11.9709 446.764 1256.93 29 15 8
68.8872 -9.56778 1232.51 156 98 70
1.74564 346.775 1119.52 235 208 201
-23.2351 87.9335 1120.89 178 101 70
115.292 123.649 1224.74 92 84 65
-12.3683 83.7685 1199.02 82 57 48
-205.421 561.229 1579.06 36 28 26
43.4437 449.19 1263.67 123 99 75
320.817 -16.7351 1698.71 246 223 223
71.3846 -60.2677 1346.14 96 82 69
36.8097 363.022 1257.24 199 165 144
2.56275 430.214 1254 203 189 179
21.6026 386.008 1193.82 254 249 235
-0.639819 308.332 1190.24 79 67 75
-17.5879 175.003 1127.88 101 73 54
36.9652 404.208 1259.8 255 247 243
-15.2817 73.6577 1094.28 242 244 242
43.3231 417.377 1261.88 255 250 235
-79.1755 101.482 1133.07 178 147 139
24.4074 409.699 1257.49 125 85 63
325.774 -91.337 1682.54 98 82 72
41.4096 374.787 1229.59 249 248 241
-19.1609 120.03 1109.77 223 183 171
-20.4265 124.367 1123.96 140 49 30
22.8111 486.906 1256.27 252 250 244
103.631 457.44 1367.67 84 83 80
53.8384 45.2217 1235.09 135 106 94
76.7758 164.533 1309.6 156 137 116
61.0056 463.617 1290.77 32 35 42
-150.745 237.66 1205.52 56 5 0
268.352 297.584 2096.69 149 171 174
326.184 -83.1804 1684.46 229 223 209
40.3333 274.785 1237.93 155 148 143
-145.044 256.148 1208.3 73 14 9
7.85121 154.148 1181.59 112 71 67
379.041 310.269 2092.13 67 105 107
41.2534 346.731 1227.09 254 238 224
7.63137 -50.6354 1273.49 163 181 183
308.708 -52.6281 1778.53 36 5 4
11.141 279.066 1190.87 131 123 116
26.24 -4.98545 1201.19 255 250 234
5.07264 332.108 1093.98 137 120 113
-106.876 55.8188 1149.57 194 156 132
391.258 16.7476 1935.18 253 235 225
70.3085 169.334 1249.5 159 151 139
18.328 482.179 1260.12 148 132 120
41.358 365.416 1228.76 225 204 191
-0.283874 79.4968 1099.6 142 137 135
136.229 25.2096 1479.28 88 78 71
288.767 -58.1488 1684.94 172 145 136
325.488 183.556 1651.78 93 73 64
55.592 335.565 1259.32 248 240 220
-137.379 44.1611 1141.61 184 144 128
-42.607 129.344 1119.78 78 25 14
14.9357 -55.6416 1401.7 61 78 81
-14.7643 197.671 1129.88 125 102 87
268.155 290.288 1959.11 61 94 84
356.232 247.803 1858.32 119 146 152
49.89 450.713 1242.04 39 46 47
270.52 -221.677 1976.21 60 57 47
77.1552 210.573 1314.04 152 136 125
7.38678 -6.35792 1168.57 228 193 178
-16.3323 170.391 1116.05 253 252 253
411.686 26.3803 1940.73 140 122 101
357.518 40.6428 1934.05 211 195 189
329.591 0.0222862 1794.77 61 33 31
188.468 -157.584 1750.11 17 17 10
305.248 -5.98009 1604.41 103 78 77
314.292 171.775 1581.32 80 62 46
2.15899 233.972 1186.08 149 130 107
-201.251 428.298 1248.41 78 55 37
339.477 11.2322 1810.71 132 110 106
73.2575 144.417 1247.89 247 216 196
-44.9137 193.205 1198.07 201 180 152
33.4725 312.25 1253.19 144 134 139
-167.752 71.8402 1136.27 102 55 31
-70.0215 100.956 1112.12 132 121 123
-152.954 516.135 1422.72 139 132 114
20.2509 -4.96871 1200.01 177 159 138
11.2334 314.99 1193.09 190 170 163
9.36348 343.156 1139.72 252 253 253
2.05831 189.446 1182.98 254 244 210
104.976 -48.2189 1332.98 238 217 197
321.704 33.5865 1811.43 183 160 145
44.3594 247.558 1180.91 234 214 207
-3.79576 63.1323 1122.94 173 155 160
1.70088 62.9878 1226.48 254 253 254
68.3164 131.059 1170.44 181 147 122
-72.5144 118.588 1270.43 99 62 53
-3.2741 214.354 1086.58 252 250 232
361.474 -20.0613 1808.89 228 204 201
-138.664 535.698 1467.01 55 26 7
378.051 282.903 1974.82 147 164 168
9.55025 97.0895 1146.65 164 143 149
375.698 -233.998 1708.5 173 191 201
49.1437 306.757 1256.03 182 155 151
-80.1456 318.188 1228.43 157 144 132
16.0353 291.945 1165.9 255 247 251
-33.014 217.618 1177.6 228 187 158
76.0178 117.121 1341.21 251 236 218
87.7675 219.146 1422.19 133 114 100
373.653 -40.2172 1919.92 220 195 177
270.808 -39.8427 1900.49 54 29 16
70.4679 191.249 1251.38 239 228 214
21.8319 307.573 1234.48 170 154 156
312.706 362.593 2097.95 113 141 137
-25.5113 44.203 1251.09 255 248 229
-28.7576 140.924 1123.4 223 214 219
246.188 203.134 1830.11 57 71 62
-71.1139 321.861 1230.79 80 59 55
393.581 19.9432 1802.14 170 157 144
-21.9121 125.958 1113.47 152 75 52
