7.09225 306.695 971.221 212 211 202
20.4398 7.98926 1078.16 173 176 174
55.8679 314.206 979.769 251 250 243
-93.4183 184.786 913.948 218 215 207
-62.0658 254.937 956.851 216 208 206
8.67539 20.278 1256.83 255 253 255
103.57 25.6507 1050.6 243 246 247
27.8643 8.66241 1173.85 191 183 181
55.2134 45.7525 1063.1 245 249 244
56.8336 -4.52188 1192.75 201 193 187
41.2642 357.348 978.553 207 195 202
-268.476 35.5602 1569.07 95 67 57
-73.0389 48.6473 1156.69 254 255 254
102.161 18.5916 1092.49 210 213 203
24.0749 296.213 996.645 188 173 164
-16.6778 28.501 1094.1 255 248 243
-138.779 102.234 1010.37 189 181 177
59.5097 301.747 966.976 249 244 239
204.38 410.912 1071.23 213 189 173
-73.0596 60.1256 1084.35 236 231 217
100.233 376.441 1013.67 206 221 214
-105.979 21.5916 1707.59 179 174 167
269.196 413.881 1141.41 213 192 185
-140.032 135.251 988.035 211 235 235
60.264 11.4833 1180 56 7 1
-103.181 21.0277 1516.81 237 229 223
-87.2477 210.246 887.961 147 154 149
252.109 539.202 1200.66 220 212 202
-72.0486 -23.4245 1618.07 177 160 147
-40.6381 98.2438 938.414 224 219 214
63.2055 43.1365 1064.33 88 92 86
-36.709 -39.3012 1797.53 35 36 37
108.014 389.749 1015.52 138 131 136
-57.4441 58.0789 1001.92 71 73 62
-19.9835 -31.7289 1629.94 32 36 30
72.0495 26.6491 1088.28 207 218 210
-128.69 156.338 905.999 219 222 215
-77.8208 224.215 918.285 165 155 148
-201.892 74.32 1363.32 204 189 169
186.768 255.174 1019.89 53 29 24
-9.08163 2.18881 1542.3 92 87 75
52.9305 326.379 1017.79 242 242 240
-51.2611 4.68758 1719.11 204 160 150
-230.1 -18.7886 1571.9 185 177 159
-142.528 -100.795 1491.14 177 149 127
16.7985 360.942 998.537 162 162 158
115.738 287.344 975.199 189 185 183
88.352 349.049 939.604 178 183 176
-54.0662 6.41441 1618.74 149 108 99
-271.743 20.0385 1565.09 103 83 73
105.108 99.8126 943.621 200 178 157
-61.7391 52.1309 1110.69 110 48 28
-63.0346 59.7018 1209.37 80 44 28
64.1107 35.8952 1045.14 128 136 130
-229.84 -30.4117 1569.82 201 178 160
-109.92 103.698 977.754 68 86 79
260.683 345.988 1114.39 97 68 55
39.1743 268.208 876.609 166 163 163
-90.8352 104.039 981.653 202 241 238
47.3356 289.004 964.337 209 185 168
-26.2801 -52.7138 1541.39 53 45 41
-240.682 47.7979 1420.62 156 134 128
161.102 274.692 1017.56 66 37 16
-41.1223 -105.004 1787.49 83 80 72
-28.9115 37.5721 1047.65 250 239 236
-55.009 260.168 958.357 211 204 203
169.233 303.21 1020.47 158 158 153
-77.1481 213.206 905.011 27 29 32
-52.9528 179.468 921.345 71 80 80
-6.2665 37.1803 1075.34 255 192 172
-34.6961 103.981 907.411 226 222 228
-84.494 110.84 1022.34 72 95 101
-46.2619 347.32 1005.34 211 182 165
-269.791 68.0888 1658.79 125 111 76
-81.5822 217.473 904.359 57 49 50
-38.436 359.497 964.514 185 167 158
96.8251 329.649 1069.52 55 58 46
-77.2147 2.34442 1526.41 170 158 155
-92.1026 109.539 945.318 113 150 139
58.9903 349.102 1044.47 192 184 181
-5.26272 346.244 957.664 136 132 129
-50.2904 260.616 959.227 171 162 163
176.029 246.412 947.492 159 167 162
32.9095 300.341 962.41 162 178 174
232.603 309.12 1011.78 37 17 10
-100.06 176.442 883.415 148 143 133
-11.8146 -1.42567 1342.71 196 196 189
-17.0622 209.09 963.502 119 116 116
212.009 209.628 1020.01 75 55 45
165.551 305.223 1076.48 162 134 121
76.0076 215.28 965.044 242 171 153
128.671 396.098 1019.13 180 182 190
194.735 265.66 1021.69 184 190 188
-30.0926 -60.1398 1539.17 74 75 76
-150.99 111.922 1008.16 221 208 197
44.6637 -2.7587 1081.56 190 184 175
3.66123 40.8036 1140.06 255 206 192
11.7797 343.065 996.778 177 155 147
-103.588 104.637 942.838 126 144 138
-38.9204 105.782 1010.72 217 214 212
184.109 119.171 990.4 82 55 45
-50.0135 -45.2321 1612.61 140 145 150
-64.1335 -63.6848 1530.08 139 173 159
-133.049 151.679 904.956 145 152 141
-25.9478 40.899 1141.21 138 73 70
165.36 283.68 1075.48 193 157 142
9.52687 316.526 971.956 167 136 126
-261.579 56.4214 1561.75 253 244 229
81.434 300.381 970.516 111 95 78
33.8208 313.036 976.043 182 178 176
-90.0115 101.984 879.876 212 243 234
-38.7201 174.22 861.457 51 72 70
-70.71 187.99 886.308 91 91 91
-5.56269 334.462 993.156 113 75 72
69.3133 318.141 1044.52 185 157 144
-57.7991 67.4917 1117.4 221 203 205
193.383 245.554 971.96 148 138 137
157.793 257.176 993.487 95 78 69
-124.291 152.011 906.722 78 89 85
-106.76 188.76 911.507 123 125 116
-30.1462 81.0043 1217.45 193 147 141
-49.3404 281.877 1037.66 50 36 39
115.498 331.978 989.802 25 65 64
-48.816 -18.2332 1906.56 106 62 55
-73.5801 109.886 948.908 163 192 183
269.037 399.579 1140.82 152 107 96
-86.8457 -35.0703 1702.1 215 189 175
132.893 22.1136 1014.84 136 137 123
-95.608 99.1044 980.456 60 97 93
115.949 390.435 1001.14 188 186 181
-22.8457 58.7058 992.322 253 214 203
159.814 255.772 997.623 129 115 111
48.4674 326.625 962.839 127 117 115
183.839 299.678 1061.54 125 112 110
-5.5615 81.0196 996.584 43 85 67
32.9759 319.671 963.322 132 117 107
128.947 356.121 946.044 216 155 147
165.311 277.209 981.844 201 183 177
-187.952 65.2064 1252.53 185 161 152
202.205 401.391 1092.17 18 46 49
63.368 314.898 945.474 173 146 126
-34.7505 191.614 925.068 195 193 195
-61.5725 171.633 875.397 52 74 76
-57.093 177.823 907.127 131 148 150
-55.0009 -11.9423 1681.52 242 162 152
144.109 384.213 1021 185 125 127
201.404 307.735 1040.21 105 109 104
4.84461 336.252 1009.63 105 66 47
2.35712 351.233 1009.65 29 16 6
-49.7842 236.017 880.487 33 19 16
-21.7214 360.661 967.597 144 136 132
-129.074 158.807 976.265 169 196 197
82.7954 261.499 982.408 114 56 35
127.911 306.421 1014.52 25 28 26
-81.5406 199.425 903.53 57 57 51
170.798 115.428 939.805 156 105 101
155.241 269.418 979.998 170 140 120
-128.926 169.226 940.347 143 143 139
115.216 39.7845 773.764 114 133 127
177.662 319.73 1037.26 20 46 53
-124.275 157.535 875.25 218 218 211
155.132 335.994 1005.52 32 52 63
-129.004 102.417 1012.51 47 84 68
-35.4752 60.7419 1071.32 162 125 115
175.995 218.778 1089.64 154 121 108
-16.6857 17.4435 1544.03 140 118 98
