-6.0142 -46.204 1623.89 2 2 0
56.9876 -27.7463 1176.04 254 237 214
12.3655 10.9472 1077.07 255 247 226
229.698 -63.9279 1512.11 225 207 187
214.67 405.528 1864.42 10 31 34
40.7675 23.8041 1104.56 143 70 44
-101.445 74.7813 993.894 200 191 187
-11.1154 396.201 1092.72 238 210 182
57.3648 457.085 1238.53 20 17 19
-47.0795 177.937 976.388 42 38 30
222.685 -41.6046 1514.78 63 34 29
-38.6037 69.9816 967.665 229 154 129
5.15723 261.985 951.441 89 75 82
240.725 325.281 1853.74 29 57 64
-38.3488 74.463 937.501 89 17 5
-43.3751 53.0406 966.263 113 77 59
-33.872 132.467 990.867 254 222 213
23.5968 472.091 1202.71 55 61 66
-5.89691 486.101 1144.83 180 180 173
-13.4776 162.487 1038.75 81 38 16
264.253 236.226 1723.58 141 135 117
222.906 -34.1592 1516.06 242 213 206
-6.33984 433.479 1194.87 153 124 104
206.43 28.0125 1449.39 217 200 188
35.2659 20.3578 1127.19 176 118 97
-8.78709 448.505 1142.95 162 153 135
-13.3932 227.802 1041.84 253 237 206
-18.4229 363.653 1046.14 166 146 138
36.0385 184.343 1138.73 143 119 105
-16.7011 242.795 1085.12 138 115 93
11.0549 401.15 1145.11 227 212 205
3.18045 448.447 1118.31 119 105 86
31.8499 -22.5033 1224.59 97 68 56
-86.0826 114.349 982.982 146 134 122
7.74252 1.94579 1097.43 178 165 165
-38.6019 79.6753 967.966 183 127 108
-5.69251 391.104 1093.6 113 80 63
11.0849 415.539 1145.69 240 233 230
10.3803 434.865 1126.06 86 75 62
-18.4303 355.784 1045.88 202 180 174
244.515 23.5543 1609.24 107 83 66
-31.4167 206.11 1018.57 101 82 77
-22.1748 308.947 1067.41 108 102 104
90.1467 300.934 1245.87 66 70 71
4.96906 273.873 1090.85 255 244 220
-37.5651 105.403 991.946 116 37 24
137.116 -128.904 1555.73 48 52 52
12.1606 371.229 1175.83 174 136 124
15.422 262.186 1115.65 126 100 92
-14.1612 358.068 1071.91 168 157 156
-152.201 497.516 1220.54 152 150 140
-11.2118 319.52 1089.72 163 143 148
2.25988 274.427 1137.37 239 209 203
16.1952 332.74 1168.61 114 85 80
704.652 -358.214 1961.18 61 58 50
64.5183 -182.051 1823.12 192 196 185
-20.1365 427.506 1139.84 169 161 147
13.8646 381.208 1144.83 196 199 186
-214.428 493.266 1264.53 160 137 127
46.5107 193.177 1191.76 139 122 110
10.9605 358.018 1143.23 248 219 204
28.401 458.718 1179.95 188 194 202
40.4877 181.028 1189.73 167 124 113
6.46545 366.804 1055.19 106 96 96
254.969 82.1177 1707.29 47 22 25
703.017 -367.1 1956.86 63 63 53
-13.3349 274.87 1043.86 144 119 99
245.222 57.0585 1601.68 227 202 200
48.2212 214.146 1218.02 128 97 92
2.44846 368.947 1142.01 247 237 224
-97.2195 65.6017 888.551 179 153 144
8.13748 369.324 1143.17 252 224 212
259.912 -4.27537 1606.46 255 245 221
-5.41533 326.101 1107.3 254 245 238
230.935 260.359 1647.79 117 138 139
-172.593 91.7183 1002.22 59 6 3
267.427 -173.119 1573.66 176 198 198
54.595 -11.7356 1143.68 255 239 219
-232.816 458.139 1197.62 73 59 42
-157.878 243.706 1054.79 71 15 9
1048.69 -541.499 2927.2 97 94 91
205.687 -10.0869 1589.46 44 14 5
-172.051 514.068 1277.1 147 140 118
202.691 -12.0901 1595.65 154 134 125
-212.918 -2.83167 1202.73 58 44 34
103.823 -103.491 1642.09 34 34 12
241.778 376.213 1845.09 116 149 151
-150.126 492.063 1214.63 105 93 78
2.29257 22.2374 1052.8 239 211 193
53.9015 -8.9224 1153.68 204 169 144
-146.777 70.3921 1048.42 135 111 98
34.4297 157.036 1186.83 150 125 103
-5.56085 96.0743 997.328 254 251 244
21.4429 324.165 1096.24 194 189 168
60.4293 81.6957 1163.24 247 223 204
-36.2549 135.904 980.563 104 34 11
-8.34551 146.961 1038.94 126 84 68
-35.6663 94.13 1109.82 133 126 108
40.4286 169.105 1188.87 237 206 185
242.47 56.3837 1695.29 124 103 102
224.139 34.2532 1557.75 102 76 71
-14.7623 435.654 1120.97 48 26 16
-56.6704 151.934 1072.34 81 38 30
-51.4573 273.699 1079.56 204 184 191
36.5719 156.809 1124.27 158 123 102
0.205119 384.163 1063.34 252 235 223
72.8648 95.4071 1301.7 146 120 111
20.6139 128.991 1173.24 221 173 152
64.6761 93.4583 1237.24 235 209 190
-66.2359 169.89 972.201 97 43 26
244.875 298.139 1749.1 120 145 150
13.8956 424.585 1075.54 177 181 174
46.5576 202.152 1192.39 230 228 220
-8.47399 69.1518 1034.75 255 250 244
-11.1405 -136.758 1706.11 64 65 43
-159.446 271.09 1101.61 92 37 14
-30.0628 307.682 1114.98 89 86 83
205.37 64.7734 1431.94 157 142 132
-37.8208 113.51 1028.9 218 181 155
-18.3232 106.026 1066.57 167 178 171
81.9725 162.261 1224.98 49 50 38
-263.997 60.7748 1040.1 48 29 19
-5.40116 119.236 1055.34 250 228 214
83.0256 196.326 1219.84 65 70 64
220.545 79.7756 1702.8 152 134 123
33.6248 -4.55721 1173.85 227 199 179
249.933 10.2869 1689.97 202 176 158
199.091 431.155 1762.3 131 143 139
27.3439 142.024 1107.55 251 217 201
-10.1905 100.607 1078.56 251 253 248
-92.4741 373.518 1122.12 56 37 32
272.632 42.9167 1826.64 97 71 71
-57.1434 189.499 991.91 158 127 112
-13.9933 20.8218 1094.28 193 165 144
-1.93491 75.8445 1142.41 254 239 214
-0.834806 88.6461 1079.65 255 246 234
-4.84934 101.615 1025.63 248 252 246
-6.05528 78.1549 977.873 255 255 247
-34.81 191.252 935.745 171 132 108
-40.7987 163.235 1076.18 173 166 161
36.0688 208.697 1050.09 200 186 179
-9.80724 133.172 970.65 181 163 155
-20.093 476.243 1141.62 157 139 117
220.632 5.11641 1513.36 124 96 78
250.402 115.279 1444.64 229 223 195
276.714 -149.676 1838.33 160 156 137
-11.9313 102.303 925.514 155 164 161
177.933 278.158 1732.45 90 118 117
14.0333 284.311 1050.07 207 202 205
-79.6113 117.624 999.633 138 127 119
-7.47517 232.377 965.669 237 221 203
-67.6333 191.002 1045.72 116 72 55
