-427.068 257.992 1181.57 32 5 4
-526.459 398.881 1178.51 252 252 245
285.365 -56.6841 921.783 246 246 237
-390.03 121.81 1103.85 255 249 237
-586.413 421.977 1283.32 219 226 222
170.06 167.37 1086.58 255 247 245
-554.269 511.379 1364.55 34 36 33
-539.883 33.0561 1048.19 234 228 209
-391.01 90.505 1074.33 242 236 235
-518.281 374.322 1122.89 98 104 99
-308.435 414.336 1198.29 199 198 188
363.087 142.744 1066.7 94 106 109
-535.068 370.391 1171.53 255 252 244
-538.969 32.6507 1073.53 242 237 217
446.395 253.737 1152.72 226 232 224
294 -113.506 1005.21 211 242 237
415.204 222.546 1080.65 204 203 194
224.421 143.175 1050.31 255 245 238
387.322 152.283 1113.65 58 72 65
-386.595 109.353 1076.99 254 243 232
254.586 -25.9751 988.867 197 183 178
-500.635 165.959 1124.06 127 84 62
-520.253 181.23 1140.65 95 70 52
-513.179 184.92 1120.97 225 208 194
283.958 -103.558 1004.87 214 243 231
-446.348 206.231 1170.23 87 48 31
-350.418 94.0154 1329.88 223 209 205
-459.211 569.418 1286.51 68 79 72
401.336 189.76 1056.67 246 247 241
-372.842 147.65 1083.89 254 246 222
-549.23 443.059 1236.2 58 43 33
-393.618 101.092 1074.19 247 237 212
138.937 -113.433 1045.4 237 205 194
285.178 -63.4641 921.266 255 254 243
149.764 48.7392 1078.41 217 209 205
125.017 61.2262 1046.46 255 251 253
182.175 -11.2531 982.044 234 212 197
360.942 -4.18951 994.76 253 255 247
444.502 456.26 1269.1 59 80 80
-322.322 315.433 1131.66 243 237 226
-521.485 339.314 1117.61 154 143 132
-344.768 363.988 1248.62 255 242 245
-564.823 378.457 1160.8 112 112 97
327.917 480.775 1482.67 5 35 48
410.236 179.036 1085.08 245 255 241
303.155 -78.948 966.711 230 234 225
311.67 -59.9744 991.315 233 244 234
-477.738 226.866 1136.26 216 213 199
141.625 -161.74 1299.96 28 25 22
-398.166 90.2891 1072.01 255 246 239
306.624 424.099 1295.18 81 113 124
-356.31 100.502 1251.63 193 179 172
-392.406 360.695 1201.99 130 102 88
-325.321 267.4 1091.06 246 219 198
203.657 4.02864 965.416 166 162 134
-474.66 145.49 1077.88 107 73 52
-473.758 148.208 1050.53 217 183 167
-493.769 588.955 1345.32 98 104 99
337.257 60.3772 1057.28 252 249 225
227.579 5.60656 988.373 222 217 214
162.909 -103.629 1049.19 218 199 192
258.278 -94.5721 945.308 232 254 251
-305.875 386.769 1440.37 62 62 53
436.486 244.831 1170.89 233 241 234
-343.808 131.531 988.107 146 117 98
-394.959 354.35 1200.63 255 243 226
-478.247 196.859 1103.01 147 123 105
-484.64 51.769 1040 103 72 63
-532.135 413.34 1178.17 129 126 124
-464.725 565.142 1284.02 194 201 195
-489.622 187.831 1075.5 254 241 224
285.453 -74.4269 953.043 157 148 148
247.982 -20.8827 953.696 72 62 62
124.746 90.1385 1139.22 250 240 238
218.073 -80.8501 994.701 183 163 151
142.853 157.502 1128.28 222 214 222
-340.024 292.276 1156.06 145 113 92
277.135 403.516 1327.21 49 78 81
101.049 82.9983 1072.42 255 252 249
-341.053 126.341 1324.92 185 186 188
-327.24 218.507 1272.66 219 191 171
-575.652 366.949 1237.44 251 247 228
411.386 223.918 1074.63 203 205 205
195.512 39.7668 987.001 248 241 221
-496.909 293.077 1070.75 111 89 96
-517.322 363.556 1177.56 238 233 215
211.244 48.6685 1103.32 241 230 213
234.154 -96.9394 946.775 74 110 109
259.144 -73.9486 967.577 150 151 155
182.054 172.66 1136.28 104 66 64
-511.979 222.132 1147.7 241 234 214
373.576 0.358497 1060.12 218 222 220
-389.602 275.471 1106.54 108 108 83
-654.267 93.8712 1076.04 245 241 236
362.177 5.70319 1000.96 245 252 236
243.859 54.6683 1091.84 255 248 241
-504.554 332.679 1123.24 220 223 201
-505.039 234.255 1151.46 226 213 202
227.654 56.9032 956.719 245 233 215
120.122 28.2991 1030.86 242 239 242
292.356 -117.464 1044.09 157 177 190
214.058 196.75 1121.75 105 79 55
-389.845 367.039 1203.36 235 230 211
214.613 44.4286 1005.24 93 76 63
302.587 425.518 1371.03 172 210 225
297.63 344.686 1141.41 122 147 166
-476.201 208.13 1104.67 110 93 72
204.046 102.443 1070.19 253 234 214
-612.647 219.949 1107.65 255 244 223
337.288 32.1719 1039.03 166 149 142
391.305 180.634 1071.12 202 222 211
-579.419 216.993 1066.96 218 209 187
-502.744 60.0201 1116.09 127 58 45
-368.284 164.083 1086.42 236 227 203
-387.345 376.446 1204.94 158 135 115
304.715 424.859 1332.23 188 229 237
-553.44 278.95 1097.94 145 142 147
-349.497 418.77 1185.89 248 252 242
-505.337 162.197 1090.29 138 97 86
-333.848 119.977 1260.99 161 158 156
301.47 -10.0479 1012.38 171 165 161
-444.456 101.713 1107.38 255 241 239
-273.91 356.423 1043.84 162 153 136
-367.814 296.967 1080.46 224 210 196
-427.899 92.731 1016.18 71 24 16
205.94 174.249 1048.89 219 187 174
260.301 -97.9242 983.676 179 185 183
325.455 522.365 1407.35 103 133 134
-510.921 122.658 1064.02 155 155 148
-419.143 16.1284 1060.81 142 113 78
-372.272 285.512 1077.7 232 229 218
-374.491 279.804 1076.33 116 104 89
-556.157 425.944 1231 141 140 136
-324.708 286.665 1317.61 31 14 11
-441.005 117.943 1059.67 107 53 32
-407.538 319.73 1193.56 109 87 73
-382.469 81.3504 1029.97 255 244 221
71.7531 -45.0081 994.921 205 197 193
-340.002 197.289 1049.59 243 235 206
-592.893 82.5548 966.103 123 80 67
410.796 242.458 1103.04 226 238 230
338.854 393.262 1273.69 101 125 131
-397.429 121.543 1101.53 255 247 230
-363.443 167.042 1088.12 87 56 37
-422.164 108.101 1065.32 255 235 221
379.196 481.278 1281.12 175 215 240
238.223 -80.9907 982.961 135 145 138
-424.803 307.193 1219.64 233 232 217
-472.336 144.012 1158.97 202 152 136
-394.199 263.902 1103.92 131 117 112
-521.452 496.777 1321.55 222 223 224
-454.741 92.5002 1081.4 213 164 143
-480.368 188.411 1101.55 225 191 166
-357.438 96.9066 1226.89 182 168 161
377.39 42.3279 1063.06 229 245 234
279.769 62.7001 1035.78 227 215 185
207.011 51.837 1004.61 211 196 176
164.997 5.83391 981.085 156 151 139
-591.643 308.887 1225.76 139 130 120
-404.354 169.231 1044.84 83 43 35
259.782 168.344 1060.64 216 185 169
-403.422 114.106 1071.88 245 218 194
-425.178 169.598 1095.51 149 110 86
133.218 33.4651 1033.03 217 202 200
300.265 288.762 1208.07 234 232 210
340.163 -12.7398 978.936 199 218 209
382.568 111.467 1026.6 210 223 208
-631.26 95.1207 1034.16 92 88 81
-370.52 94.419 1252.77 53 30 24
112.185 128.493 1076.11 249 237 225
345.438 393.574 1274.62 87 110 123
194.882 175.64 1137.17 204 164 153
159.52 116.391 1043.7 251 210 188
367.879 104.552 990.092 212 228 206
360.622 329.805 1173.54 233 244 234
206.568 -4.13855 977.475 228 202 177
-458.241 72.8605 1050.72 175 116 88
-335.075 186.012 1024.3 232 221 207
374.259 498.445 1321.98 91 125 135
153.44 -64.9267 1046.88 155 161 152
168.788 107.208 1065.7 255 220 192
378.172 -43.4953 997.842 112 123 99
404.896 228.971 1055.62 40 46 41
236.057 124.238 1035 205 174 168
368.609 108.969 1026.64 194 216 202
339.855 -45.797 926.779 224 240 206
254.677 87.1887 1023.86 253 232 213
152.304 -103.465 1047.88 199 143 126
224.543 -134.968 1145.5 141 116 103
224.732 174.666 1051.45 209 189 182
-576.517 319.6 1192.69 142 124 127
326.49 302.685 1079.22 145 150 136
350.062 25.5018 1001.61 212 218 215
-570.881 312.115 1149.4 236 230 225
396.714 128.744 1051.96 226 245 204
-489.208 168.571 1096.73 244 225 208
-318.248 229.331 1214.8 79 47 25
-414.455 9.29407 1041.02 188 171 142
-330.289 224.728 1272.26 78 50 31
383.031 45.1685 1044.05 237 247 239
-477.292 456.867 1265.81 79 80 77
-380.689 158.042 1108.73 251 222 208
-509.865 159.207 1088.36 232 214 203
112.213 -148.371 1295.43 67 65 53
349.915 -19.98 975.949 122 126 115
230.684 -3.17192 968.237 197 173 170
407.651 341.155 1223.67 237 253 250
-657.292 112.582 1076.65 248 242 232
224.068 170.086 1070.55 249 224 212
139.313 -63.4249 973.328 131 132 123
-400.156 3.67236 1118.13 158 145 122
350.091 -17.5647 979.556 248 251 248
123.696 -67.3311 1046.95 161 151 134
416.598 156.61 1097.46 201 230 198
175.902 244.113 1074.62 202 199 168
-431.955 218.768 1046.2 138 128 120
389.176 389.359 1222.66 81 107 120
105.307 86.7376 1015.02 169 137 135
-412.364 134.654 1097.56 255 228 215
102.023 43.5279 1028.79 252 245 246
347.402 -24.74 978.903 230 237 223
-374.899 53.6972 1240.73 181 158 149
-365.891 102.75 1224.57 141 134 128
-625.233 323.958 1214.06 176 158 151
235.278 142.407 1141.6 169 140 132
-636.94 147.706 1071.11 245 255 246
-549.97 92.9242 1128.96 255 245 229
-591.179 90.5599 1084.84 255 226 227
-641.652 104.776 1065.6 145 137 131
-547.211 696.622 1567.92 189 198 191
182.463 -124.374 1062.62 204 188 183
215.914 279.928 1227.44 216 216 184
-526.512 150.667 1113.7 252 237 221
270.781 195.122 1105.72 157 123 108
376.463 171.32 1033.45 167 191 176
-313.091 98.5423 1265.64 29 29 22
328.503 -84.1188 939.262 217 225 208
-423.16 127.473 1116.71 197 154 130
145.76 163.197 1128.99 132 130 135
120.354 128.651 1077.42 144 110 103
179.166 75.4909 1065 216 191 167
180.573 33.7444 1039.73 221 182 152
290.754 168.449 1085.45 155 138 126
308.046 153.167 1168.39 160 128 99
288.61 -5.13343 1011.31 180 175 163
-477.974 137.519 1048.28 247 231 212
292.801 85.1779 1016.23 254 251 226
-697.892 140.75 1163.56 218 214 212
309.104 432.796 1196.46 75 114 125
207.86 -113.187 1014.22 103 75 68
-409.168 77.883 962.233 176 123 108
441.291 584.596 1504.18 65 102 118
-306.562 202.532 1216.19 123 100 84
-481.758 46.7615 1069.65 158 93 68
-503.045 254.16 1026.72 219 190 181
-368.818 64.4831 1079.68 160 151 137
-375.721 313.436 1114.61 145 129 117
-591.427 148.785 1109.01 251 217 195
-626.379 273.463 1177.9 133 111 90
-587.439 42.3468 1082.85 230 228 206
131.452 130.21 1021.33 192 186 190
116.844 -54.9751 1026.28 156 157 142
-381.404 234.325 1194.94 226 192 174
-624.617 178.815 1107.15 148 129 117
108.465 41.8247 975.789 249 248 249
-413.824 112.479 1046.16 230 198 198
356.514 -61.0193 959.569 224 234 210
-503.36 185.147 1147.45 229 205 179
195.63 -80.9184 1015.47 39 33 26
268.742 195.247 1129.03 159 122 113
-380.869 169.074 1109.29 252 249 234
391.958 372.397 1316.38 221 223 213
287.217 95.4839 1018.41 145 141 114
-394.055 109.497 1009.17 252 251 245
361.864 387.915 1276.73 131 155 166
-295.673 387.508 1264.54 110 116 117
-318.918 266.023 1217.61 157 128 107
235.068 159.011 983.742 234 213 200
-443.121 109.949 1058.41 157 111 96
-608.763 353.716 1223.53 151 140 135
-368.004 132.876 980.478 254 236 219
406.59 343.023 1204.04 117 151 153
227.834 243.653 1158.41 249 249 239
-359.023 8.50473 1305.43 79 74 69
-589.635 149.426 1056.55 148 142 141
-376.507 129.584 1058.32 225 197 169
-619.405 174.898 1099.94 242 234 224
-370.831 145.869 1010.41 203 144 115
-502.259 529.996 1487.37 131 119 100
387.261 -49.6153 1035.67 171 182 162
218.926 214.797 1037.93 226 224 226
232.5 -15.1213 1002.51 158 139 127
-600.258 160.562 1086.74 231 201 181
-400.518 13.4697 1127.62 126 113 90
219.207 158.815 1050.17 92 56 58
-549.374 277.446 1056.57 182 170 173
370.546 402.352 1203.07 123 135 138
441.314 217.905 1104.19 140 130 113
78.8169 -92.4385 1038.78 119 112 106
225.525 149.581 1093.86 238 210 196
-508.998 256.583 1062.44 217 181 166
319.821 70.7549 1040.47 245 247 217
-448.813 189.115 1255.7 241 220 200
-488.949 472.546 1213.89 121 123 118
-328.029 256.949 1276.03 183 150 133
392.668 89.4325 1048.54 232 255 234
-394.19 84.5341 969.742 242 225 211
-542.159 134.831 1164.98 203 180 181
157.889 253.916 1134.25 77 66 61
316.504 -159.899 1131.29 38 88 79
-400.604 162.588 1102.84 254 244 236
-556.853 412.832 1168.49 116 115 109
158.498 327.688 1146.09 104 96 87
-594.53 269.603 1120.42 153 145 125
-541.815 79.4268 987.002 188 117 116
451.969 209.162 1122.65 117 109 89
392.099 98.9289 1090.58 222 238 229
331.473 268.23 1159.56 249 250 216
168.208 123.866 1041.86 253 249 246
169.405 248.658 1135.92 84 78 67
145.283 172.265 1082.98 70 63 67
253.8 122.704 1053.3 231 189 168
177.144 135.621 1132.72 250 254 253
464.72 499.71 1447.65 119 156 157
253.699 -13.1818 876.703 106 96 91
240.413 75.2799 1032.29 231 226 195
259.966 127.185 1038.03 167 118 97
-446.61 214.631 1131.65 177 160 133
125.387 175.193 1084.33 186 187 183
134.219 -77.5873 971.748 189 154 136
-658.505 244.431 1192.08 250 246 233
-460.534 176.577 1072.42 173 133 101
162.073 259.965 1185.94 175 165 163
345.884 368.834 1224.78 129 156 164
268.048 132.495 1039.31 210 182 169
262.337 -83.0827 900.183 178 216 203
-399.404 149.114 1075.55 249 234 216
283.428 -19.1638 1065.99 150 141 136
-314.648 224.529 1316.24 61 26 9
219.985 3.16499 987.368 165 153 134
159.711 -55.9638 909.776 60 46 29
140.023 -103.94 1068.37 169 120 117
-659.073 291.388 1267.23 172 145 125
354.244 -56.3576 959.814 144 158 120
378.282 90.9468 1025.46 247 253 252
-370.555 305.422 1167.75 170 134 123
174.144 86.4387 1001.71 168 160 122
-597.797 240.993 1116.02 237 230 209
95.5906 -51.0018 961.114 141 116 99
328.619 -79.5555 939.546 201 215 197
180.81 352.412 1200.22 89 80 69
304.722 109.596 1100.64 254 251 243
218.797 -171.435 1185.52 135 140 133
119.122 -90.0083 1024.71 163 150 141
90.7456 56.0358 988.641 220 206 205
249.111 228.777 1128.61 252 253 238
152.091 -150.55 1329.33 162 168 166
288.764 107.415 1056.9 195 189 181
140.366 232.126 1068.65 103 97 82
278.851 90.0896 1095.94 199 167 135
-400.119 25.2468 1019.18 222 201 163
-541.308 318.465 1146.72 154 138 129
121.878 -103.516 1109.45 202 186 184
-365.116 41.5809 1285.49 148 126 116
-554.941 31.3135 1113.02 242 235 221
-589.136 101.49 1034.03 184 179 175
133.42 51.1853 1121.67 220 204 208
285.053 168.671 1070.68 207 191 174
-627.181 256.603 1173.83 183 167 146
-578.004 355.726 1152.4 254 252 250
