18.1772 -11.1585 1185.28 212 202 194
60.129 -6.94989 1178.44 85 35 27
444.83 -109.844 1529.81 255 249 244
17.0045 400.884 1226.96 255 252 242
-25.9255 364.135 1115.28 235 208 191
57.2402 435.044 1238.03 248 255 255
12.7402 -9.40881 1120.83 15 0 0
-72.2828 64.329 1064.25 252 235 198
7.3687 -6.78334 1168.75 255 241 230
398.062 199.013 1954.84 227 230 220
487.464 338.066 1794.84 214 242 243
-14.2791 378.132 1157.83 106 91 73
-31.4331 340.209 1087.48 193 185 181
2.75187 474.358 1260.88 244 243 238
7.47405 335.253 1167.94 130 104 90
49.1652 131.07 1188.1 119 86 63
458.963 253.883 1667.61 66 96 102
-0.603586 350.276 1038.37 109 115 111
67.0769 156.422 1247.96 122 92 73
-77.4462 43.2188 1061.89 255 244 224
61.0664 193.729 1249.95 255 247 238
430.951 -15.3236 1546.65 241 221 218
2.53833 373.632 1198.02 62 61 60
75.1486 -1.01246 1234.73 117 18 3
-27.1278 309.401 1184.91 124 107 104
2.28449 -5.29519 1095.98 92 63 48
445.767 34.5811 1557.46 130 115 120
487.992 194.938 1674.89 40 44 38
69.646 429.702 1240.08 182 192 198
399.375 -161.131 1428.98 190 195 190
-10.9767 377.288 1186.34 254 251 239
66.3758 407.444 1237.6 111 99 83
8.82097 430.478 1255.52 114 109 109
-118.347 513.394 1431.64 120 118 109
443.481 -3.8795 1550.05 79 66 64
-13.7715 456.351 1193.89 216 212 196
15.5425 357.78 1189.77 255 252 240
-64.4484 67.0486 1066.02 89 48 25
35.0296 327.387 1224.31 251 255 238
35.4036 43.329 1129.04 99 83 66
-61.9355 173.017 1118.73 89 67 55
55.0306 116.41 1188.03 107 57 19
-128.707 501.581 1427.81 189 181 171
453.726 34.5507 1558.26 222 208 215
-32.9518 219.118 1149.76 254 237 216
31.0643 42.9948 1152.55 129 99 84
79.9132 191.177 1253.4 120 112 100
-66.343 108.285 1045.08 253 254 242
71.2985 -11.107 1156.62 143 37 8
61.6291 195.941 1216.49 81 65 44
13.6203 310.698 1218.38 106 94 97
369.981 3.88252 1288.49 220 207 207
-37.0729 269.612 1129.77 128 126 116
67.0314 150.184 1247.41 252 235 209
-32.8895 146.904 1110.42 110 62 55
51.0502 437.744 1236.99 85 92 96
472.655 19.1815 1557.16 251 243 244
10.0352 315.566 1119.31 255 247 228
128.871 449.508 1411.44 73 76 74
5.18613 263.425 1188.87 254 246 236
-82.2269 439.805 1207.62 221 221 211
474.102 -99.3132 1573.69 236 231 222
48.2913 149.733 1243.72 236 209 194
-114.985 405.748 1165.11 156 146 139
-41.6936 88.2558 1166.55 137 141 133
-11.0499 343.962 1182.69 170 136 108
54.9749 107.552 1187.3 245 223 199
-31.4356 331.923 1086.75 224 209 204
-67.5301 122.544 1163.55 239 195 195
457.257 -83.7728 1614.79 224 212 204
-27.233 268.685 1155.26 130 65 28
-14.5921 333.586 1137.77 132 119 122
268.254 149.485 1698.23 80 72 61
550.448 21.7279 1731.51 248 238 239
346.009 -175.918 1584.14 68 71 67
50.6623 154.738 1126.97 208 184 166
-75.7286 53.5257 1083.54 247 151 130
477.03 14.2171 1633.36 232 216 225
11.3336 350.622 1195.38 143 132 120
5.42002 310.465 1247.34 153 143 137
493.98 28.5573 1641.99 94 86 81
479.849 -110.094 1532.6 240 231 210
70.6462 216.044 1253.65 160 137 124
-16.0531 444.359 1250.88 206 192 174
387.032 248.889 1660.63 38 56 59
3.92473 439.942 1247.19 237 227 224
-86.4215 127.745 1110.56 83 36 30
16.0446 291.442 1166.13 246 232 227
-113.278 97.0282 1102.58 171 143 131
-73.1241 91.2581 1085.82 167 108 90
377.829 -224.8 1657.68 229 189 179
-71.5985 160.458 1047.84 84 61 60
524.679 -7.95974 1636.66 240 227 219
-34.5341 286.548 1205.82 229 229 212
9.61606 403.922 1145.98 137 118 105
-55.0159 82.2047 1057.72 123 93 90
-67.0971 85.6081 1066.61 204 129 101
454.633 89.9405 1554.81 160 149 124
73.6806 177.97 1216.78 221 218 211
-28.4286 437.103 1247.73 30 16 2
469.701 -26.7576 1548.09 251 228 211
52.3844 172.773 1191.92 255 251 241
-27.3913 324.068 1087.49 147 134 132
513.756 -228.126 1510.93 213 233 241
93.541 602.408 1405.8 125 147 135
47.3393 590.614 1329.21 73 105 90
67.4005 159.491 1213.6 255 250 239
7.67273 94.952 1177.18 254 253 242
353.263 -191.248 1581.75 92 92 89
114.769 192.219 1259.99 156 128 105
490.859 360.848 1854.14 39 71 81
603.256 345.337 1909.39 145 152 149
-71.4419 266.483 1195.78 145 119 118
-13.3683 272.027 1128.11 159 140 138
-56.1708 182.037 1052.6 127 93 83
108.734 -55.5346 1234.89 255 252 228
6.04803 207.025 1170.07 97 68 45
-30.2268 49.6455 990.599 251 255 241
-27.1336 300.469 1184.38 164 144 143
-81.8054 34.0665 1098.62 143 121 99
466.31 -58.9515 1592.74 255 250 233
472.401 -45.8608 1544.63 249 232 200
-48.183 221.186 1124.61 255 247 240
567.88 -29.4539 1720.07 156 139 136
-17.7859 390.404 1236.67 249 248 239
-80.0127 30.0629 1060.54 253 227 203
-36.3979 504.875 1311.31 132 124 113
440.501 -174.784 1552.9 65 71 67
-6.50898 110.048 1125.98 249 231 226
-42.6466 289.176 1129.66 81 57 65
72.7593 171.643 1280.15 152 122 107
-12.4399 307.256 1187.92 254 242 224
5.8985 171.66 1165.61 107 77 55
-48.2207 233.083 973.641 133 131 123
0.392493 251.447 1174.37 101 83 67
121.006 68.7849 1343.7 255 243 207
439.63 28.4792 1636.75 163 142 134
104.996 54.4615 1162.67 251 214 200
-158.695 214.233 1169.47 60 10 4
22.8811 234.366 1190.54 247 255 239
446.2 0.146794 1631.55 57 36 36
59.5929 325.662 1229.05 241 240 219
73.5898 168.806 1215.76 192 167 145
530.113 -12.412 1721.78 243 227 236
95.4537 163.329 1253.94 176 157 143
30.0893 189.492 1159.8 177 159 145
-163.336 39.0059 1110.96 159 143 119
62.0142 614.653 1402.11 37 55 45
469.033 337.647 1792.48 103 139 145
45.5286 168.923 1093.39 213 199 192
420.148 -221.446 1662.42 100 83 84
619.561 104.385 1755.92 239 244 221
-27.5028 124.547 1073.18 136 109 112
-18.7409 427.983 1142.25 98 78 55
-136.047 568.128 1621.85 144 123 107
21.839 285.856 1166.82 178 156 146
389.728 74.0989 1346.61 96 89 62
102.381 54.5675 1191.3 246 231 216
-18.0921 89.5272 1220.4 255 253 240
-21.6477 358.042 1135.07 153 153 146
-6.6184 51.4094 1121.77 255 249 247
404.781 -60.7778 1535.44 159 136 125
-67.1552 122.76 1068.83 151 65 40
562.272 -103.966 1617.7 234 234 206
138.135 160.913 1225.99 250 241 218
83.9633 573.446 1334.78 183 199 190
39.2066 553.477 1242.83 162 186 174
478.392 -226.566 1539.63 123 141 140
-39.6456 176.559 1098.49 232 211 179
122.249 92.8521 1311.11 255 249 234
-10.8407 441.329 1193.02 120 101 77
-27.5976 69.7534 1049.74 180 155 148
485.357 -69.3411 1467.29 254 245 218
15.8282 235.658 1161.26 235 235 232
522.83 -32.0829 1631.24 255 247 241
346.4 -168.256 1585.77 134 134 126
466.389 333.23 1892.25 87 111 115
48.1832 -29.988 1174.24 147 118 97
473.38 -94.3862 1590.21 179 181 187
71.3554 323.533 1261.82 227 232 217
487.223 -154.752 1384.58 218 232 217
65.703 112.807 1408.93 253 233 210
115.095 50.4183 1305.23 254 245 232
38.51 371.029 1319.41 213 213 181
489.142 -134.635 1389.72 192 208 191
428.871 269.472 1873.15 112 132 140
16.4951 100.964 1179.4 254 219 224
-20.4897 67.9306 1120.26 255 245 240
1.7987 86.0423 1175.31 187 145 141
-16.0354 101.819 1142.4 252 234 212
605.44 -133.785 1695.43 220 224 199
-28.6444 256.039 1168.9 166 116 104
607.986 -183.549 1708 173 191 174
584.475 122.112 1963.25 152 142 123
130.495 101.607 1382.05 221 187 164
540.575 -106.514 1507.44 199 203 184
-84.7828 185.85 1164.2 175 143 123
440.774 241.431 1769.92 107 139 137
570.404 -151.062 1607.34 141 151 134
-37.0822 190.695 1125.08 224 201 168
22.4023 106.95 1181.04 214 150 125
398.273 362.059 1688.38 80 92 89
-38.2751 421.872 1107.88 73 51 35
77.955 -57.95 1286.32 109 91 67
459.127 34.5181 1929.16 45 35 16
29.6245 105.081 1209.01 194 180 171
117.142 221.642 1323.01 255 248 218
435.903 -128.344 1525.42 129 122 115
554.046 64.7663 1742.16 252 249 217
-15.8807 339.784 1270.24 198 162 178
439.163 -229.673 1708.94 150 135 134
440.018 -31.8745 1624.21 181 145 134
-8.25721 245.926 1105.12 170 160 137
64.9623 313.68 1259.86 164 166 149
65.2215 306.365 1243 253 254 244
