-67.6706 373.492 1128.33 243 234 223
-11.1246 -15.1036 1029.1 255 249 242
-7.11138 36.7715 983.834 15 0 0
1.77906 42.6534 1077.16 27 8 0
29.1311 158.922 1089.65 65 45 29
517.379 -23.8966 1229.42 25 31 29
92.0944 127.681 1098.69 62 27 7
-14.8712 346.083 1116.18 246 237 229
-22.9906 370.936 1137.69 214 212 207
39.9649 142.892 1090.64 124 77 52
-73.1781 356.117 1126.32 249 253 250
606.355 207.544 1375.09 229 254 255
27.616 101.164 1062.17 236 220 193
653.977 -36.4631 1348.47 247 227 222
-12.6933 390.856 1167.76 237 230 222
-35.4397 245.986 1081.96 255 235 227
34.2136 122.237 1062.78 235 204 174
-8.75779 400.264 1076.04 108 108 107
59.0462 181.004 1182.31 245 240 235
499.348 106.715 1658.77 10 5 5
103.606 177.373 1103.8 22 19 9
-72.6229 279.092 1075.9 91 88 88
31.6584 110.224 1087.06 105 56 32
-30.0992 248.121 1062.37 226 218 199
39.9405 137.459 1090.29 252 238 211
12.1881 72.0582 1038.59 58 43 39
55.9976 172.092 1142 255 248 237
61.7978 183.68 1143.84 86 78 67
614.648 10.483 1419.92 254 253 251
2.36739 315.429 1140.15 238 246 223
31.4637 -4.64404 997.958 255 244 242
-53.7923 380.171 1131.63 161 138 138
-21.983 325.424 1088.44 80 69 59
598.79 215.33 1392.34 63 108 128
-14.0899 402.557 1075.08 237 237 230
6.53166 80.1558 1099.1 132 105 94
15.4245 115.302 1084.42 98 57 43
154.05 375.482 1251.02 84 78 60
15.4818 134.196 1085.61 255 247 220
-83.0098 211.527 1070.3 255 231 203
558.994 -33.0557 1345.18 223 204 202
40.6915 -4.05105 1102.93 121 93 73
-24.8078 -12.1192 1090.37 255 251 235
-24.7479 380.067 1071.7 238 240 240
-78.1232 68.057 946.133 118 107 100
2.43367 79.6769 1055.28 118 95 97
-24.2397 407.709 1166.5 96 97 98
-123.928 67.5651 1011.75 247 246 234
31.916 175.326 1091.14 249 229 216
-71.8483 283.104 1056.02 117 92 79
8.66852 103.458 982.015 244 226 206
-20.4253 320.402 1113.26 230 207 194
116.066 214.353 1231.41 242 232 216
23.6553 147.926 1087.97 119 78 63
666.617 -19.1309 1534.42 239 229 230
615.663 -6.55782 1352.15 219 208 199
778.516 351.859 1814.81 183 207 238
613.913 -69.4372 1341.61 254 246 223
7.29429 101.677 1082.05 243 218 203
38.231 87.9023 1044.09 96 46 24
24.9179 -8.52031 1013.88 113 71 52
-37.0346 361.447 1134.31 95 88 86
30.3265 171.355 1137.15 159 126 111
-25.7652 433.648 1139.81 152 154 151
118.819 27.2079 1095.69 251 251 216
-71.0827 325.392 1036.65 181 170 165
654.395 295.162 1540.61 175 207 234
-102.178 160.807 1041.16 126 82 67
-25.8494 299.587 1133.56 116 103 96
106.932 21.5062 1008.09 255 252 242
45.5438 -15.1924 1038.69 94 32 3
49.6797 -6.38977 1059.56 144 53 18
-96.6005 77.1623 942.973 117 117 106
-16.5827 331.217 1089.77 241 232 221
608.763 -49.6654 1344.74 255 252 244
-28.7631 353.656 1044.42 109 99 91
681.118 -6.98246 1419.19 233 218 211
-24.7345 241.048 1083.87 247 193 186
-116.604 77.7304 1013.84 144 130 132
-124.12 106.153 974.862 247 233 221
30.6771 183.767 1069.34 142 114 108
-114.559 79.7228 975.618 126 108 97
-20.2758 257.34 1132.4 123 78 75
-119.18 164.982 1059.9 233 234 238
-14.7938 405.442 1120.03 86 64 49
60.2582 420.299 1237.28 61 45 36
-84.543 139.231 1023.74 110 89 63
-67.1765 314.732 1035.3 173 170 172
662.297 -81.2124 1399.1 253 251 231
-19.9783 371.023 1017.42 107 85 77
-22.4065 463.726 1223.23 43 45 42
590.837 74.1953 1363.75 187 178 161
48.0787 126.791 1091.07 132 90 56
777.904 -37.5019 1588.8 182 153 146
818.681 -4.37747 1640.86 110 97 87
-58.4944 291.341 998.618 138 128 118
-35.7582 448.152 1166.75 93 90 84
835.277 -47.444 1481.38 226 243 228
81.7473 155.664 1145.5 130 102 78
-24.7734 198.002 1081.59 151 107 99
686.73 229.962 1512.39 96 103 112
-53.3132 332.301 1107.13 111 82 73
141.483 384.362 1249.6 254 253 247
594.524 -77.4733 1394.82 239 235 219
536.703 9.76751 1290.64 159 150 149
-46.112 269.744 1080.98 248 246 240
-97.8634 60.6178 978.1 140 109 116
-135.22 51.0899 934.15 224 154 128
57.3641 12.3392 1106.78 251 200 180
691.222 -12.9586 1483.36 228 211 201
-131.115 89.1018 972.604 235 199 181
-129.317 82.1233 990.686 236 178 156
-72.5915 257.573 1074.87 121 71 59
584.275 -5.7301 1235.29 98 86 83
-130.3 84.3794 988.275 180 78 56
-51.4309 264.069 1079.61 151 127 131
-26.4703 -13.4266 1004.31 67 50 37
6.88078 233.745 1068.62 162 158 157
618.384 -81.6704 1468.32 90 86 73
-96.5496 70.1752 994.671 244 240 227
-97.2115 207.601 1024.44 240 228 216
52.3575 -1.14946 1060.28 255 236 203
-64.6944 274.129 1077.34 250 246 248
8.06747 327.175 1141.9 161 144 128
-49.3192 276.909 1037.36 255 242 231
139.613 76.7584 1173.68 254 238 220
-77.859 259.977 1073.87 180 172 157
-95.7577 204.455 1021.37 251 250 238
656.614 -6.51257 1353.63 147 119 108
18.2482 266.34 1117.05 147 144 136
-95.1504 55.9744 938.89 253 249 229
-79.4878 53.121 997.416 130 122 110
139.215 372.92 1222.11 152 151 137
550.432 -75.5547 1278.74 224 220 207
10.0445 310.947 1118.76 232 243 224
136.053 82.3059 1149.02 255 246 229
-110.346 201.828 1082.36 255 250 237
-100.847 86.3564 1059.46 162 166 157
-97.4938 257.786 1048.82 25 14 9
-15.0369 228.498 1107.51 253 242 229
-56.115 402.164 1111.05 151 130 120
92.1948 30.8374 1137.75 255 243 239
601.893 -74.0817 1395.83 135 116 101
-31.4575 287.924 1131.78 147 135 139
-76.3118 60.8626 982.365 226 208 203
-49.0152 293.943 1020.66 255 235 217
566.432 -262.4 1435.36 217 186 182
-56.3338 421.25 1184.48 248 238 226
-138.838 117.519 1011.08 93 59 46
47.1518 157.248 1179.43 255 239 222
660.105 210.482 1607.35 76 96 95
62.8761 4.14971 1107.27 118 46 13
715.063 321.95 1618.42 99 130 136
-120.709 82.0958 990.184 220 193 177
558.318 -100.569 1275.28 228 225 230
-103.705 64.0572 975.318 147 103 90
-37.5198 -9.48402 985.956 94 69 68
-44.6274 294.258 1180.11 196 197 197
50.8682 295.143 1148.54 228 234 220
-46.105 245.463 1079.77 243 183 164
-80.0851 76.1516 1063.24 137 111 102
752.305 -61.613 1553.47 246 237 234
-138.033 62.5073 969.919 185 121 101
45.1283 297.72 1147.58 133 132 113
-84.8155 269.775 1029.83 89 80 77
-51.7693 106.877 1028.63 241 202 183
45.6788 197.564 1094.95 110 94 87
493.228 -97.0626 1178.32 142 134 128
-91.8647 59.0156 1062.15 169 140 127
-142.688 42.8973 958.418 184 140 114
101.574 77.5333 1044.68 254 243 212
636.552 180.588 1521.86 194 211 201
-101.651 281.853 1136.15 134 142 139
694.559 231.147 1613.12 63 120 141
91.1223 13.5173 1090.35 187 116 91
648.519 -52.2143 1409.96 254 240 237
-118.171 180.015 1079.8 208 209 187
-37.0431 -38.3653 1109.1 129 144 148
-87.2692 238.801 1027.96 120 126 106
690.787 190.727 1591.66 105 120 110
154.576 160.291 1158.01 235 216 204
-44.38 -3.74395 1042.77 213 179 160
552.322 -94.3157 1275.97 173 169 178
-114.523 178.917 1019.38 84 59 55
-83.056 232.884 1071.4 154 118 91
-27.4012 265.305 1084.56 253 246 237
526.547 -240.063 1495.44 6 1 4
718.169 -134.718 1332 232 225 195
-100.318 -72.2696 1090.81 46 42 35
-51.7258 53.3199 1025.67 253 244 234
91.4089 45.8984 1092.83 252 244 244
-83.0781 243.616 1071.94 168 139 109
-71.8981 83.5331 1023.37 253 247 240
614.976 -36.3073 1401.67 214 205 205
70.2736 161.083 1143.83 122 91 70
87.5887 297.463 1174.79 255 255 239
837.633 325.208 1816.23 118 144 149
-31.44 89.3616 1031.58 255 235 230
577.23 162.403 1352.22 110 125 117
536.076 0.24961 1289.23 144 120 111
-54.2586 63.4655 1025.75 253 224 221
-59.4787 380.037 1083.06 200 185 181
673.062 -85.9431 1340.32 184 146 129
62.3494 161.413 1116.47 184 142 135
712.72 281.878 1470.96 153 176 175
123.574 154.984 1172.71 255 242 231
545.122 155.433 1320.72 123 132 127
-36.7624 -7.77934 1059.84 225 205 198
-59.5024 258.221 1034.52 181 184 183
-113.819 266.594 1149.08 154 141 139
672.46 -56.3292 1345.49 135 114 110
-27.4216 232.822 1082.91 172 169 158
-38.4123 303.107 1125.87 254 237 228
43.4469 313.583 1143.47 167 156 133
666.832 -6.53294 1353.92 248 224 208
689.365 -208.212 1381.26 201 194 180
678.519 -99.0169 1338.11 234 242 222
639.679 38.6694 1356.57 247 239 202
641.513 164.452 1773.77 103 104 90
-94.4064 95.7741 1019.45 147 156 152
-128.267 133.855 1031.37 208 195 182
638.258 60.8154 1364.02 158 156 130
20.2942 -34.4317 1075.07 167 138 115
-67.6916 393.345 1129.23 42 31 28
-1.124 5.43735 1119.28 189 131 111
133.959 118.857 1079.26 255 249 226
-10.1535 186.4 1076.95 175 138 133
753.913 13.4691 1587.99 202 190 169
584.587 214.913 1523.81 49 63 62
135.102 224.361 1113.36 181 139 112
17.8564 204.925 1211.98 254 252 241
-93.5252 237.744 1069.39 153 140 104
-94.4695 183.591 1085.08 135 105 86
676.509 -55.6862 1410.05 219 199 199
717.966 -40.9335 1288.95 226 245 236
57.3778 -61.2033 1057.91 89 77 70
-61.8796 95.296 986.853 250 206 194
70.4969 156.422 1130.35 158 126 101
515.666 -265.213 1432.81 169 114 110
-56.1798 26.1667 1001.76 122 46 29
18.432 174.627 1061.93 249 242 215
769.442 -163.342 1392.58 192 209 182
-113.373 35.6506 990.002 232 192 173
543.719 -56.1079 1340.67 163 134 122
