140.312 -57.2424 1660.24 241 226 208
-76.9247 406.047 1083.21 247 235 206
125.627 45.6229 1678.55 234 235 230
-57.2808 22.4512 1153.89 240 203 181
-55.9245 19.6201 1158.16 28 3 2
-47.2962 467.242 1165.74 110 116 112
-82.1604 389.027 1080.65 206 191 187
-37.8577 32.0496 1247.71 168 99 77
103.095 23.4493 1583.79 216 177 161
-62.0599 304.552 1177.08 255 235 236
-17.614 469.748 1252.94 98 96 99
97.6433 409.382 1840.99 27 60 78
37.6531 -136.861 1825.85 11 13 9
128.435 -24.5565 1664.74 196 179 171
-169.726 121.001 1046.05 171 170 159
-59.4034 407.48 1131.96 247 241 232
-151.107 131.562 1009.21 179 164 153
-62.179 401.603 1131.09 94 84 80
-71.0656 325.804 1144.58 94 79 91
-68.7343 14.3382 1301.38 219 194 181
142.407 37.3815 1680.27 120 95 87
-36.44 219.454 1290.68 111 98 87
-114.212 204.178 1063.32 68 50 44
-78.6979 340.973 1124.64 135 117 115
-54.5359 372.435 1098.81 233 225 206
145.727 52.8009 1776.48 99 91 95
-72.1325 490.525 1135.75 222 219 211
-62.1518 390.437 1181.9 253 247 232
-48.9111 -12.7516 1265.66 61 42 27
-100.313 235.98 1114.16 90 85 85
115.009 334.826 1830.78 77 97 98
-78.7445 493.831 1160.29 92 72 59
-56.3495 405.772 1183.97 233 231 224
129.875 -34.6637 1658.65 53 35 33
-64.9911 336.912 1178.32 91 77 79
-72.5733 447.925 1110.49 163 148 130
-34.5363 238.215 1201.3 143 137 125
-78.5555 180.84 1088.54 118 77 50
11.0798 237.406 1385.51 26 45 40
-81.4054 365.944 1037.86 181 165 158
-59.3018 468.157 1186.29 86 72 52
4.59045 164.994 851.063 22 48 41
-83.0428 301.836 1098.77 132 120 110
-93.453 199.742 1067.63 255 246 247
27.328 -116.308 1720.01 31 35 29
-95.4756 144.944 1016.49 255 239 232
-69.4984 518.761 1282.14 114 99 89
-101.859 89.9164 1017.74 123 50 27
-111.257 75.2031 1093.71 237 215 192
-106.726 67.2209 1015.5 148 117 89
-18.277 510.021 1346.66 67 65 64
-86.0946 429.845 1106.42 156 146 140
-95.7861 112.254 1062.2 130 107 94
-112.557 206.526 1042.25 201 176 165
-101.842 84.8861 1017.47 215 155 127
-75.0201 321.816 1101.94 255 249 249
-96.8895 32.307 1101.91 214 190 179
77.9083 305.292 1816.17 58 85 88
-183.489 457.627 1060.86 200 199 194
-94.7014 312.85 1089.79 70 44 43
-94.8951 241.817 1115.71 255 236 221
14.5526 330.891 1335.26 97 91 92
-131.848 187.588 1016.25 79 31 16
-79.4623 372.731 1079.92 127 127 125
2.87227 170.093 1212.3 72 63 56
-149.683 137.116 1051.63 170 163 157
-103.948 231.188 1067.01 214 180 162
-99.1323 309.126 1095.64 136 134 130
-34.6492 196.96 1230.3 169 139 112
-78.6355 248.529 1091.06 232 199 174
-120.175 214.011 1041.05 183 153 142
-57.387 30.508 1377.84 179 141 121
-17.5387 2.88048 1274.08 117 100 87
-82.7455 91.4153 1063.73 255 247 237
-21.5367 2.47958 1163.84 229 203 189
-95.0135 109.057 1008.99 185 136 114
-28.6697 194.427 1161.52 248 237 223
-114.1 175.067 1061.77 226 202 191
-102.099 163.313 1021.48 125 104 105
-46.4883 368.577 1210.5 228 234 213
121.845 419.089 1916.07 128 160 165
-77.0058 40.3812 1264.56 218 193 179
-56.2549 287.162 1177.31 108 77 70
131.097 336.22 1942.52 192 220 241
104.026 -0.220026 1427.57 85 42 29
141.123 346.639 1947.2 135 151 155
-88.239 199.945 1068.77 137 102 101
-98.4102 122.725 1062.25 225 162 156
171.197 -150.458 2113.65 45 38 29
-227.277 281.012 1086.02 44 2 0
-69.981 84.6387 1111.26 255 248 240
-77.3687 426.568 1063.44 45 30 17
-119.474 296.2 1113.16 136 114 109
-242.269 279.94 1152.91 77 35 19
-149.451 335.791 1085.66 136 116 106
-72.3614 112.773 1067.18 255 252 246
85.8081 459.74 1833.28 118 136 130
-39.6104 167.809 1285.33 181 146 128
-12.0374 -87.7407 1620.77 15 18 14
-72.3289 96.8865 1066.23 255 247 255
-169.801 352.801 1154.45 168 145 143
-63.7332 96.1963 1044.69 247 240 243
-160.08 382.444 1108.05 45 31 30
108.253 90.1479 1774.89 142 119 112
-50.5992 87.8527 1274.32 187 138 124
-88.3675 253.304 1071.54 245 225 212
-53.7552 150.957 1276.3 209 172 164
103.722 -109.94 1483.04 42 36 31
-77.5744 107.378 1065.77 172 169 143
-71.8381 135.159 1088.37 246 216 204
-104.94 131.563 1080.87 217 176 152
-78.5862 279.031 1121.43 235 221 196
-73.4472 161.94 1061.87 132 91 87
-75.4254 84.5399 1110.1 251 253 239
-157.189 338.082 1106.55 97 79 79
-102.047 59.6683 937.916 233 208 186
190.352 -191.19 1917.43 181 198 197
-79.1692 113.774 1101.72 254 254 250
-62.5108 133.426 1191.27 241 235 235
-75.0863 165.795 1069.69 187 160 157
102.699 15.6627 1431.97 115 68 44
138.281 338.548 1969.95 132 157 171
175.579 7.38822 1889.39 248 219 199
-49.6855 80.8428 1217.33 255 243 224
-119.871 159.49 1037.34 125 73 65
0.313199 -109.862 1537.75 77 77 67
-52.4129 340.585 1206.75 175 146 142
-86.0112 236.271 1191.21 136 104 80
-40.7089 166.102 1226.48 202 165 144
-82.8811 144.299 1066.82 230 209 203
-87.5217 123.979 1132.59 179 178 176
-174.684 92.8221 1063.48 98 77 70
-51.1228 317.325 1134.66 253 252 249
-91.62 70.297 1081 225 194 180
-16.1198 -119.121 1613.46 186 189 178
-83.0373 210.824 1070.47 225 193 168
-57.1399 300.296 1218.56 164 126 117
-86.434 283.099 1012.63 204 195 181
-121.68 26.3558 1194.56 106 83 64
-110.59 -6.18047 1252.03 104 126 120
184.972 -189.189 1850.4 159 182 180
144.72 379.442 1907.34 158 178 175
12.2621 298.235 1222.58 62 75 77
138.863 1.85069 1570.24 152 124 103
-83.4154 32.373 1104.81 172 147 125
-81.789 146.122 1100.05 207 158 148
-31.5915 255.714 1235.46 196 179 167
-99.9066 520.981 1179.42 103 100 100
126.353 -121.021 1580.77 73 66 53
-74.3428 124.921 1153.89 229 218 208
-210.307 136.592 1056.88 172 148 131
-98.703 215.464 1067.33 134 108 88
27.3811 -107.924 1721.49 85 88 82
-129.136 129.617 1013.97 124 87 80
