491.545 -226.516 1310.69 250 242 232
23.1092 13.4465 1078.98 40 0 0
-0.608464 320.646 1190.28 25 15 14
-42.4089 335.668 1108.94 223 215 203
538.906 -171.812 1377.97 233 225 221
58.477 115.361 1138.16 80 46 29
-99.4596 41.4259 1077.84 251 252 230
-84.3943 48.0803 996.279 57 29 28
537.242 -62.3103 1402.89 43 45 41
691.508 -290.076 1441.12 233 253 244
641.222 -74.4366 1470.84 250 242 240
-25.7944 407.741 1137.83 233 232 222
5.33083 326.968 1191.87 252 247 236
38.5124 106.533 1133.91 255 248 229
3.94526 -40.0101 955.404 233 203 187
558.582 35.1652 1420.46 219 213 191
12.1745 -44.8799 1073.05 254 251 234
-74.8264 36.8562 1061.88 86 34 44
-56.6946 180.421 1073.77 255 239 207
14.8273 -50.1807 1073.14 54 40 23
555.644 -72.5648 1470.84 244 239 238
5.18514 318.382 1140.14 252 253 245
-53.9183 26.4551 1065.45 83 33 28
-8.9442 334.68 1138.08 243 242 237
119.283 147.924 1150.97 77 64 55
58.151 64.5579 1134.42 57 14 11
52.5703 81.3836 1134.67 168 123 102
437.712 93.2042 1421.65 230 230 225
-54.3959 47.1485 1087.46 53 31 24
58.4236 106.871 1137.55 242 226 204
608.257 263.391 1601.44 210 242 250
11.7581 -53.3036 1030.77 187 165 161
-0.622382 -43.4654 1141.33 231 220 209
-93.0347 57.6885 1059.33 91 70 65
425.291 73.3528 1643.43 31 27 18
-31.4513 347.5 1134.04 160 135 127
62.6197 -33.9602 1105.12 90 47 28
-31.4711 304.9 1131.98 76 62 55
111.879 103.577 1196.69 85 64 37
68.6821 -47.1644 1127.44 96 26 2
51.4056 75.925 1157.94 248 222 202
-11.6799 403.079 1140.54 228 228 221
636.467 -88.8235 1468.45 240 216 216
7.53624 356.66 1168.57 235 222 219
51.5249 -39.3302 1102.92 66 31 20
-100.271 55.5993 977.377 142 33 17
76.1433 147.573 1193.88 255 251 245
55.5022 95.5225 1136.21 252 237 207
-48.1846 236.262 1124.82 109 63 53
-1.00472 352.45 1118.64 247 244 238
-109.631 14.5468 973.604 255 250 220
71.6462 -37.6137 1177.53 133 45 11
49.7777 89.7983 1134.77 247 228 205
50.1283 152.04 1139.16 254 252 244
577.968 -41.7094 1408.62 254 246 236
-6.97294 358.66 1165.7 115 107 95
453.983 -40.6831 1175.58 143 129 136
-45.8599 308.438 1062.46 184 172 169
47.2149 140.625 1137.86 248 231 216
-25.8452 336.483 1134.69 220 199 181
69.8145 102.94 1189.22 133 101 58
483.284 -139.331 1200.15 245 240 243
-6.45688 359.158 1191.16 132 128 121
41.4068 117.871 1135.23 248 209 195
-77.1013 48.5083 1150.46 246 233 239
25.0036 282.264 1142.21 243 248 230
534.577 -95.3894 1458.91 219 175 162
-101.746 52.7827 1015.61 242 175 161
531.509 -114.519 1384.74 246 239 232
570.924 -86.442 1400.51 253 247 235
47.0928 117.979 1136.28 130 66 57
132.754 -12.827 1166.83 252 244 223
-75.7219 55.0034 1083.44 168 129 133
-7.29609 430.723 1222.91 83 87 83
55.2481 -34.5663 1081.02 194 152 144
130.955 176.498 1252.4 252 237 224
42.8053 98.7662 1157.53 119 78 50
2.29594 292.535 1138.26 214 186 178
544.116 -113.606 1394.48 255 250 240
-72.4983 185.199 1070.73 250 254 246
7.87589 255.776 1137.4 107 81 70
-96.6031 79.9425 994.954 247 219 209
-31.4377 375.96 1135.32 187 175 162
157.859 372.094 1320.36 116 116 112
27.1565 -57.0405 1254.74 253 249 229
-13.3283 55.9245 1051.28 255 243 231
577.943 -180.862 1450.67 248 237 238
50.0031 129.353 1137.6 122 96 79
584.921 -174.495 1385.51 243 229 209
-58.6438 112.512 1046.58 135 111 98
-9.36168 394.894 1192.36 219 196 184
29.0995 310.312 1195.77 238 239 213
576.372 -106.945 1397.16 228 215 195
-50.475 335.476 1180.41 254 248 244
-111.243 67.6711 1093.27 223 184 163
562.523 -79.7824 1469.87 73 51 47
573.427 -134.866 1456.93 133 117 117
-47.8278 262.934 1102.74 132 96 95
-75.0218 131.895 1067.33 128 98 97
615.483 -278.85 1438.66 155 159 154
-39.8562 253.547 1127.53 238 222 226
624.242 178.148 1582.93 207 246 255
676.8 -216.614 1380.86 216 231 219
52.4051 72.6645 1151.85 230 184 162
140.838 6.03102 1192.8 255 250 233
519.252 -77.0873 1388.27 183 168 167
37.7146 54.1295 1247.87 122 86 81
-28.9415 19.5195 1046.8 255 252 229
17.0437 267.811 1190.78 99 79 71
5.62072 221.386 1155.83 147 91 75
131.993 -2.70316 1141.13 245 230 212
75.8801 146.963 1143.46 146 136 118
523.436 -132.07 1320.57 220 219 224
-3.06831 211.292 1042.98 109 71 53
503.512 -95.365 1331.94 102 60 55
531.478 -93.1219 1397.31 216 187 174
-9.06591 254.999 1133.96 144 125 122
57.1602 -43.4821 1140.54 186 136 120
113.902 15.1749 1110.38 253 235 207
-103.53 31.9811 956.756 123 38 14
-11.7436 211.411 1062.98 224 201 194
-53.7257 241.63 1123.94 253 253 233
634.369 35.2333 1424.52 245 240 215
70.6205 181.839 1215.92 137 126 116
24.3121 50.5104 1102.8 138 124 132
147.452 44.4859 1197.38 250 248 219
58.317 -43.4972 1038.91 94 47 16
-4.7642 187.767 1027.01 184 167 164
-42.6441 360.959 1132.3 43 37 34
-112.974 26.8736 1030.41 229 147 122
-18.6238 -32.135 1046.39 216 188 168
-17.8281 214.396 1105.32 138 102 98
-27.5428 79.6698 1073.87 252 206 187
608.642 185.254 1513.39 89 106 111
-38.8156 348.104 1183.65 89 77 60
536.71 -150.513 1324.95 255 252 255
70.0156 129.763 1141.23 201 179 147
569.782 258.964 1528.74 51 85 92
4.7091 386.063 1170.12 100 71 60
151.998 53.222 1227.95 255 236 211
-91.7569 135.245 1083.45 223 224 216
-72.5669 227.976 1072.9 154 144 144
112.342 10.2098 1164.93 255 243 228
-113.775 94.0864 1056.94 69 36 24
541.999 -238.347 1369.31 161 161 154
539.259 181.151 1591.95 33 47 46
-24.7631 238.205 1083.22 253 239 238
102.078 16.2759 1092.22 243 231 224
-25.8942 268.361 1131.24 247 225 209
533.058 118.994 1375.1 69 81 72
549.46 156.935 1510.77 65 96 96
-88.1288 158.051 1065.98 74 64 50
110.702 0.153931 1187.46 255 232 224
154.81 64.7153 1216.35 240 222 203
10.5321 190.589 1134.11 149 142 144
48.4553 64.4245 1156.78 255 230 209
-45.4359 355.091 1131.45 123 118 108
529.447 -124.313 1379.6 212 194 195
-19.2302 216.359 1101.33 230 201 187
-121.672 -105.414 1299.09 30 19 14
56.5184 278.029 1148.01 232 225 209
-80.3263 168.935 1068.22 255 246 228
129.41 53.269 1195.29 255 239 237
-106.184 35.6231 991.506 185 117 94
577.838 176.227 1516.13 128 164 173
115.017 22.6492 1140.63 237 174 150
405.658 -222.411 1306.04 70 70 65
535.152 -34.7332 1340.21 254 255 255
674.411 269.737 1703.82 126 159 160
-178.473 2.90541 1081.3 155 134 121
583.228 -195.52 1319.33 220 213 196
129.487 59.1989 1195.83 186 153 126
129.178 35.5118 1193.66 247 212 193
464.392 -323.929 1563.06 174 164 156
124.271 33.4593 1041.34 243 230 207
-42.6428 309.917 1129.88 253 252 252
-57.2671 37.4459 1042.12 252 237 220
106.457 -88.2506 1084.75 254 248 221
-90.5252 83.9962 1061.37 204 153 173
-95.8493 131.348 1062.88 159 157 157
618.555 -103.172 1608.83 89 74 52
490.703 -29.7634 1341.15 157 136 130
69.2116 448.334 1358.43 73 80 86
571.994 -72.731 1402.95 227 219 217
-103.503 99.5406 1059.48 130 66 53
481.627 -137.543 1265.85 63 42 32
-96.4577 132.573 1051.71 64 47 37
593.163 -87.0491 1329.62 160 145 138
-100.133 92.4086 1010.58 87 19 2
578.416 -29.9755 1523.14 131 122 122
-96.9465 103.277 1019.17 197 178 169
560.721 -39.6718 1284.06 141 102 94
93.3932 -35.0169 1298.69 183 99 71
477.912 -285.323 1427.31 186 141 126
-27.4465 232.678 1082.41 157 152 149
62.6051 285.135 1189.46 151 144 126
714.126 -196.167 1457.09 203 219 191
532.314 -31.2265 1407.82 141 125 119
578.465 -132.752 1473.53 244 234 225
697.183 -172.579 1455.56 246 245 216
-67.189 148.057 1069.85 228 202 161
59.1633 418.761 1264.22 138 145 147
55.8756 157.867 1140.6 109 83 71
129.333 47.3445 1194.75 247 230 203
-43.6752 68.8174 1090.6 254 233 215
689.356 -41.6318 1534.49 175 167 155
-12.5876 -7.43613 1021.6 255 225 193
-107.109 108.396 1153.19 215 158 139
593.608 126.901 1509.04 63 56 43
40.7116 362.045 1167.22 95 76 56
63.8561 264.275 1168.65 242 239 221
-53.9871 100.509 1069.88 146 104 104
528.516 -179.085 1208.21 165 161 143
614.786 210.155 1603.12 138 160 157
626.68 269.212 1700.48 72 113 115
590.187 -110.402 1397.12 251 240 215
100.458 -7.02096 1161.84 221 186 189
68.5189 372.913 1206.99 136 120 108
-44.3776 414.819 1161.6 121 112 93
-60.2809 212.246 1060.48 135 128 115
71.6523 -18.6326 1084.84 252 210 182
129.563 65.1342 1196.36 255 248 220
95.8188 118.869 1144.94 179 148 120
407.4 -257.127 1427.59 177 176 177
589.165 -79.6486 1402.52 211 194 193
-11.1696 -10.043 1029.5 207 135 102
30.4493 211.149 1139.22 181 174 164
507.888 -71.1666 1225.5 248 249 250
-31.4776 290.727 1131.26 255 195 191
-3.45686 241.066 1134.32 255 252 241
-3.59474 198.435 1023.28 204 148 135
627.599 -36.3708 1554.64 75 74 77
562.831 -298.717 1432.01 86 68 61
-81.1853 72.8198 981.959 242 241 248
115.584 283.073 1293.87 210 205 202
-72.4247 142.588 1068.46 137 91 50
