367.27 -99.6365 1794.85 255 251 240
72.0226 -6.46085 1233.53 255 227 216
57.6515 392.376 1182.33 246 243 237
38.46 413.049 1204.18 253 234 205
-3.87908 176.602 1062.49 13 9 4
374.282 229.446 1856.83 69 67 55
7.27414 95.6473 1081.73 107 14 3
44.7333 486.391 1208.72 200 200 188
95.898 5.51333 1185.63 80 17 15
47.4643 401.526 1205.41 248 238 229
15.3279 85.0299 1082.53 68 57 38
339.839 16.9688 1708.91 37 39 36
74.9327 -9.1026 1180.73 116 67 54
5.02391 65.93 1055.23 105 32 8
57.3751 363.697 1198.7 210 185 167
17.3133 296.422 1161.62 53 18 11
40.2562 469.219 1184.17 163 158 135
1.23385 58.5918 977.748 238 149 134
56.8788 273.153 1172.5 243 207 204
12.9001 178.101 1087.64 254 254 253
5.0334 71.1583 1055.46 203 122 92
63.5718 454.762 1240.83 97 70 66
9.33737 260.277 1030.23 164 142 139
18.0244 212.471 1112.84 251 238 208
37.9898 306.251 1124.03 122 91 84
122.719 458.854 1327.98 69 70 73
12.3833 184.438 1109.41 84 47 42
71.6091 -17.4679 1266.56 211 187 168
10.0589 130.724 1084.47 111 36 31
38.5201 423.39 1131.98 164 155 135
333.816 -16.789 1700.58 234 196 184
94.4853 174.343 1199.83 127 101 86
95.5228 209.633 1224.12 102 85 72
44.4903 413.465 1205.41 187 155 117
81.0711 352.828 1265.75 229 231 202
337.902 389.692 1995.36 199 225 237
347.688 0.0449916 1706.19 124 98 91
360.315 58.5259 1813.64 87 75 70
28.3869 60.5587 1030.7 255 251 242
31.0354 384.617 1176.49 207 205 198
65.5348 381.455 1207.92 216 210 201
116.469 454.545 1301.58 24 23 22
32.2281 274.849 1120.55 117 94 70
-102.361 525.535 1363.77 169 169 163
307.032 277.937 1757.77 78 109 115
29.3543 385.188 1200.94 188 180 161
5.90953 99.6655 1081.73 183 133 98
349.64 38.259 1714.93 248 230 227
357.168 267.032 1862.83 107 135 138
380.814 -74.7544 1898.43 173 162 156
94.3148 -44.873 1290.64 97 72 61
291.005 52.2622 1622.49 155 159 156
27.1382 402.482 1128.48 170 154 146
78.5604 474.178 1272.31 73 82 77
22.5376 68.8216 1040.29 162 146 136
62.3189 417.611 1244.38 97 86 82
33.9094 369.886 1175.96 151 139 140
62.4417 306.674 1151.49 126 102 112
-118.9 516.789 1358.97 129 128 115
66.2552 564.861 1215.6 199 219 206
373.832 52.1048 1824.17 221 201 201
225.288 -162.943 1652.21 58 58 52
-5.89525 254.829 1088.46 149 129 137
58.2993 290.276 1100.29 246 223 233
335.401 -70.8858 1688.56 80 69 65
66.0523 363.685 1233.78 217 194 180
110.155 191.778 1318.86 142 123 110
122.699 -33.277 1274.72 237 222 206
49.6393 446.966 1171.99 103 94 80
160.138 307.075 1361.01 128 128 118
21.372 297.201 1095.8 46 45 45
122.766 -26.9985 1275.26 166 133 114
103.364 178.402 1316.27 166 120 112
6.57335 134.429 1061.17 129 62 27
52.1812 7.9342 1129.14 228 203 182
52.9082 268.926 1198.79 243 231 211
77.2103 607.834 1312.75 118 145 129
47.3375 334.514 1227.44 248 204 190
337.726 -25.1563 1699.22 126 82 69
49.4649 343.9 1128.93 255 249 236
110.262 201.695 1319.83 239 237 237
-105.595 411.149 1091.03 145 131 113
-97.0475 463.181 1205.86 106 104 96
43.0793 -41.8485 1409.61 34 62 64
330.995 -156.515 1668.36 156 147 149
81.408 181.538 1100.44 255 248 236
-13.7619 177.132 1020.45 190 172 147
-154.541 483.358 1309.58 14 1 0
306.693 268.989 1756.03 50 85 95
15.3599 84.4521 1227.2 132 151 130
-14.1308 135.505 1080.16 119 70 57
8.37792 -8.62297 1115.14 87 72 58
24.9411 5.4136 1173.03 213 189 170
100.767 175.806 1230.63 253 241 232
345.365 333.387 1982.77 128 153 143
337.374 357.61 1879.26 133 158 162
201.691 0.648745 987.19 151 129 109
383.017 215.446 1854.81 113 88 64
38.1473 68.9979 1043 253 248 242
-83.4356 567.706 1445.44 157 157 153
365.668 -8.77974 1797.32 151 123 106
28.4235 468.25 1181.71 173 150 127
28.7138 79.3873 1134.61 197 187 181
338.444 -15.4444 1805.77 202 168 150
283.427 -35.7222 1604.42 125 100 89
69.9217 109.33 1140.13 226 177 159
403.97 -52.9761 1790.25 252 245 212
119.611 -23.5948 1262.38 255 242 217
45.9254 53.2044 1061.26 254 233 210
83.3119 172.224 1119.25 249 243 228
-2.09201 -39.6878 1333.99 135 150 150
43.0708 7.22281 1039.83 169 146 123
-38.8198 326.856 1183.42 135 109 102
39.4267 144.08 1125.83 195 150 127
41.1499 58.1727 1131.13 250 246 244
80.3757 122.247 1241.59 255 245 220
95.1743 132.428 1251.1 191 152 128
42.2706 481.692 1327.61 118 123 114
51.8416 78.5088 1184.27 255 246 229
68.3729 445.492 1187.43 77 80 72
333.372 376.785 1882.58 115 139 136
315.119 -45.9232 1691.51 160 146 129
421.832 -234.575 1883.53 170 189 185
34.7627 221.495 1116.75 251 227 199
11.1734 494.49 1232.91 63 49 33
-25.86 179.616 1148.25 88 48 29
32.6146 298.045 1079.32 231 228 233
70.1012 433.228 1174.09 252 251 235
-40.6208 292.301 1063.34 95 74 66
452.879 129.809 1941.93 228 229 204
35.8804 127.436 1047.14 168 147 146
25.4342 205.173 1022.14 185 148 123
411.479 -37.1176 1888.54 178 158 134
-8.03967 213.977 1189.32 165 124 97
528.738 -282.362 2317.06 81 80 70
-0.688766 146.661 1083.42 153 132 133
388.828 -33.4088 1811.1 245 211 188
