466.639 -292.543 1292.55 213 218 210
-112.312 327.591 1280.46 255 253 249
-121.767 267.545 1196.69 55 39 30
-56.589 50.1373 1187.65 255 239 212
518.951 -121.01 1391.92 27 29 31
22.5044 111.843 1252.19 33 15 8
-133.789 326.69 1253.02 30 22 19
-96.2325 -37.4002 1047.25 42 7 7
-67.8367 93.1351 1271.52 86 33 24
-217.68 91.8272 1176.78 57 18 13
-178.363 293.543 1224.64 227 226 222
-78.7464 58.7579 1156.16 255 244 226
-52.0335 70.2036 1180.1 167 112 88
-115.899 288.16 1240.41 255 252 244
-91.2954 -36.4576 1098.44 48 12 10
548.789 -114.899 1248.24 219 198 184
499.887 -227.564 1303.25 255 250 251
-39.6028 103.179 1278.94 255 250 247
-61.7121 23.3669 1108.71 255 244 228
-78.6913 38.7062 1154.67 80 55 41
-118.731 252.563 1195.57 251 232 213
-176.759 320.003 1263.12 225 209 198
-91.5952 -28.7665 1013.42 193 140 140
-183.508 234.663 1217.32 100 91 85
-41.678 47.6517 1163.26 58 18 0
-127.912 346.417 1257.19 217 207 204
-54.9215 61.4017 1178.56 251 240 205
470.965 -99.9379 1254.56 215 216 218
23.4319 136.739 1312.07 254 249 237
-62.4208 47.151 1186.2 84 34 16
-107.078 -95.3535 1091.13 248 236 229
8.43068 50.7823 1201.33 78 35 12
-149.303 327.287 1304.33 103 90 80
-69.684 97.702 1231 243 232 215
535.7 -16.3815 1403.12 218 211 195
-201.807 -12.9974 1052.44 56 43 44
-40.747 -92.6332 1060.38 78 8 3
-115.785 357.029 1261.71 61 32 24
-191.196 139.737 1153.64 247 230 196
-226.882 -9.17142 1068.71 234 229 223
-124.805 340.192 1257.16 91 84 84
-95.3453 -24.6499 1054.05 128 95 91
-173.507 276.494 1184.39 255 248 252
-130.174 185.573 1173.54 244 208 207
-192.097 68.5341 1129.98 82 60 57
-25.3135 86.8926 1295.25 102 75 47
581.742 137.517 1511.94 62 96 119
-91.1406 177.157 1234.86 130 108 111
-139.012 187.649 1224.16 212 191 170
-97.9439 -101.79 1118.28 223 214 186
489.768 -201.885 1155.39 242 229 200
-89.8245 -4.05682 1149 43 35 33
-40.9739 -85.2766 1083.55 109 30 12
-63.7166 105.304 1181.16 248 240 220
-162.627 236.175 1232.96 255 244 227
509.885 -227.701 1304.02 255 252 254
-166.65 297.42 1228.17 125 111 110
-31.7068 115.92 1297.64 161 138 131
67.5425 320.72 1408.3 95 91 83
644.751 -333.572 1278.46 222 244 236
-128.707 9.05058 1048.98 255 252 242
-232.387 35.7039 1069.94 241 227 221
-68.1946 14.8508 1183.01 254 235 209
642.535 140.971 1570.81 77 97 98
-103.383 -104.423 1116.97 63 42 36
536.931 -91.0624 1328.99 237 228 227
-72.6119 112.914 1376.35 124 84 76
33.3066 -64.5205 1168.53 250 245 229
37.9973 -55.8696 1200.12 254 252 233
-84.4365 70.1229 1155.74 248 202 188
1.52725 -28.6606 1117.28 255 233 225
465.048 -147.394 1263.49 73 34 28
534.75 -191.018 1388.77 225 218 210
535.763 -83.6882 1399.26 248 253 254
-191.218 3.747 1034.49 118 125 114
502.23 -183.337 1308.85 113 98 96
-157.974 316.713 1232.37 188 146 134
568.864 105.466 1561.48 37 58 67
598.58 -370.232 1291.06 169 185 192
-168.957 264.034 1235.13 134 96 94
545.147 -327.347 1231.33 131 139 139
-61.5977 -87.1741 1056.84 86 48 33
-207.686 144.92 1149.71 251 251 235
-95.3295 241.645 1199.88 222 229 201
-93.3734 273.99 1281.05 235 228 204
-156.723 266.644 1205.79 116 72 67
-124.24 222.054 1190.37 255 247 252
667.114 234.176 1696.56 63 86 90
-111.568 233.533 1293.24 150 98 96
725.628 -242.671 1441.23 239 248 223
570.685 -221.054 1302.73 242 238 215
-45.9799 -79.5726 1060.27 104 55 38
-188.883 200.776 1212.36 252 234 225
-87.6958 1.28993 1057.2 146 136 128
-137.597 377.982 1243.52 188 189 185
595.849 -364.126 1292 76 99 92
529.708 -92.1534 1275.18 209 186 179
-45.5328 228.991 1251.09 229 237 226
-191.694 128.34 1071.72 217 208 186
-67.3576 38.7931 1157.14 127 89 62
604.898 -145.076 1391.51 214 190 188
-173.713 -21.7795 1037.18 140 97 104
89.2853 334.296 1483.36 54 48 33
489.059 -375.833 1414.71 199 168 172
-154.718 189.519 1276.76 110 45 37
-24.9136 329.774 1367.15 226 229 202
-191.87 194.616 1158.56 150 157 143
637.156 -348.684 1276.1 156 173 161
69.209 50.2066 1296.38 255 235 215
578.027 -93.2018 1336.16 229 207 202
413.627 -338.935 1413.92 58 64 66
-44.5831 125.797 1168.5 124 105 100
500.274 -202.47 1247.28 245 246 245
-239.379 -31.8554 996.24 223 198 175
529.127 -174.899 1383.19 217 203 193
-52.7893 81.4592 1310.1 255 248 220
-159.75 400.678 1312.41 235 234 223
36.4559 -45.0321 1148.23 251 239 223
-75.5923 193.675 1187.27 163 156 154
462.515 -190.088 1257.18 201 183 176
587.503 -100.947 1398.78 223 219 208
-195.672 -4.10881 1175.13 91 87 76
528.666 48.4382 1648.4 174 171 168
-166.224 253.799 1135.67 237 237 239
-78.5719 -4.06995 1151.45 190 155 144
-204.22 117.296 1067.36 255 251 227
-234.679 14.5579 1068.11 255 239 227
21.7875 -35.6737 1168.95 255 236 206
-53.8032 -82.0687 1058.64 227 197 186
-234.319 91.4626 1172.2 251 249 252
-110.668 -87.5485 986.069 42 18 12
-46.4781 354.727 1334.31 102 83 67
-50.3383 248.181 1262.33 132 110 95
-133.523 -89.5647 1085.85 198 181 184
-101.994 -113.412 1138.63 160 139 130
1.41119 -52.7546 1163.69 252 243 225
-52.2691 236.635 1196.65 213 201 185
51.3786 13.5047 1178.57 255 238 217
519.275 -150.824 1265.91 228 201 178
523.707 -197.603 1386.98 209 192 189
-50.2398 13.0977 1158.79 173 126 89
651.648 162.838 1674.36 113 141 136
76.0505 85.8298 1301.38 250 241 210
-127.419 197.483 1175.34 255 251 246
-112.92 152.744 1155.1 241 224 219
604.112 134.468 1761.16 32 47 46
-6.57735 87.9484 1359.14 202 184 161
-42.4539 241.7 1253.16 237 226 210
561.714 -145.911 1383.26 246 232 214
-139.311 221.524 1227.64 141 110 118
-3.38176 227.706 1269.46 255 249 235
817.402 -88.5864 1546.16 224 229 214
397.9 -309.929 1292.65 45 47 55
529.89 -376.295 1443.05 68 62 67
-188 230.82 1253.04 150 124 126
626.683 -346.094 1238.59 78 98 82
47.9605 -3.9499 1149.75 220 218 196
16.1015 -1.06164 1170.82 255 255 226
-171.641 216.876 1218.68 207 196 186
462.359 -140.359 1097.3 245 228 205
568.825 -90.5533 1274.37 140 106 96
527.456 -100.697 1395.88 200 181 184
50.3115 0.417494 1206.31 238 216 206
-101.266 189.376 1065.78 234 203 196
-68.4224 124.418 1239.98 134 113 113
648.6 -357.512 1273.89 175 202 192
7.22621 -44.2128 1165.51 255 246 206
602.609 -171.95 1386.59 157 129 118
595.648 -171.911 1386.38 239 224 211
21.1324 -1.08324 1122.96 255 248 227
-168.121 4.04716 1083.93 255 225 219
27.7169 -15.5261 1171.77 255 192 170
-219.883 3.9853 1066.44 147 106 96
373.247 -285.883 1236.65 53 60 58
-145.972 -27.6865 1018.43 255 209 192
-150.044 33.6653 1090.02 241 187 159
-151.355 332.674 1197.02 251 239 223
-219.409 1.34121 1071.23 169 172 164
-175.189 189.554 1162.5 179 83 77
488.35 -184.237 1259.43 244 242 245
-148.787 -14.1674 1043.23 255 248 234
576.16 122.216 1507.42 84 133 149
24.8877 4.72951 1172.96 248 200 179
-118.06 177.382 1186.18 151 92 79
-227.563 57.0267 1072.44 229 217 209
-128.722 186.386 1287.54 244 186 176
7.89234 326.261 1332.42 112 86 72
-6.73822 197.205 1181.53 255 254 246
484.716 -118.134 1250.3 197 182 176
28.4337 70.1918 1156.31 254 233 216
-28.8474 -77.9883 1133.81 149 74 58
709.065 -167.267 1606.45 239 227 222
52.038 232.729 1229.86 150 103 76
19.0899 16.3314 1172.84 250 255 255
823.723 -114.019 1554.3 119 121 114
-125.085 -97.2552 1163.37 238 232 213
7.13472 -12.1654 1119.56 255 232 216
-159.642 189.859 1219.05 118 74 68
565.8 -30.7474 1345.7 128 129 114
452.018 -335.402 1292.05 82 55 48
-251.605 -13.2145 1086.47 175 131 110
-121.213 183.782 1208.67 149 82 74
16.124 4.7302 1171.31 255 240 222
-188.867 174.46 1157.5 214 181 161
-85.9542 63.4743 1049.43 232 218 193
597.188 -145.593 1317.47 157 124 118
-204.073 -187.166 1315.56 58 48 40
502.603 -160.663 1321.68 170 148 139
-0.305535 208.52 1267.21 252 252 251
-210.656 76.9457 1021.64 218 217 217
-98.6809 364.731 1323.19 127 98 78
7.17 -61.3976 1164.03 170 160 144
35.3433 24.2631 1204.99 185 144 115
598.467 -137.763 1460.51 234 228 229
556.161 -132.857 1320.56 215 201 197
-121.101 14.2717 1050.93 247 193 181
585.244 89.084 1578.79 148 163 150
1.23128 -57.7368 1018.94 192 109 79
589.797 197.13 1585.01 44 84 93
-92.6028 113.435 1175.49 205 159 146
445.664 -109.94 1162.57 108 87 83
-90.9538 203.297 1069.79 175 118 106
-195.857 91.2958 1056.01 83 32 21
422.21 -128.847 1165.28 139 109 94
-176.976 294.015 1292.51 180 167 172
-161.681 -27.4124 1182.59 245 191 181
