62.146 -17.2789 860.109 240 241 228
81.4819 268.045 859.886 223 202 195
-11.906 178.234 823.293 214 208 203
103.892 421.531 925.417 216 225 216
-101.309 47.9889 871.307 224 214 208
83.5351 210.626 859.685 243 229 221
138.626 291.038 897.694 174 167 165
22.1346 -46.419 986.787 231 219 222
131.781 281.859 896.75 214 226 226
173.144 -12.4533 818.995 8 4 1
100.929 456.679 989.324 230 239 236
-39.7638 114.949 768.103 195 197 183
-5.88816 38.1442 823.16 255 253 254
98.2178 472.887 1016.27 62 70 65
11.8918 -35.305 948.525 236 227 231
110.879 -36.9068 928.839 221 227 222
-180.996 -25.7031 1403.49 179 171 166
96.5722 217.47 861.523 226 229 228
-159.374 -32.0746 1307.27 76 51 38
92.2457 225.852 861.025 202 190 175
-13.9475 -16.5207 944.687 197 191 186
57.7394 264.879 856.578 183 183 178
-51.6923 5.36511 911.981 232 215 216
75.8819 -32.1519 924.013 250 245 238
-170.008 -42.9839 1347.52 174 149 131
71.0176 -22.2586 891.317 68 72 61
10.2328 -43.1122 1024.62 218 233 223
135.885 1.64495 815.02 162 196 201
261.013 276.192 945.085 177 165 155
-71.4465 92.4575 740.289 250 254 243
48.2625 447.825 917.285 128 129 122
103.695 134.241 833.411 223 161 142
105.424 444.574 960.459 54 74 69
-242.47 -63.0733 1282.65 197 179 168
-24.0979 232.578 821.598 181 182 178
-55.5465 -7.36315 974.228 252 251 248
100.46 -42.9337 961.938 250 251 245
217.92 296.734 932.581 244 214 202
1.95475 44.0052 768.092 231 232 235
60.4688 203.108 833.434 227 206 195
6.55649 251.987 849.029 193 173 150
74.9904 267.77 858.994 220 219 221
-49.5855 -41.6377 1206.38 201 197 185
-17.1862 -14.4464 885.052 55 47 53
-41.7765 45.4519 845.549 42 90 78
-277.479 -14.2326 1300.24 239 212 192
-24.0955 236.644 821.598 130 131 127
204.657 163.718 904.329 33 19 15
169.778 293.71 934.178 246 190 178
-288.497 -30.7698 1323.81 253 242 220
215.194 117.255 874.325 42 16 8
205.004 226.518 905.4 153 158 154
-6.99043 -25.8586 992.197 245 190 186
-96.8274 -44.7261 1348.54 166 131 122
87.1631 456.906 976.739 154 155 149
0.246351 36.1636 824.044 210 209 208
-37.8545 143.478 768.506 157 164 158
-39.0095 5.14291 881.639 95 97 95
-271.48 -1.40991 1302.52 237 212 191
-257.907 -16.0482 1189.53 142 115 95
109.989 -27.6373 886.947 74 71 74
12.8188 29.3264 830.909 32 75 88
-102.284 -61.2114 1423.62 227 169 164
74.0305 454.316 955.877 112 117 111
283.787 344.284 975.571 44 31 17
-90.5572 -48.0209 1396.53 147 115 105
-5.50113 111.166 801.491 64 75 70
120.585 25.6185 782.647 122 104 91
204.627 159.237 904.232 166 136 130
233.475 304.991 977.307 110 67 60
238.063 393.069 1007.81 158 149 138
165.524 483.364 1006.43 168 191 210
-177.524 -134.071 1296.33 134 114 99
160.312 309.494 933.041 141 140 147
288.762 339.629 976.021 76 70 59
160.995 -13.3344 810.436 161 182 174
147.868 0.734437 863.179 15 64 66
104.523 245.285 892.802 205 191 174
52.2707 -44.9456 954.678 126 75 44
167.055 503.121 1047.55 191 215 232
2.44793 4.21617 913.598 115 82 66
-234.418 -53.4929 1243.21 152 147 137
24.406 19.3115 885.285 21 71 63
175.139 292.638 927.096 203 140 130
-121.087 -47.738 1388.54 148 134 130
-265.497 17.8918 1305.02 150 115 92
-275.237 -37.8464 1232.4 254 239 215
122.655 126.359 835.661 188 136 122
169.375 110.653 840.913 161 126 114
265.511 273.1 971.391 172 133 124
-258.172 10.823 1238.88 253 244 228
140.975 199.048 859.807 161 151 145
53.2662 446.686 922.322 222 221 213
-249.781 7.42808 1193.25 162 136 118
-27.2963 156.276 794.688 130 120 116
119.012 224.025 900.322 140 117 108
71.2248 229.649 863.312 205 206 210
-249.262 -107.471 1323.67 138 120 107
-52.4739 49.8498 816.157 53 88 81
11.0636 280.144 854.809 164 143 129
-78.8347 -80.0651 1515.33 47 40 38
-246.582 60.5318 1288.34 165 138 117
-18.0449 37.2747 826.364 168 171 157
-31.2359 134.574 794.015 43 43 36
-227.253 -127.611 1329.5 163 145 125
47.5014 -59.0176 1015.38 189 175 168
140.004 479.166 1002.91 87 117 136
-25.4323 217.04 777.273 50 48 42
193.238 166.626 872.876 74 79 81
142.985 380.646 958.214 162 144 141
45.0974 -47.2417 953.506 205 159 141
205.574 234.942 948.119 116 137 136
23.8929 128.192 796.675 113 118 110
53.9221 252.391 860.888 145 120 105
-179.596 106.904 1033.64 158 120 103
-54.0742 122.201 802.866 125 120 113
-1.6118 176.759 798.427 188 183 183
-56.6464 39.0084 820.416 66 96 91
-207.672 128.418 1238.82 207 176 157
154.377 213.757 899.023 32 36 32
39.0189 401.543 834.409 31 33 30
142.586 238.386 867.678 28 64 67
170.926 171.077 847.153 85 58 30
86.0546 -35.9927 905.566 152 150 144
126.403 -27.8858 975.298 141 185 167
85.1131 -50.4361 924.882 212 169 158
4.17468 112.134 774.327 64 87 86
-248.756 -102.054 1237.48 133 108 86
-109.778 39.3264 869.751 138 138 133
-24.557 122.902 770.34 67 74 73
-1.60907 180.701 798.432 84 79 78
104.514 139.981 807.472 110 64 43
152.422 285.171 863.232 75 75 83
23.8616 278.632 856.622 185 169 164
-71.7694 99.1459 763.219 156 159 144
180.349 187.359 864.242 179 158 146
4.98581 -17.2794 921.258 186 142 122
-5.93665 182.318 818.851 195 194 193
37.5622 237.192 830.269 130 94 77
8.67497 1.76285 852.741 255 225 217
-50.7513 -2.57622 975.22 185 96 75
180.956 179.017 908.195 156 127 105
-104.022 48.3401 840.806 211 179 163
-54.4093 44.5982 849.054 134 175 176
-106.092 59.3167 807.49 156 149 139
-132.598 52.4152 890.828 151 154 140
114.866 177.614 869.127 124 62 42
19.0103 -21.303 950.019 207 162 150
-111.086 -70.1628 1212.07 163 124 108
28.4202 382.975 876.289 97 99 96
-76.9573 -98.1326 1351.38 75 71 60
115.138 435.684 961.872 187 192 183
-3.70459 4.74235 828.409 231 207 198
197.194 195.144 910.137 116 99 97
103.762 -55.1642 927.376 80 81 69
115.291 204.878 840.446 45 20 5
127.067 217.3 895.521 69 59 41
62.9866 -19.0458 1019.74 80 78 65
-237.457 -33.7377 1311.07 13 11 7
-33.2202 47.0506 787.034 137 143 140
-3.60062 168.798 798.134 45 38 36
29.161 389.768 886.94 83 84 81
93.3649 -50.7583 870.527 168 164 153
-82.512 32.9342 899.723 178 202 193
-42.7729 -4.74715 918.443 137 50 58
-30.2721 53.6977 877.231 41 62 58
165.212 168.436 849.648 128 104 88
171.316 237.254 871.188 42 67 78
-76.984 -71.5405 1352.48 139 121 124
-85.8766 68.6555 789.489 161 196 189
-228.161 -30.5691 1313.84 141 139 141
180.29 180.327 881.858 179 156 131
-79.3055 -78.2715 1324.85 70 71 67
211.226 116.801 903.978 173 135 122
241.762 310.606 943.105 105 52 43
198.847 40.9419 878.346 115 97 82
-282.807 -109.907 1294.63 62 52 33
-89.6559 54.7166 843.28 196 228 219
-79.3157 -83.6539 1281.89 127 131 117
160.411 482.497 1012.51 146 180 190
-179.507 -115.892 1272.2 203 189 170
