-8.13303 37.0154 1051.58 58 23 10
-21.3687 -21.1619 1027.23 255 236 240
99.0993 177.076 1123.88 55 23 29
-73.6794 341.754 1036.88 215 191 181
603.289 5.63062 1418.25 245 242 243
-31.4266 322.866 1085.21 45 28 25
-28.9855 -21.1742 1025.86 255 240 240
153.295 396.013 1322.7 39 34 22
-17.9833 33.1342 991.975 55 15 0
-36.927 373.899 1112.76 36 37 30
16.9673 95.3338 1059.84 238 215 205
-114.045 159.823 1060.61 60 18 15
87.2641 127.787 1144.29 84 31 18
-31.4419 365.99 1135.04 218 213 206
-63.4973 359.255 1081.42 57 31 15
33.0224 143.559 1135.6 103 73 37
-93.4681 206.117 1067.49 255 240 200
-68.8386 175.27 692.799 60 67 51
28.9987 131.822 1087.84 249 238 204
-40.8017 249.084 1080.66 255 252 238
646.595 -41.3627 1347.32 255 246 238
-24.4544 348.38 1132.71 227 219 210
-21.613 377.581 1136.07 215 204 201
593.181 -153.419 1384.74 255 250 247
18.22 153.424 1087.12 110 87 69
-35.0523 322.475 1001.12 254 251 243
20.7643 104.495 1084.67 101 51 25
-50.495 381.558 1183.01 34 21 11
492.85 -114.82 1118.92 255 252 253
6.67227 132.479 1103.67 246 226 211
-85.0816 355.339 1141.63 203 196 195
-88.3674 64.1168 980.306 49 41 28
-35.6157 -17.9046 1088.23 224 222 201
-26.05 328.759 1086.84 231 209 202
7.09366 115.454 1040.17 131 105 86
-45.4829 233.051 1034.17 255 232 222
647.175 -34.747 1348.45 251 237 232
654.666 226.855 1523.89 23 65 78
-55.599 418.058 1087.86 254 254 237
132.825 369.27 1218.92 234 234 233
617.129 -275.683 1249.52 162 187 189
42.7421 159.581 1091.97 245 237 222
-42.1002 256.253 1077 84 68 59
53.142 178.388 1141.62 106 100 83
17.0326 111.292 1061.12 216 165 145
39.7406 122.116 1108.84 93 57 44
39.1278 -21.5798 1079.5 113 29 0
438.473 88.8702 1485.38 57 51 46
-73.647 341.284 1175.72 132 133 125
707.56 229.402 1593.22 204 230 233
-129.445 159.25 1057.15 253 244 244
15.4772 142.418 1085.98 110 73 57
566.557 -13.7865 1224.18 253 244 234
603.809 -153.492 1385.49 229 223 223
637.649 -11.8612 1416.67 252 223 230
641.766 -57.8635 1344.4 240 229 223
25.0028 116.834 1062.97 249 228 207
-105.808 70.501 941.024 109 110 95
551.546 -39.6343 1339.75 238 221 216
-62.105 305.345 1035.53 149 121 122
17.0339 -16.0516 1034.22 119 71 52
32.782 89.6764 1131.87 154 104 78
-71.8308 265.201 1054.47 255 249 253
641.588 -281.572 1306.02 57 81 73
133.32 363.981 1211.46 118 121 112
-107.628 66.3263 994.456 254 250 245
701.225 -255.277 1311.4 171 196 181
607.677 199.568 1388.87 197 231 245
-133.729 61.0982 1009.46 241 240 228
96.7876 23.1006 1007.43 251 242 221
654.977 -61.1405 1344.19 224 206 203
-30.1175 241.449 1082.45 95 52 36
-84.0266 263.523 1118.69 110 62 54
-133.571 102.293 972.735 244 214 206
545.4 -99.0994 1275.03 134 124 125
-63.2381 309.721 1166.68 251 233 235
-35.4235 380.134 1087.38 255 254 248
646.076 -157.116 1387.74 209 195 171
-3.55487 68.8827 1077.97 132 121 121
683.078 221.282 1591.48 43 81 98
-35.256 363.187 1046.63 112 104 96
-6.82385 287.897 1046.46 237 243 219
-0.533912 231.879 1087.81 134 124 123
-22.0951 220.073 1082.98 230 210 200
24.7922 -10.8602 1035.85 246 194 187
574.592 -111.012 1325.07 210 207 212
-107.19 202.161 1021.84 244 243 228
-111.165 80.3001 1056.93 138 138 128
-8.46483 73.5942 1035.04 137 133 135
-3.29648 327.781 1139.05 214 205 181
651.307 -18.8361 1415.91 248 233 233
562.143 -34.7724 1345 71 68 66
535.737 -264.979 1435.02 217 209 208
19.9263 170.252 1066.16 255 246 232
-31.4776 289.05 1131.32 233 226 217
-128.913 76.3724 1011.24 123 93 91
-34.1982 289.8 1107.72 97 92 88
-138.178 82.6563 970.916 255 234 211
-87.2475 251.078 1050.25 181 176 154
37.2283 156.763 1159.4 144 117 97
96.4769 194.202 1150.4 210 186 175
-31.4113 302.091 1055.22 255 242 231
37.7351 -10.8124 1037.99 174 83 48
-155.499 48.2186 1004.06 224 154 127
4.48775 69.0253 1079.47 142 114 117
528.213 130.514 1499.02 164 162 154
-116.207 59.0948 1054.65 154 126 122
-90.4942 70.1525 1060.78 124 89 77
66.5435 388.958 1182.88 64 42 43
728.033 242.708 1615.8 131 156 162
582.081 -41.3689 1344.91 252 242 239
99.4095 40.1973 1115.54 250 216 188
-111.557 277.599 1136.38 95 87 83
136.012 92.7677 1200.02 255 251 229
-82.1615 269.946 1052.55 153 143 148
33.6635 318.259 1171.09 231 226 207
77.4709 24.1382 1089.1 252 237 231
706.519 -12.2646 1488.38 252 239 234
100.503 7.40792 1036.96 255 240 222
590.26 -13.7417 1223.08 115 79 61
-14.6503 284.25 1134.55 132 109 104
-32.8423 394.14 1135.18 109 106 103
-53.3352 -12.4243 1038.54 87 61 47
697.203 -22.3416 1416.48 234 201 182
-37.0686 271.676 1129.25 251 251 242
119.291 73.5827 1099.27 255 250 231
-88.3259 46.971 979.523 133 124 117
34.62 197.568 1114.32 154 139 136
580.684 183.898 1326.61 189 222 238
-97.0556 138.386 1021.02 138 107 101
607.666 -61.1617 1342.73 250 230 222
582.838 -127.014 1321.69 240 239 242
680.982 -136.859 1277.48 198 199 170
-138.156 77.7791 970.712 173 78 54
-120.861 196.388 1079.57 253 245 228
549.435 -56.1764 1226.68 242 209 195
846.783 -230.262 1534.44 223 243 217
408.041 -198.614 1201.8 96 107 95
80.3399 40.4363 1090.72 250 243 233
548.083 -114.254 1324.5 221 200 190
14.5718 159.353 1064.36 249 232 225
-24.2382 418.096 1166.42 112 90 80
10.1723 272.638 1162.69 171 166 164
611.875 166.628 1444.9 91 96 90
-59.7296 312.033 1089.7 251 218 199
-141.111 76.1466 1008.58 235 168 155
642.199 201.621 1452.23 193 230 246
-113.258 230.16 1160.04 142 131 112
-146.154 111.462 1009.16 91 48 39
-82.1899 280.555 1053.21 181 159 153
-95.4403 135.067 1015.45 153 107 96
610.569 -236.822 1298.68 157 156 147
664.213 299.897 1611.49 24 67 75
600.103 3.22348 1292.9 124 98 86
98.0888 51.0746 1140.39 150 86 57
142.708 152.129 1155.27 255 246 214
32.285 287.801 1120.9 146 146 125
-61.4531 255.111 1056.03 161 149 149
583.405 69.2548 1362.24 136 128 112
499.219 -105.461 1219.62 101 78 71
-125.42 72.4555 951.202 230 182 172
-60.4686 44.5876 978.814 248 219 219
47.5249 423.122 1253.26 88 64 55
664.478 -266.751 1251.17 17 36 42
-127.696 62.8579 950.465 80 72 70
-67.1368 253.165 1032.41 188 167 175
-42.1096 272.696 1078.5 137 136 134
510.732 -266.14 1350.46 192 159 141
635.127 297.751 1539.6 70 94 115
19.4098 96.6201 1179.44 245 206 179
-81.862 52.0959 928.329 205 187 180
586.015 183.067 1447.12 61 84 89
-50.2153 323.557 1016.22 244 241 232
-93.2557 128.519 1063.46 122 94 73
80.1208 13.4452 1088.75 255 246 241
69.4948 482.028 1362.1 5 11 26
-215.71 21.9936 1120.83 156 137 116
-43.6768 87.4157 1091.56 255 231 222
-16.2608 282.686 1117.41 223 176 165
-71.715 356.475 1123.1 164 156 151
111.485 65.6136 1193.62 249 217 178
-149.655 36.6139 947.725 223 203 171
716.628 300.538 1625.64 116 157 153
-93.7441 258.601 1009.01 69 66 71
94.1851 70.1138 1070.44 253 238 205
-79.4424 77.4257 1021.61 249 245 227
97.0075 59.6579 1094.77 207 169 146
-61.2848 99.9362 1005.98 238 213 192
622.4 159.408 1444.44 58 52 47
-147.398 55.7317 967.797 182 113 102
95.1084 226.312 992.97 211 201 189
856.544 -133.723 1534.52 237 252 237
47.5073 8.37042 1123.14 255 242 219
12.6105 88.0813 1082.16 236 188 163
-64.0241 241.652 1054.62 180 120 84
607.615 -173.631 1257.82 184 178 169
-38.1443 89.786 1072.6 142 128 110
44.6767 5.09947 1082.33 253 203 182
603.049 -75.3529 1329.65 234 162 148
972.899 -146.65 1735.78 136 158 137
-102.259 171.166 1041.72 218 196 163
651.94 -274.82 1368.85 57 63 67
677.459 297.926 1540.38 107 148 151
-74.9584 96.9968 1065.56 217 153 147
801.844 -53.026 1445.85 217 241 224
513.331 -271.482 1432.16 143 128 123
137.917 126.804 1171.75 251 235 211
-121.976 250.241 1109.41 219 210 203
560.017 -272.46 1348.52 204 186 180
-139.518 132.42 1053.47 215 200 188
-54.4783 240.215 1095.16 143 90 66
800.78 -177.043 1453.84 201 229 200
722.949 -212.696 1317.96 190 205 193
-124.836 177.856 1021.38 88 91 78
709.056 -145.504 1313.32 62 72 44
174.178 254.667 1241.62 245 233 212
51.7989 14.975 1106.09 216 152 139
-48.2102 302.298 1128.47 239 203 184
37.882 285.233 1121.78 222 228 209
83.5972 291.072 1178.34 202 178 166
-47.4387 286.1 1078.58 241 223 208
-61.7958 -11.0918 981.782 200 174 160
