-268.721 137.241 1011.16 12 4 2
-207.403 327.246 1086.76 37 31 28
384.186 -165.786 1113.58 219 220 216
-270.136 285.053 1110.11 63 54 58
654.916 -5.68715 1488.37 254 240 230
-163.875 138.001 1093.28 230 196 172
-137.542 149.75 1100.23 108 75 54
-150.786 168.398 1072.91 244 215 198
-179.416 39.6885 998.242 43 8 6
437.997 -47.2655 1221.15 135 122 113
-132.571 158.385 1076.47 27 14 7
548.071 240.684 1394.6 225 250 252
-178.642 307.508 1092.59 247 251 230
-163.8 127.155 1092.65 74 54 29
-149.245 138.816 1003.8 251 232 211
-245.536 295.628 1103.46 244 245 243
-238.527 357.348 1080.91 80 50 37
-180.419 47.8424 1066.78 89 53 40
-150.722 160.394 1072.33 109 80 67
-144.571 102.983 1040.3 255 232 210
557.68 327.542 1474.76 198 227 248
-74.5176 135.993 1087.73 70 33 23
-23.902 384.5 1233.98 51 47 42
-116.559 188.393 1128.16 92 79 62
-203.632 245.313 1080.14 86 45 32
-180.862 332.296 1140.23 240 234 221
-137.633 139.475 1073.86 239 212 186
-291.753 219.668 1132.66 254 242 217
-277.511 303.872 1144.33 129 101 93
473.269 -268.44 1428.83 225 219 208
-65.7837 205.811 1109.68 253 251 231
-175.224 241.606 1087.25 110 109 112
-180.784 51.7088 1015.84 64 49 41
-172.855 46.4796 962.257 179 133 126
-213.469 376.657 1168.6 184 191 185
496.228 -111.877 1270.55 244 236 235
548.891 251.318 1396.56 158 185 222
-179.203 49.1446 1039.84 245 234 224
-213.719 397.288 1170.18 252 253 245
-46.0429 32.182 1067.52 255 247 207
471.129 6.00544 1290.62 250 250 247
-307.102 59.5355 983.521 214 232 210
-304.297 59.9841 1052 60 50 49
-154.923 193.123 1147.83 231 197 179
493.707 24.0216 1241.87 220 203 204
484.332 9.55859 1328.88 79 72 67
-171.226 -17.8195 975.569 241 228 208
-159.639 155.907 1115.02 73 43 23
-272.226 71.9286 955.983 26 30 25
-123.562 -4.7557 1049.33 98 13 7
-253.661 368.937 1123.64 213 187 172
652.204 -232.042 1256.73 232 247 231
-120.172 152.372 1011.55 215 189 170
-199.716 330.64 1089.14 231 218 209
-142.023 108.134 1028.66 80 29 13
472.05 18.7898 1292.96 240 235 234
-228.969 400.445 1183.51 74 64 56
-67.6631 199.684 1168.74 23 8 1
-204.634 313.738 1086.27 222 211 200
-249.539 269.299 1069.71 247 235 229
-125.606 287.081 1043.87 85 75 56
452.801 -100.986 1081.83 242 226 207
-261.989 334.215 1151.44 140 127 126
-210.494 362.757 1089.12 63 56 51
-117.43 21.4375 1120.71 195 148 135
526.854 28.4813 1236.96 255 248 240
-200.671 223.924 971.544 250 227 218
-171.569 116.076 1090.11 233 205 187
501.985 -123.907 1315.92 249 246 247
531.527 -169.166 1115.96 217 204 201
-181.725 83.5091 1085.65 103 83 79
-93.2902 391.106 1190.61 217 205 183
450.592 40.7606 1237.68 215 214 213
521.807 22.9239 1192.97 82 61 44
421.955 -38.4358 1179.29 249 243 230
-47.8033 25.8535 1188.16 255 243 217
-221.63 258.437 1107.16 211 174 167
558.947 244.32 1395.81 210 245 248
520.747 -103.088 1220.31 234 230 218
-185.181 -17.7957 972.438 203 176 165
-321.891 104.818 1022.63 249 244 232
-198.736 339.035 1049.32 239 231 227
-296.966 156.944 1033.58 122 94 91
-214.077 384.324 1136.45 251 249 241
-215.31 295.046 1126.96 239 234 227
-128.417 302.733 1104.83 242 229 213
450.286 -50.2923 1221.65 234 217 215
-123.512 -15.0895 1048.73 115 41 15
531.185 251.152 1395.54 66 90 112
-161.908 75.1712 1045.31 102 60 49
-79.3396 33.086 1019.28 255 241 248
439.875 -74.279 1169.43 255 253 254
-117.45 26.9661 1120.99 174 131 117
-231.137 306.602 1035.84 86 56 58
-222.915 258.594 1156.01 222 188 169
-233.322 349.631 1081.67 185 174 154
-166.081 273.138 1122.85 148 110 113
-124.183 128.103 1056.78 103 54 28
-181.091 -30.2631 1035.03 196 164 161
11.6409 380.984 1247.28 75 68 54
512.621 -18.1775 1185.91 223 204 197
455.855 -91.3547 1166.23 247 247 240
594.093 109.84 1313.68 246 249 230
-310.915 81.1555 967.377 239 215 205
-190.62 215.358 1038.96 252 242 229
-165.922 117.338 1077.31 93 56 42
529.959 -24.0585 1185.31 247 238 238
587.342 -213.083 1137.34 200 218 198
-321.625 227.345 1186.06 252 252 230
-72.2411 45.0902 1063.09 255 251 235
-31.6525 91.3971 1222.08 243 243 225
-144.537 122.312 1051.88 82 42 15
-139.358 114.148 1004.07 210 188 161
530.689 -104.467 1218.99 250 244 239
-238.242 377.314 1161.78 103 97 80
-162.977 71.4282 995.17 108 112 105
486.685 -1.97494 1285.66 220 221 222
-25.3644 121.231 1281.36 241 237 226
-147.526 -3.54594 1104.3 162 145 132
-218.547 300.852 1138.21 83 72 62
-290.666 143.137 967.413 246 240 244
626.294 -103.11 1219.83 228 232 201
-48.3765 17.2567 978.698 255 243 207
-278.331 265.473 1091.89 147 150 140
558.56 -5.24719 1289.65 251 235 226
-211.578 263.886 1079.75 255 250 241
-234.993 91.7414 1120.46 255 249 241
477.367 -272.402 1359.42 198 176 172
535.335 13.1983 1235.44 127 109 112
-114.243 388.264 1195.31 199 197 165
518.048 -24.2162 1284.59 255 249 238
-61.7574 89.6163 1162.29 254 246 219
-245.814 340.243 1077.32 167 159 155
-158.371 227.595 1048.13 138 125 120
-277.649 73.5622 1060.21 74 59 55
743.472 48.3289 1364.82 195 201 194
-261.646 338.716 1102.19 226 225 222
579.917 -6.15385 1081.26 244 255 246
-299.727 74.2049 970.074 234 176 176
-264.78 49.7513 1005 136 126 120
-221.952 283.446 1109 128 118 116
505.969 20.9515 1241.78 218 193 182
-63.6736 60.7113 1083.85 144 99 58
615.79 -149.757 1147.63 224 236 232
-28.783 102.934 1120.97 252 243 233
-264.163 254.763 1064.14 178 170 144
-96.5033 164.126 1142.81 117 93 62
427.625 -90.3112 1171.52 254 252 252
-105.001 156.546 1081.69 92 51 29
-61.7666 95.3247 1162.72 253 212 196
624.768 -119.118 1153.34 240 255 236
-247.547 58.1675 961.636 237 220 209
-270.277 238.625 1092.1 108 73 46
522.337 -46.1146 1230.44 241 225 214
554.225 323.233 1409.21 49 84 90
-208.846 -9.27645 951.412 95 76 59
561.086 22.3256 1238.07 252 232 220
-152.989 206.991 1169.99 65 39 18
583.464 32.6697 1281.45 87 71 62
555.474 252.204 1460.37 22 57 84
-187.661 379.038 1053.02 75 54 47
503.856 14.7293 1349.02 216 212 218
-320.26 205.157 1129.38 252 245 227
-50.0238 334.73 1351.23 249 253 251
-131.984 93.0309 1029.89 134 71 49
568.546 -176.772 1207.18 83 75 63
432.21 -22.2646 1093.16 218 194 170
456.993 -37.0974 1135.11 210 192 169
579.54 237.379 1395.46 119 152 153
-205.894 307.4 1195.79 95 68 58
-189.534 209.958 984.487 194 179 180
-243.671 398.629 1129.5 244 241 222
559.612 -171.479 1160.3 103 101 98
-269.533 100.802 1020 171 137 124
-278.53 401.862 1264.94 252 236 222
-136.825 311.418 1183.38 218 221 194
536.44 30.157 1189.51 149 129 117
-80.1343 35.3094 1122.84 140 132 132
-53.2512 165.135 1169.59 244 227 226
458.123 101.59 1252.96 135 131 103
-331.757 61.8398 1000.93 95 57 49
609.288 216.263 1392.53 122 150 156
-220.442 -9.81373 1026.76 210 193 174
-181.743 453.985 1047.48 18 18 13
508.644 -17.8474 1284.91 254 252 252
-27.0448 120.911 1245.95 228 204 182
-204.212 -10.8962 1006.18 136 122 110
527.551 -106.358 1205.59 143 126 109
-138.965 219.398 1174.68 174 148 145
389.116 -224.377 1304.56 50 53 59
-256.69 252.623 1066.09 108 50 38
568.317 320.025 1473.99 30 56 68
-21.4226 142.792 1174.79 253 234 219
-74.3367 73.9516 1082.74 254 238 240
-337.486 218.21 1208.13 220 211 187
-263.758 122.334 1011.3 85 54 56
-232.012 243.133 1082.15 188 113 110
-240.908 86.4876 947.777 253 233 207
452.423 -68.2965 1219.45 145 123 121
-251.475 77.9447 1000.94 237 234 223
460.539 42.5153 1243.51 68 66 69
-13.8037 176.955 1199.31 252 232 212
644.916 394.612 1725.46 35 62 69
-315.269 125.406 1026.03 241 232 224
-241.485 462.476 1196.36 90 85 77
-94.9505 283.233 1140.92 249 252 245
-209.682 256.219 1109.46 103 50 37
447.78 -257.512 1351.7 54 11 6
581.595 21.7902 1377.21 121 104 105
-68.002 83.6633 1055.23 249 237 222
-109.793 16.226 990.759 223 192 173
619.654 -273.48 1307.13 78 106 101
-34.698 346.038 1265.85 164 89 62
-97.8645 310.009 1247.26 170 164 160
-215.473 -11.5746 1086.93 220 208 192
639.725 -173.607 1206.1 203 211 208
383.066 102.894 1484.51 86 79 66
-237.91 48.3176 1025.46 251 204 181
604.292 298.085 1359.38 98 120 138
-110.831 9.78474 1069.75 117 46 17
650.884 -123.84 1215.21 224 234 217
535.291 20.0781 1280.22 230 220 207
-71.8171 67.0585 1020.61 254 248 228
640.033 216.681 1428.57 103 136 140
595.084 -268.365 1245.46 127 144 141
-288.213 319.472 1207.78 135 78 54
-89.4306 297.979 1143.33 245 242 218
586.629 200.252 1321.84 213 245 252
447.761 181.3 1218.43 53 42 31
-320.945 152.108 1070.25 252 250 253
-128.765 392.912 1140.79 85 73 48
-162.356 389.372 1150.89 172 195 159
424.876 -83.4537 1198.7 190 169 166
460.559 -240.973 1272.1 93 82 87
-291.742 66.8321 1038.21 252 254 252
624.873 313.08 1411 117 150 167
-194.51 160.374 1118.06 182 129 109
-271.217 238.128 1060.52 135 101 81
-101.257 407.524 1226.35 110 94 86
554.646 -140.004 1072.14 132 131 126
-209.059 555.388 1270.85 30 30 25
-307.058 73.638 1099.07 176 186 181
-43.6444 136.834 989.48 254 251 229
-251.688 45.9627 910.304 242 228 218
-271.795 52.1489 1003.23 133 115 111
-64.2627 -46.6108 1058.93 249 238 211
-268.216 233.823 1019.48 140 134 125
-96.0491 346.76 1045.63 169 158 142
626.777 54.9594 1487.17 214 192 162
-139.175 300.426 1131.64 154 161 132
486.023 -136.06 1165.95 164 159 140
-310.86 140.945 1028.41 192 190 190
-70.009 90.99 1111.64 248 221 207
-269.975 60.3254 995.682 249 230 220
416.286 -66.1836 1128.16 210 204 211
10.7567 281.483 1269.25 219 218 197
616.321 344.298 1549.56 130 166 162
-203.306 -19.9869 1030.37 50 34 17
-293.564 192.145 1110.82 192 151 122
553.872 278.328 1465.36 87 114 114
-200.068 559.484 1274.17 79 79 74
374.686 -232.778 1245.43 191 163 163
569.575 46.5825 1357.74 153 113 92
440.44 -24.8031 1231.38 92 76 54
516.921 174.373 1172.52 157 190 197
-206.231 314.009 1002.99 204 192 184
-17.1643 290.048 1300.5 255 222 177
-61.6772 -36.198 1060.1 252 236 205
-40.7811 53.3285 1069.89 216 186 143
-198.266 412.064 1143.52 207 186 174
593.992 271.164 1465.82 77 114 136
