-54.1802 374.531 1044.84 245 234 234
-48.1049 34.7651 1112.73 230 199 196
-81.4409 426.038 1136.55 255 249 231
-14.3122 41.7171 1074.55 92 37 23
-45.8994 40.4597 1272.19 255 247 238
361.879 75.8499 2141.11 68 59 56
249.467 377.302 1673.35 232 252 255
-9.48686 48.5256 1197.99 83 0 0
290.654 59.8655 1776.61 254 245 242
-127.254 220.173 1105.3 21 10 10
-94.9928 268.446 1113.89 76 64 50
-73.3733 439.623 1200.83 248 247 240
-73.5476 510.014 1183.44 253 254 250
314.511 104.559 1786.23 248 245 244
287.675 -47.1173 1658.3 255 246 241
-56.0548 414.608 1235.23 90 75 71
-48.4856 25.7489 1136.12 209 202 203
-65.2442 48.0048 1133.84 255 244 225
-186.708 516.916 1230.54 217 214 211
-1.10577 254.362 1301.27 90 92 91
-119.122 134.557 1058.06 139 49 38
286.643 -119.638 1754.75 189 192 191
-95.453 521.784 1176.26 142 141 136
-23.9349 113.494 714.797 226 202 188
-10.276 189.165 1234.88 107 69 41
-90.5714 266.915 1135.47 231 223 201
306.653 267.996 1756.15 64 62 54
271.283 -14.2821 1658.35 179 153 145
-103.314 322.579 1111.55 85 76 76
-23.7238 185.083 1290.64 129 83 62
300.091 85.1672 1711.59 254 248 244
-73.6644 335.004 1172.02 130 123 123
-13.2882 480.863 1215.04 216 220 221
-171.97 149.004 1114.05 169 151 144
-16.3055 253.84 1237.86 97 82 65
-73.3305 389.882 990.653 204 191 179
-34.6194 388.822 1239.85 227 225 208
271.827 14.5529 1661.27 243 216 203
-3.43647 239.829 1267.71 252 255 254
-25.9434 16.6519 1160.43 99 74 52
174.513 -119.316 1655.44 55 57 55
-109.094 211.344 1062.54 100 84 72
-195.564 511.175 1226.6 40 39 30
-59.6208 337.104 1258.31 244 226 211
286.953 104.802 1720.56 106 101 103
273.008 334.336 1762.34 100 135 134
265.415 9.24087 1796.83 203 174 159
-82.1627 371.163 1035.8 255 254 254
-33.0501 167.871 1174.2 255 244 230
881.616 -350.391 1788.35 62 64 62
-84.1575 313.148 1116.44 123 118 97
-84.2143 343.042 1115.43 148 134 135
-81.6271 406.022 1032.13 46 30 24
-139.979 230.694 1123.72 206 197 175
23.5541 481.771 1307.15 106 102 99
-6.23221 216.16 1207.05 166 146 128
-124.042 87.1839 1054.78 253 247 224
-115.071 100.39 994.99 147 67 45
-112.814 114.663 1078.37 155 132 118
-50.8582 415.277 1198.54 255 249 247
-53.027 451.266 1132.88 126 111 95
288.521 -8.13752 1695.32 234 219 219
-56.3821 457.044 1168.49 175 178 177
-44.9257 348.204 1201.25 138 118 110
313.337 -47.1284 1663.36 227 210 190
-84.366 416.643 1080.15 135 130 127
-120.654 111.743 1076.55 226 162 140
-27.1104 177.9 1221.46 255 238 227
-130.982 81.8584 1102.34 164 145 126
-114.062 155.758 1059.99 249 252 245
-236.711 282.678 1184.05 61 11 6
-19.4832 164.114 1231.05 255 238 218
-12.5904 206.96 1287.44 241 207 184
-87.4088 367.236 1043.64 204 184 179
-59.2902 443.858 1170.77 125 119 114
245.793 -106.267 1550.09 15 15 12
-47.5754 301.951 1177.37 230 202 200
-120.55 175.528 1179.96 228 191 186
323.801 -35.1296 1799.93 248 242 243
-116.001 92.6778 991.545 215 130 110
341.035 40.9199 1714.86 145 138 131
-112.199 127.891 1036.51 246 199 183
299.393 36.3831 1540.39 255 245 237
-105.803 248.612 1111.05 239 234 216
-18.1734 239.561 1205.3 250 241 223
-102.297 222.704 1020.18 120 112 94
-135.061 175.721 1101.85 79 37 29
-16.0227 226.599 1264.37 175 128 117
-42.8686 375.733 1299.5 141 118 116
-27.0891 208.184 1222.1 255 246 232
-86.6169 191.571 1113.63 170 134 117
-13.7396 46.1173 1113.08 255 249 239
320.808 466.697 2010.48 133 158 154
-52.4818 397.1 1205.91 200 179 171
-86.6309 197.116 1113.85 130 95 75
-84.1011 369.267 1071.85 146 142 140
-89.5603 119.769 1021.54 153 140 145
331.46 45.6727 1815.86 244 236 220
292.195 82.937 1628.95 254 247 241
-18.6837 149.953 1159.25 159 114 85
-73.1975 341.212 1118.23 255 241 235
-65.1059 437.928 1170.12 255 252 243
-73.2499 380.848 1114.34 161 155 154
-41.2056 531.123 1295.42 150 156 159
-45.3731 25.2131 1228.67 137 133 125
-24.2089 457.871 1141.96 139 150 151
373.369 -181.233 1833.23 205 220 219
-63.0557 299.412 1157.42 170 127 117
-67.6374 166.526 1166.58 254 220 210
-116.707 174.114 1059.98 209 177 168
-10.1377 266.635 1239.97 161 157 143
-85.6765 47.1754 1181.51 203 177 161
-102.311 227.653 1020.05 189 168 151
-43.9801 272.812 1118.82 255 251 243
288.327 389.415 1774.54 152 171 172
-119.441 182.586 1093.93 179 166 165
213.136 88.5276 1436.32 65 53 47
259.285 35.7719 1603.32 124 94 88
20.2269 116.134 1235.51 251 194 167
-64.9861 43.7026 1041.25 178 154 127
404.559 111.621 2066.89 255 244 231
427.267 187.75 1956 255 255 233
-62.0709 300.973 1174.03 104 116 99
-16.0069 -0.144711 1278.04 126 95 70
316.742 55.5188 1710.24 255 249 239
331.06 20.4577 1780.86 252 238 219
-231.312 300.873 1186.34 78 23 13
244.877 29.8442 1611.6 225 160 137
-84.114 291.179 1116.59 188 151 127
-92.1575 227.324 1113.66 255 230 209
-89.6439 315.448 1115.07 183 188 182
282.063 41.2984 1829.3 198 163 155
295.002 11.9458 1593.39 232 211 180
-66.5551 55.3654 1226.01 252 223 203
-51.7972 353.109 1084.69 249 230 217
-148.529 207.963 1099.82 109 65 49
363.588 -180.45 1778.67 192 210 207
-62.1157 344.617 1174.87 175 150 151
-99.4911 34.5394 1077.96 109 84 62
-220.358 88.9522 1076.58 150 132 118
321.526 322.576 1869.56 166 178 178
-41.2754 271.952 1126.45 211 174 168
386.104 98.7966 1922.81 188 165 153
-79.5861 548.96 1285.62 239 232 224
196.16 418.419 1865 39 46 47
389.088 -50.1065 1784.12 141 141 118
-87.2824 202.889 1185.52 234 181 159
-118.015 278.826 1037.78 167 145 141
-78.7153 169.116 1060.62 131 114 111
227.768 370.83 1965.46 71 92 89
296.959 -67.3163 1763.49 141 124 119
-75.6124 147.735 1114.03 255 241 226
-80.3664 172.936 1067.95 173 152 147
246.504 -24.7982 1522.12 34 12 6
-100.275 215.897 1111.44 174 135 117
-77.6261 109.505 1065.91 245 228 223
-88.9411 24.0156 1079.68 157 150 156
-163.551 413.417 1207.22 52 24 25
285.343 16.9694 1889.22 124 84 75
-56.1352 143.653 1167.68 254 254 254
411.299 28.3921 2149.69 196 160 140
12.8443 226.494 1335.37 186 164 149
398.762 -56.7135 2039.72 235 217 199
371.493 -3.58535 1814.12 255 253 220
-47.5123 155.607 1170.33 191 139 126
-79.5106 94.7126 1022.62 174 166 166
-89.4611 238.55 1114.59 233 205 177
-92.4653 27.2619 1260.15 32 51 64
-90.7845 306.996 1030.63 252 254 252
-84.0816 204.64 1247.81 241 202 181
253.078 426.978 1989.2 105 132 126
-216.855 144.489 1102.79 184 148 137
18.5522 127.902 1231.73 255 216 195
-83.8168 118.178 1084.74 204 179 180
488.351 -227.327 2315.91 113 120 103
14.711 112.795 1171.99 253 212 193
-77.6825 9.83565 1372.64 153 156 158
29.1068 146.033 1368.75 222 182 147
24.7134 138.017 1267.62 255 249 225
353.753 195.608 1963.81 206 200 176
394.506 -5.85719 1896.61 182 179 149
-34.436 88.3134 1142.33 255 242 224
32.4097 150.853 1444.81 254 240 213
