41.4905 15.8927 1000.68 29 6 17
44.3615 -46.9522 1077.9 30 1 0
-54.1694 40.9604 1066.38 52 9 14
22.1637 346.579 1145.93 242 238 235
-74.6308 44.1105 1020.72 249 252 245
25.7547 338.493 1079.32 238 232 231
142.233 113.572 1152.64 70 60 43
64.3436 112.947 1093.16 255 236 222
-48.9375 56.9695 1068.48 81 46 45
-54.0946 130.37 1009.51 103 75 84
69.8219 106.536 1139.99 98 68 46
-9.01219 419.5 1142.89 159 156 153
706.475 -31.5672 1537.46 254 248 253
92.5322 128.198 1168.72 121 67 57
87.0184 106.772 1142.99 244 229 196
-41.0641 240.764 1080.86 118 108 107
-33.0671 51.8087 1071.25 28 53 38
30.6414 -39.8499 1147.22 255 254 239
81.0952 83.8901 1140.18 250 230 216
609.157 -153.423 1319.86 220 212 212
56.1256 224.017 1145.65 103 91 100
54.7431 84.1749 1025.42 236 218 200
-54.8101 37.7293 985.321 103 54 71
668.888 -4.48994 1455.34 235 228 226
-53.6428 56.8662 1043.48 91 45 38
57.7867 50.2631 1063.89 40 13 9
-69.9338 56.6842 1064.24 110 35 22
90.0171 118.365 1144.39 255 241 219
-11.7331 336.047 1071.92 181 168 152
75.4764 135.2 1096.55 102 73 72
79.9885 88.9675 1114.97 112 60 33
-81.8632 87.5807 1040.26 255 240 237
790.562 325.328 1768.12 199 231 244
624.746 56.799 1363.11 213 212 186
775.066 246.685 1698.35 1 33 48
19.217 314.608 1143.78 96 86 85
97.7092 146.698 1101.05 241 234 223
617.268 -37.9234 1347.12 255 252 255
658.614 -54.2285 1475.37 233 218 213
13.6065 360.541 1144.87 73 62 61
652.619 -127.212 1392 248 253 255
659.871 -90.5251 1470.1 54 12 12
58.2339 83.5961 1136.18 248 210 198
697.344 200.626 1510.73 207 230 235
-34.5438 31.746 1114.78 75 59 51
30.5972 197.25 1070.47 255 248 241
687.593 -47.5245 1347.45 240 218 218
66.8763 95.0665 1138.6 88 60 40
83.5764 104.673 1165.83 102 77 48
9.26997 220.701 1068.28 255 245 235
88.7343 -35.1867 1131.4 88 55 39
-98.3276 19.5092 1055.97 255 248 222
102.954 -40.8696 1133.14 144 63 41
702.209 -22.4905 1456.98 255 250 247
1.44111 370.818 1221.21 36 29 23
161.704 182.999 1212.2 82 40 30
-26.0612 337.66 1135.82 166 164 156
-38.8831 199.73 1146.86 254 240 198
23.8205 -35.8497 1070.18 231 225 226
15.1103 235.815 1114.2 252 220 209
174.571 -2.92433 1174.18 252 255 240
170.026 7.08776 1147.64 251 237 225
-27.691 257.771 1084.43 101 66 61
55.1926 60.7148 1133.84 58 68 65
623.749 -281.996 1437.66 65 47 45
12.3472 241.348 1114.1 113 101 94
659.552 -47.8176 1450.71 97 99 94
532.001 88.2155 1651.62 77 70 71
724.862 -169.529 1444.49 240 228 206
68.6458 54.9279 1160.27 139 101 95
-4.02645 339.454 1118.12 217 204 190
-68.9574 130.029 1006.54 253 253 253
-38.3685 118.831 1074.54 133 121 111
-49.3438 190.662 1095.24 206 207 185
614.756 -126.476 1366.95 182 159 150
185.277 354.265 1225.61 95 95 90
710.427 -68.6372 1403.65 241 225 225
96.8951 -28.2609 1082.99 197 125 110
646.205 -116.933 1393.05 115 110 107
-25.0242 233.397 1083.68 115 54 42
697.044 -339.618 1681.96 209 184 172
580.988 119.351 1572.46 210 203 200
7.44886 426.73 1174.61 151 150 153
646.043 -80.2098 1484.36 194 167 161
89.5656 299.906 1180.98 245 241 220
110.642 159.212 1150.94 156 150 142
20.96 301.228 1120.38 255 245 235
-69.3131 88.795 1084.99 39 27 26
39.0505 266.555 1144.99 133 96 89
-30.3687 268.5 1084.43 172 153 143
26.2223 227.809 1115.68 135 92 75
642.254 189.865 1429.4 58 91 106
-82.9652 59.1005 1061.73 251 205 172
14.9591 383.283 1144.85 227 218 206
672.638 143.613 1774.34 181 179 171
713.964 -19.8661 1410.53 254 241 229
-25.0475 192.371 1081.51 255 230 198
659.5 154.306 1446.78 39 35 24
66.2753 374.028 1182.56 212 221 196
10.3732 369.901 1096.89 255 248 243
47.1164 282.696 1097.43 232 247 224
-26.589 36.9177 1029.48 255 250 242
633.074 -23.2901 1290.18 245 233 221
-87.1775 66.8482 1019.54 216 164 125
-93.2598 40.5398 1058.38 230 162 156
667.495 -91.6416 1331.5 246 240 217
18.3636 265.567 1093.79 128 120 112
706.552 -90.9482 1451.07 248 226 212
-10.2374 342.749 1246.38 124 67 56
50.7824 310.548 1149.67 222 218 193
93.4089 184.747 1149.78 157 131 127
650.233 -161.231 1386.94 244 243 245
753.741 -163.619 1578.8 249 246 251
-18.0227 256.815 1109.25 223 224 233
181.56 12.3027 1215.13 243 231 212
162.957 26.1321 1174.44 255 222 194
75.8432 152.493 1144.44 214 190 182
184.762 373.576 1286.45 255 254 249
-6.06147 83.5871 1036.12 253 248 216
-13.4439 353.2 1047.66 161 142 126
-31.681 335.696 1153.42 179 173 167
21.0702 260.18 1094.03 255 251 252
-13.8315 6.2197 1029.84 255 193 182
813.871 238.557 1700.2 130 160 161
166.114 327.305 1132.45 129 128 116
653.961 -54.9308 1402.09 220 212 206
745.534 -101.408 1473.55 120 102 82
710.903 57.1122 1366.18 255 255 220
496.213 -222.954 1310.57 77 90 82
724.523 -23.3214 1410.65 152 110 97
-84.6712 61.7936 1019.76 192 97 74
77.5066 158.68 1117.89 250 236 217
695.59 -259.394 1374.45 163 153 150
-62.2296 174.763 1072.99 255 249 232
91.2211 274.742 1155.14 226 219 204
700.972 273.549 1518.28 85 119 130
11.9891 62.9969 1038.11 244 221 202
-26.0767 320.491 1134.96 207 209 204
35.9811 203.104 1140.56 157 145 128
-19.1785 268.688 1004.82 147 132 126
84.64 170.013 1147.24 107 84 70
95.9926 108.991 1135.33 160 117 83
649.627 181.113 1504.54 70 103 102
580.203 -77.6594 1338.87 200 142 124
-6.47836 25.2527 1074.43 255 252 243
201.047 141.904 1182.87 251 233 205
187.475 73.8753 1181.35 255 250 227
188.037 297.217 1225.12 176 106 67
-17.2072 241.099 1064.61 164 178 168
-46.3423 153.683 1075.04 236 212 172
153.288 19.1482 1196.18 251 233 229
637.028 -140.774 1323.23 194 182 185
-31.7162 65.1381 1030.25 252 249 247
767.016 -77.6611 1475.95 160 140 138
158.91 44.0885 1149.44 255 235 219
153.423 28.0403 1197.09 255 242 229
12.2088 -1.44649 1075.87 255 205 181
50.5005 88.049 1089.06 206 155 142
15.5581 243.341 1092.13 254 252 250
0.913987 106.587 1100.48 173 149 130
966.769 -184.741 1698.04 247 250 225
169.763 -10.0829 1146 255 244 222
742.933 306.079 1609.56 127 172 166
92.4944 330.502 1065.9 198 199 185
-53.9983 250.602 1125.27 84 68 60
-8.66932 269.957 1095.51 254 227 198
-1.27016 429.032 1172.95 55 53 43
768.022 -227.103 1453.89 91 75 63
-80.0007 113.148 1084.81 254 253 249
-15.1583 82.2319 1122.36 184 131 125
867.018 -42.3034 1853.75 132 130 134
12.1895 412.48 1147.01 167 163 164
43.6861 373.929 1129.81 56 28 14
70.1541 168.045 1097.76 179 161 154
23.6582 260.029 1179.95 175 146 137
88.3153 72.3338 1115.53 154 110 80
22.2627 410.19 1148.76 63 61 65
159.072 55.601 1150.47 255 241 202
-22.457 62.6536 1074.01 211 215 201
-30.386 218.964 1100.12 141 77 59
-14.0921 338.319 1010.91 254 234 220
-93.1974 99.172 1080.8 106 39 26
-21.8367 203.3 1150.76 123 81 63
159.14 61.4675 1151 255 245 221
895.846 -217.271 1537.43 229 248 227
86.4447 365.179 1137.2 144 135 127
12.8352 272.419 1163.89 149 150 142
109.119 384.437 1210.46 65 60 53
109.302 -17.4914 1072.83 164 88 45
-0.571326 29.9521 1097.33 255 234 229
-18.018 389.808 1228.76 252 252 252
41.26 278.042 1181.48 236 191 179
566.276 -49.8461 1228.13 96 80 71
-9.22077 301.459 1137.41 255 219 204
7.09575 -5.20362 1011.01 114 40 12
109.437 -85.0789 1084.78 95 68 52
656.914 273.445 1437.87 42 76 81
10.3299 -33.008 1056.76 94 72 66
162.142 67.2919 1151.98 201 130 100
33.2964 260.509 1143.54 245 233 225
699.608 -61.9892 1413.65 227 218 221
-36.8057 212.841 1037.28 191 170 155
798.234 -334.825 1508.83 158 196 205
634.754 -149.661 1328.13 171 157 152
155.595 -92.7068 1164.36 227 216 190
-8.43824 398.534 1173.42 64 57 42
18.3295 283.151 1063.09 254 237 223
130.753 130.776 1152.13 185 148 122
163.995 5.9668 1226.85 158 140 117
891.737 -191.853 1534.18 220 230 212
834.29 66.2102 1582.92 255 255 235
84.5241 435.849 1026.06 85 114 100
102.071 179.176 1150.9 217 209 202
736.671 -16.3381 1400.34 184 167 159
643.113 -110.092 1393.81 216 222 208
738.245 -128.379 1579.25 115 115 97
776.38 -239.112 1458.43 113 99 85
850.788 -133.239 1591.48 243 226 211
738.283 -339.722 1792.89 212 179 173
-48.9619 75.5919 1069.7 127 133 134
741.79 -260.356 1310.75 130 145 133
729.364 234.033 1794.17 72 97 91
188.854 104.757 1150.48 249 231 209
111.011 352.523 1189.19 209 215 182
-67.4386 -112.274 1310.85 107 97 82
15.03 35.9617 1079.13 255 250 226
864.061 -27.357 1660.03 229 205 185
16.3812 -64.7949 1217.19 153 144 148
-3.86167 -30.7253 1070.85 224 196 178
-52.1337 212.454 976.476 182 180 183
671.932 -54.9268 1403.27 190 189 185
-44.4754 246.428 1037.33 76 61 60
624.536 -112.148 1464.32 137 115 110
801.499 180.638 1599.38 155 175 176
708.609 -207.507 1245.87 72 82 75
119.175 401.985 1270.7 121 117 110
669.202 -65.1815 1474.52 77 57 47
64.9054 250.307 1148.91 173 171 172
689.113 -212.14 1315.94 180 158 145
65.6492 157.672 1047.66 183 176 176
115.047 372.328 1210.13 184 179 165
