-529.15 402.812 1123.36 49 34 26
341.768 -66.3049 992.744 243 254 251
216.523 171.112 1120.82 255 247 245
388.619 129.373 1051.5 24 34 26
-465.251 56.7746 920.366 230 224 208
-302.464 235.255 1192.15 223 199 188
374.982 76.7369 1023.65 35 42 24
-330.852 457.627 1160.19 210 213 211
-279.909 443.26 1156.4 192 198 191
-461.017 178.055 983.331 255 247 221
-365.24 278.323 1036.01 243 243 218
305.123 -107.153 986.241 232 247 243
-470.729 208.483 1025.75 249 240 216
158.678 95.4955 1106.98 58 31 25
263.551 48.1846 1032.91 232 225 211
-342.932 479.112 1218.43 42 49 36
253.247 -85.0021 996.823 236 229 210
313.156 -68.4303 922.584 60 68 64
-486.251 395.363 1038.27 222 223 218
-508.694 662.09 1351.26 71 75 70
-578.079 443.902 1165.62 94 92 84
-527.22 535.66 1258.86 18 17 15
-499.288 430.625 1098.8 207 201 194
287.721 -102.141 985.269 215 221 216
427.305 199.641 1053.56 235 233 230
165.507 65.3831 1062.46 221 207 206
186.795 44.4219 1063.78 255 249 242
-523.602 706.932 1428.23 59 68 61
-436.034 197.06 993.423 224 209 186
307.175 -77.8272 954.074 180 187 180
-545.484 398.094 1153.76 255 243 231
-451.352 456.824 1080 255 251 245
242.543 -132.401 1143.17 102 80 71
-367.823 206.782 987.396 100 60 37
-498.023 299.257 1024.69 83 50 48
311.601 -108.7 1023.87 71 85 79
-451.043 215.13 1033.32 223 205 176
-343.603 190.6 1066.68 247 221 194
-443.496 231.418 993.731 236 229 210
481.908 238.96 1175.85 243 247 236
322.56 -82.5024 967.027 185 187 182
-345.669 139.253 1018.04 241 225 202
275.062 147.853 1101.89 206 181 175
-520.172 415.676 1128.22 222 214 194
-352.834 110.633 997.454 254 254 237
-545.222 424.576 1175.89 205 191 173
-432.152 212.268 995.967 101 78 54
242.273 97.8811 1074.87 250 238 219
152.31 86.3492 1062.08 255 247 240
162.291 28.5789 1059.3 238 236 236
249.266 131.517 1018.01 225 199 184
-298.392 234.083 1143.38 168 148 133
475.562 209.093 1171.25 234 228 229
255.527 43.0758 1031.63 114 99 89
147.054 96.843 1062.04 237 236 223
-486.394 63.4179 952.689 98 92 78
375.442 191.661 955.93 246 255 250
-269.385 385.887 1266.8 5 4 0
-458.821 180.97 1027.49 234 218 195
446.641 105.81 1117.25 244 255 248
379.436 -10.2178 1000.62 234 240 232
234.491 42.9684 1029.25 234 222 217
163.833 -112.743 1090.31 252 244 237
153.106 152.531 1066.54 226 216 210
-337.715 103.134 950.632 245 249 224
417.185 501.251 1319.42 62 92 98
260.437 50.1369 1073.25 249 242 233
-437.378 208.307 1037.46 119 87 58
239.637 37.8904 1029.46 252 251 233
144.251 -62.3712 973.663 197 187 156
313.82 264.038 1139.81 239 241 221
295.009 -24.793 992.503 63 56 49
305.215 459.318 1249.11 51 89 96
161.266 178.772 1090.35 224 218 217
-292.435 361.993 1112.38 244 235 223
-553.785 503.605 1223.09 82 77 74
272.97 2.29812 1030.22 227 214 199
-362.521 39.9681 951.121 255 241 206
-498.323 58.4398 948.306 23 26 18
-317.089 351.27 1168.17 252 227 212
143.216 27.4633 1016.71 218 199 200
-306.582 298.732 1086.95 229 211 188
396.352 -14.1513 1014.26 232 245 228
-422.842 246.454 1093.24 85 70 50
-292.51 316.848 1062.54 131 101 83
-329.987 234.341 1074.58 240 223 206
-319.389 219.96 1031.98 133 104 78
-426.781 242.893 1026.65 225 219 212
-287.078 300.832 1030.13 241 225 207
-374.182 268.699 1063.71 148 111 109
129.788 -138.946 1176.96 95 90 83
-311.198 304.956 1223.99 208 188 179
-334.6 153.064 1264.42 170 168 155
-510.333 62.8231 944.349 245 233 228
381.253 -35.2412 975.546 232 251 227
-605.971 119.999 964.243 213 212 201
425.604 98.4424 1067.95 234 248 228
395.368 -56.8832 997.35 250 255 242
109.198 -127.082 1175.1 205 193 180
313.607 -111.536 1003.71 84 102 99
312.335 -116.849 985.929 134 153 147
307.528 -29.6766 993.198 47 33 30
161.472 -103.311 1062.22 224 192 181
-574.738 339.609 1097.93 253 249 251
152.984 141.929 1065.86 227 225 224
-349.1 126.731 1298.02 202 190 180
-462.376 222.043 1029.98 131 95 83
274.673 121.03 1058.04 235 223 227
-423.095 199.563 930.787 242 223 200
-397.066 142.238 1143.1 240 232 197
-401.508 121.359 1026.62 255 242 247
-292.48 434.238 1304.06 165 153 147
-364.434 134.923 995.394 242 231 214
442.139 200.434 1122.88 214 229 224
-548.75 485.699 1194.03 76 71 69
-628.77 130.474 1038.91 119 121 120
349.687 448.279 1253.08 107 137 151
379.25 467.302 1262.96 135 177 197
-520.062 305.573 1064.37 238 209 197
-304.294 309.887 1088.55 128 94 67
395.395 463.011 1259.86 233 250 255
216.65 -123.548 1141.15 166 134 114
-345.667 373.139 1097.04 173 153 142
254.53 -0.155669 1028.09 223 210 190
379.188 50.5697 1085.19 255 252 230
429.058 222.522 1082.27 247 255 250
-492.088 686.293 1376.25 191 198 193
193.352 -131.588 1137.54 246 224 214
-529.607 361.213 1127.42 105 90 94
-438.936 79.3576 991.455 119 45 31
-510.167 322.351 994.834 255 247 244
123.306 77.1091 962.777 217 214 207
-576.739 262.015 1037.44 215 206 176
-469.129 377.156 1055.54 237 238 215
302.21 182.159 1088.12 152 134 115
-426.204 117.859 1018.49 158 111 97
98.8728 -33.7044 949.941 63 64 53
420.002 -56.6023 1037.08 90 105 94
-571.821 335.227 1105.74 144 148 147
-476.512 76.9564 1024.4 128 90 81
-432.652 107.534 1015.74 216 180 173
-471.675 299.469 1033.98 160 159 157
-321.528 357.86 1026.2 130 97 80
141.672 96.7836 1061.25 252 247 237
223.564 255.558 1127.32 239 242 211
235.743 181.285 1059.36 94 65 45
-394.73 154.033 1077.77 176 133 115
402.986 -56.9512 997.827 200 207 199
-434.756 102.416 1014.72 103 65 53
335.572 74.5265 1083.31 244 245 229
-358.379 49.4269 952.73 248 230 180
316.279 402.225 1278.61 192 219 243
205.08 -126.558 1094.02 205 179 158
294.948 -111.782 985.02 162 183 185
275.375 100.887 1079.04 126 90 86
-459.333 263.957 1034.94 134 138 130
-414.385 108.453 978.76 135 95 82
157.563 75.8648 1062.1 204 177 165
141.733 102.024 1061.62 220 218 199
-364.269 339.009 1100.39 240 238 230
160.84 -67.3532 1051.55 188 186 156
-288.111 191.912 916.087 225 209 180
333.818 -136.315 1062.84 185 184 185
172.033 147.526 1068.99 202 190 195
129.546 -42.1331 1009.97 184 177 174
-569.699 699.075 1467.41 106 109 101
-567.63 292.181 1044.61 85 55 40
-454.449 251.332 1035.46 224 212 200
238.026 164.771 1079.09 117 108 113
396.96 99.8047 1027.72 211 228 223
326.539 -80.3015 955.326 108 113 107
-661.875 134.466 1060.13 245 254 250
-283.125 269.558 989.688 121 99 79
401.668 140.606 1029.89 240 252 232
-385.157 182.718 1008.98 136 81 57
152.109 70.5677 1060.95 117 78 74
-348.836 157.09 1044.97 239 209 182
-365.346 25.6455 1032.1 145 133 118
-425.201 256.488 1045.92 157 152 143
313.991 -14.5124 959.828 213 208 195
-347.086 120.195 1172 50 39 26
150.465 129.436 1082.39 255 245 238
106.474 -90.6918 1084.45 87 75 69
358.914 312.914 1143.73 250 253 245
205.466 152.701 1008.48 194 158 141
418.738 491.76 1328.86 185 212 232
-437.135 273.874 1043.47 149 145 146
-447.235 69.5566 1008.55 139 90 64
174.822 152.894 1069.73 98 104 104
-294.762 338.286 1093.64 210 195 186
207.878 29.097 987.628 225 183 156
398.367 28.0102 1043.62 238 244 232
-320.635 256.747 1079.27 234 215 186
-344.233 464.806 1156.76 170 180 188
282.162 -32.0854 990.729 180 164 161
-302.762 273.786 1187.13 202 167 154
-364.046 67.8223 1246.06 171 147 137
218.983 -63.0513 1039.13 203 189 171
367.634 -10.5283 1037.65 155 144 135
224.203 161.823 1077.1 225 209 195
-339.525 124.378 1144.02 169 161 148
395.291 17.6804 1042.43 227 236 219
-488.562 372.31 1083.05 224 227 210
-354.914 40.2839 1246.37 48 47 43
-356.432 294.947 1040.55 93 86 90
184.749 142.785 1114.27 169 164 177
173.761 75.9762 1064.36 211 207 184
229.874 114.693 992.1 254 234 216
404.983 -5.5017 1040.93 232 252 246
375.797 21.849 1055.43 134 127 116
-280.94 234.813 1057.77 180 163 152
-341.082 124.418 1199.06 174 159 149
-596.54 503.864 1227.48 94 92 80
194.178 122.633 1048.94 227 223 218
172.879 122.364 1046.16 207 184 171
367.711 380.586 1296.69 113 144 157
302.294 386.063 1194.38 94 123 133
-545.57 351.82 1110.92 130 127 125
240.848 169.941 1053.79 202 164 152
-567.454 374.541 1105.26 142 145 143
230.376 261.035 1176.89 195 191 161
-514.095 338.741 1037.46 250 244 239
-354.253 300.425 1041.82 155 139 139
428.031 174.463 1058.31 203 212 205
365.187 -24.0752 962.962 225 241 235
-328.224 264.751 1277.48 97 69 54
286.447 374.34 1218.71 163 191 218
231.224 42.4398 1046.78 105 87 74
-531.826 180.153 926.079 247 241 231
-542.636 141.602 950.356 255 254 249
365.774 63.9322 1085.24 254 255 231
-591.505 136.456 930.422 239 229 223
171.7 32.5312 1020.83 190 173 167
306.65 -143.074 1085.57 78 112 111
-378.971 205.835 1012.74 134 87 67
248.64 169.17 1073.64 171 110 109
-549.902 345.581 1108.47 241 239 241
-475.627 337.996 1083.99 168 160 166
-351.652 177.704 1001.54 232 219 198
-465.833 302.073 1047.5 158 155 153
184.247 -100.956 1051.61 235 207 194
-435.297 189.742 1116.42 169 137 119
-424.962 366.461 1069.88 217 203 183
-433.048 167.381 992.076 155 111 84
295.941 184.145 1107.93 115 101 89
259.265 49.4388 959.499 246 231 211
300.362 -117.272 1104.77 66 97 103
-481.169 177.113 1065.33 244 225 206
289.743 -32.0687 991.421 154 143 143
-441.061 95.7336 1036.97 119 53 32
-558.87 114.858 941.699 157 160 161
264.416 86.5864 1035.9 170 114 84
-486.462 91.8001 1113.48 255 230 192
223.159 126.064 1034.72 211 193 199
251.791 162.329 1080.68 114 76 61
209.556 105.477 1071.29 250 204 188
-527.783 131.824 922.765 254 244 234
286.343 384.717 1272.77 97 133 143
-533.424 565.469 1328.51 205 205 208
-449.418 481.298 1175.54 100 100 98
-353.661 192.219 1019.56 189 154 122
215.622 -65.5687 999.417 74 64 46
-497.255 335.877 1028.61 170 169 161
218.286 -79.9135 980.654 142 146 138
421.601 320.845 1205.16 243 251 246
-511.528 161.346 992.524 238 212 209
-463.196 109.532 945.618 250 232 222
200.057 326.54 1108 106 96 86
-401.356 113.727 1026.19 255 246 233
-454.046 81.8215 1007.02 88 53 38
427.963 210.358 1055.07 112 117 107
-604.388 362.162 1143.54 136 113 113
433.192 138.581 1073.26 234 255 230
-560.513 434.471 1171.25 99 97 87
155.532 128.701 1065.39 170 144 137
481.305 362.695 1355.27 117 133 130
-541.894 563.922 1325 73 72 73
307.598 170.145 1105.76 203 181 172
395.689 106.049 992.195 243 254 233
364.473 30.0729 1025.96 80 76 64
286.98 -0.175637 1115.22 165 160 139
225.622 87.0656 1071.99 232 216 184
388.503 33.6217 1019.58 220 228 218
314.279 -25.7346 1031.77 200 193 190
348.926 432.855 1343.7 148 179 184
204.525 122.194 1090.92 243 231 215
248.052 -143.539 1142.59 241 205 190
369.232 33.1333 1041.77 168 165 155
-527.951 338.007 1075.7 254 254 251
-527.985 113.919 953.67 240 190 168
139.391 -57.5984 973.397 76 60 23
391.6 43.7277 1020.95 198 209 186
-329.577 243.071 1077.97 250 211 187
-372.513 168.909 1038.6 255 212 183
398.858 33.6152 1020.18 245 255 239
-537.6 69.6844 976.687 226 214 198
-380.473 31.6559 985.123 198 177 145
327.919 -96.0193 1009.2 63 94 87
123.696 -150.258 1174.94 93 89 80
-242.946 463.591 1347.28 61 55 49
382.628 -31.5042 1011.43 154 169 152
210.163 2.38898 1023.34 144 133 120
148.81 62.7908 1019.84 241 219 220
122.176 -42.0442 1071.95 131 128 111
-437.685 229.209 1022.23 150 122 104
-486.677 584.242 1233.16 199 202 190
-597.053 212.941 1023.31 136 118 110
-486.296 691.27 1379.26 117 121 116
-525.361 170.643 1034.21 124 115 112
-451.869 79.037 987.392 244 229 223
-463.271 399.973 1146.98 227 234 212
126.969 52.2087 1033.72 232 201 190
161.001 -57.0076 1052.41 143 136 119
-455.504 171.552 1200.69 255 195 166
158.663 -91.4406 1091.54 175 148 130
346.934 82.6125 1085.13 248 241 224
-577.214 350.236 1136.88 243 215 219
436.332 144.142 1115.67 227 250 227
-557.153 119.592 942.788 226 221 211
186.099 -105.004 1093.78 230 178 159
-485.968 113.446 969.297 153 108 104
284.82 53.3995 1035.58 226 200 181
-306.325 355.955 1141.6 154 125 120
290.775 400.093 1247.16 154 189 195
157.352 60.0475 1060.94 253 247 247
273.33 136.95 1146.87 167 136 129
-285.259 375.401 1099.26 254 225 198
305.206 68.8113 1000.83 239 235 214
163.241 96.9923 1064.38 89 40 33
-663.507 171.406 1062.92 211 210 205
-464.906 168.001 981.151 219 179 173
499.646 212.317 1173.18 226 223 205
-475.364 151.847 1018.93 178 165 159
262.071 173.797 1147.18 69 32 24
-527.705 309.769 985.821 166 164 168
366.858 365.627 1220.23 156 182 187
238.286 136.347 1096.48 135 107 117
332.05 162.448 1109.35 196 190 174
-511.358 148.236 962.761 246 242 231
326.441 132.045 1153.4 154 116 104
328.172 -157.64 1132.29 32 82 80
436.526 433.205 1296.12 221 241 241
-474.56 271.104 986.579 242 234 229
-619.604 182.829 1010.07 249 242 236
-593.818 320.305 1087.74 149 143 131
-667.092 157.986 1060.15 188 192 184
-536.596 169.631 984.207 245 204 185
390.684 325.97 1202.08 205 217 207
186.265 183.527 1136.6 54 46 48
-338.525 119.085 1267.67 94 82 62
220.298 129.775 1033.62 223 208 205
-483.87 297.702 962.397 183 176 178
-287.717 223.171 948.033 157 119 91
281.168 -17.0513 1049.31 121 115 100
-417.567 215.493 971.657 243 228 208
326.756 -87.8112 1110.26 133 134 137
241.81 -160.032 1140.18 82 83 79
-380.778 48.4707 1345.71 45 43 36
-559.076 293.144 1048.07 161 117 106
-576.443 232.577 988.293 234 234 216
133.102 42.5488 1016.33 140 118 111
-483.821 152.964 1001.57 187 181 172
218.871 -80.3804 1017.68 122 125 120
295.261 57.8325 1069.92 136 115 95
270.316 178.137 1104.46 169 142 131
-332.569 349.305 1098.58 250 227 208
-466.602 496.943 1119.19 181 181 171
397.543 8.38918 1017.07 232 249 240
265.429 240.359 1154.62 251 254 246
220.315 24.019 933.93 177 134 103
254.672 357.078 1117.85 213 246 247
-473.82 170.234 1202.19 168 127 111
211.667 218.76 1051.55 155 151 139
-456.86 105.71 902.627 255 221 213
266.336 -28.3549 948.146 95 75 67
233.833 87.149 1073.02 221 204 175
284.195 -120.102 928.127 56 85 81
352.708 157.094 913.002 203 211 200
177.954 184.969 1072.17 171 141 140
195.118 247.174 1145.7 199 191 165
340.217 351.716 1174.15 105 137 154
-489.483 578.284 1236.53 67 70 62
255.565 216.345 1064.8 248 252 251
420.297 49.282 1008.83 242 253 240
195.564 -67.7115 1055.77 133 124 107
319.674 36.6235 999.729 159 147 129
277.895 -10.3987 1029.66 192 188 179
-587.18 260.936 1033.09 211 206 176
324.709 262.618 1134.01 249 246 212
-406.726 470.044 1173.71 111 105 91
209.465 100.158 1070.89 230 200 166
-486.7 466.209 1159.74 161 172 149
142.848 -54.4574 1029.73 137 115 92
273.284 15.6546 1071.77 182 148 139
256.262 83.6308 1212.81 186 167 140
207.633 149.479 971.537 82 62 58
362.598 -92.2641 956.74 239 243 237
272.078 229.839 1180.58 252 240 196
-501.911 278.309 977.739 164 121 111
-265.682 388.388 1129.34 178 168 165
249.866 25.2249 1029.62 187 144 114
251.391 -170.368 1224.75 130 135 126
256.497 237.206 1153.18 140 122 102
284.186 75.136 927.848 235 234 216
301.168 226.191 1154.74 153 152 148
378.076 368.513 1245.16 158 187 193
419.578 31.8407 1007.23 241 249 229
-390.007 104.857 1001.6 198 124 106
450.408 123.716 1142.58 244 250 233
295.427 242.829 1048.88 250 255 244
179.487 97.1688 1066.66 189 158 136
431.105 29.181 1087.22 206 226 194
