-35.2189 504.911 1248.1 61 64 65
-70.025 419.687 1126.22 255 247 226
-43.0851 30.7804 1306.24 255 249 225
259.17 54.1477 1702.16 54 53 45
-45.0913 416.328 1159.75 255 254 249
46.8191 173.811 1318.04 77 55 38
-10.3954 200.774 1232.61 70 46 35
-158.665 140.693 1091.31 206 182 177
-41.2745 448.233 1215.19 224 217 214
263.593 -58.0925 1677.83 250 238 224
250.343 49.9145 1699.78 232 225 215
-43.0566 17.8624 1305.17 243 220 206
-62.1988 437.237 1209.49 239 234 224
-62.6802 417.933 1129.51 117 94 74
260.517 92.5116 1710.57 102 91 93
268.397 433.111 1992.38 230 255 255
274.91 253.844 1745.91 17 15 11
-11.076 259.232 1296.85 121 113 98
-50.5419 459.642 1242.16 83 70 70
-62.3638 444.896 1109.69 205 190 180
-176.235 457.516 1104.72 129 129 121
282.09 91.958 1776.32 233 217 217
-44.3328 407.002 1240.43 104 84 81
-27.8901 467.904 1167.23 244 244 248
-35.0475 351.559 1238.87 78 49 47
-100.452 216.589 1109.8 139 91 82
-11.0563 223.504 1293.67 117 103 85
-79.2262 195.293 1162.93 115 60 39
-179.041 518.911 1244.46 197 198 194
253.583 -27.0694 1682.83 212 190 183
-13.4529 36.5643 1217 173 127 95
-108.596 96.6083 1055.06 152 63 42
-169.534 93.0771 1041.43 193 163 155
-10.4029 188.481 1231.55 248 219 198
-62.8667 527.416 1243.09 254 253 246
-113.968 216.049 1106.69 35 21 15
-14.2293 171.743 1288.03 156 121 97
-34.4163 24.0566 1211.87 149 128 102
-108.565 91.383 1054.73 249 205 185
260.279 339.777 1860.71 103 121 119
-41.283 422.858 1242.11 255 253 246
22.7207 480.732 1307.82 71 70 70
-86.9396 272.194 962.296 71 50 43
-29.0671 372.1 1211.52 241 232 221
-73.4989 -2.94413 1257.28 165 182 191
226.653 82.8231 1533.18 229 220 222
-79.5869 268.174 1167.9 235 218 195
-106.783 97.8639 1013.68 186 123 102
-16.1549 462.942 1169.56 225 225 231
-103.555 125.557 1057.82 184 79 53
-73.2899 347.032 1148.08 170 137 150
-91.6004 311.922 1093.71 69 52 51
-101.069 158.751 1079.15 178 119 118
254.802 71.3898 1617.45 235 219 210
1.85758 232.07 1237.69 117 119 117
-43.4029 505.379 1276.27 131 112 99
136.842 -119.193 1560.39 99 98 95
235.731 20.9853 1584.33 249 224 210
-68.3826 513.748 1214.1 135 121 98
-79.4795 116.11 1020.02 159 159 158
230.028 92.3414 1705.3 190 183 181
284.279 28.9369 1700.56 248 240 230
-10.3893 182.316 1231.02 155 103 80
-41.0297 398.26 1178.02 240 223 218
-248.436 116.433 1115.52 58 10 2
-221.025 290.442 1155.28 64 6 1
-105.347 125.514 1102.78 238 164 151
-10.3879 176.157 1230.47 255 247 218
-1.18145 213.414 1235.66 155 129 111
-99.6763 27.0601 1197.58 90 76 66
242.131 34.2805 1659.93 114 81 81
283.426 7.95587 1695.76 253 230 212
267.675 -42.9895 1640.44 238 233 229
-79.8162 319.554 1140.86 158 166 154
-18.5833 162.235 1173.37 183 154 135
-99.8889 109.211 1102.86 244 230 216
-238.686 491.325 1241.49 156 133 113
218.537 -0.150041 1683.43 154 123 113
-98.7412 127.018 1128.03 162 150 145
269.096 453.853 1997.25 94 108 124
-219.061 89.2347 1121.53 164 134 117
303.769 46.5839 1808.39 255 248 245
-85.3802 276.668 1167.17 143 123 102
-14.0853 -9.11578 1269.86 86 56 39
-272.61 585.473 1471.24 20 12 8
183.771 282.773 1939.63 54 63 61
-78.1426 393.193 1121.79 206 203 196
-110.164 83.9172 1075.6 246 217 196
237.043 33.4602 1526.56 109 85 84
-56.6767 42.6071 1184.76 252 251 227
-56.5245 257.606 1172.43 80 58 48
-108.762 130.727 1057 195 103 81
-216.741 261.35 1104.43 56 11 0
-76.5293 443.014 1154.6 141 135 127
-13.4738 154.679 1227.82 250 221 210
281.732 75.4988 1710.4 254 247 239
92.0292 -175.667 1886.29 226 228 220
271.656 398.037 1874.68 142 161 163
-10.4417 234.73 1235.29 250 234 219
386.924 172.502 1944.69 253 255 232
-127.447 220.742 1104.21 211 175 156
-119.592 217.192 1059.74 72 49 30
-69.9145 430.18 1082.67 53 39 33
-72.3339 385.901 1078.29 222 213 218
-27.347 161.264 1198.07 245 224 206
-76.5182 181.874 1099.2 221 183 166
-46.1051 327.687 1258.46 128 108 88
-62.5646 354.369 1177.48 255 245 230
-196.874 540.463 1301.81 47 48 39
-103.729 165.082 1060.24 164 95 65
145.58 -156.854 1722.46 215 189 177
-95.1511 244.544 1112.77 243 229 205
-64.4341 41.9337 1206.9 209 195 163
338.533 -181.538 1745.35 216 224 202
-41.8965 208.322 1172.04 180 159 145
-348.498 84.3706 1189.73 34 24 9
24.2553 108.422 1290.03 195 146 115
264.584 70.7094 1800.08 175 148 136
180.003 337.092 1844.02 46 69 69
-99.3886 158.312 1094.79 166 143 141
-50.3838 132.405 1164.38 251 251 244
-31.8131 29.1009 1376.98 255 249 229
-116.669 221.341 1106.53 200 166 146
318.711 -176.949 1768.37 182 189 187
-101.713 289.569 1310.48 226 210 184
-44.2445 332.305 1235.4 166 158 152
-85.1061 232.888 1164.27 238 227 201
-103.81 175.597 1060.81 238 237 233
0.906555 224.86 1257.27 253 251 239
-8.93263 534.008 1348.89 7 8 10
200.028 97.6754 1878.26 130 106 82
25.3144 120.526 1355.06 255 248 212
329.4 -13.6937 1788.43 255 250 214
-48.0303 448.435 1161.41 128 120 119
286.563 80.0922 1677.82 143 116 107
-62.6548 426.052 1298.36 152 127 116
-54.0657 473.854 1185.7 228 216 206
-67.3177 423.315 1174.7 240 241 229
4.45333 583.581 1235.56 150 162 154
163.385 -125.652 1856.76 53 56 40
-118.438 76.0929 1096.5 189 159 132
236.521 24.8326 1691.92 207 167 153
-59.0745 155.388 1164.31 253 228 215
-192.554 428.253 1065.65 42 32 20
-92.6768 23.3377 1232.07 137 113 99
-72.3675 110.505 1063.27 195 186 176
-42.6773 311.164 1077.64 255 249 246
-111.667 66.8913 999.404 227 206 184
2.63681 241.584 1332.06 240 242 237
-73.1495 312.305 1145.05 132 120 90
176.608 79.9878 1663.96 143 113 102
246.869 75.3458 1704.65 69 46 34
287.448 -35.303 1776.97 159 152 151
-203.25 464.23 1155.52 144 129 108
-115.388 185.206 1127.28 222 229 223
338.152 162.515 1833.97 237 233 203
-62.8563 184.142 1147.36 136 70 52
-50.0724 209.782 1140.85 122 96 78
-41.926 361.449 1126.74 232 210 192
-31.7 151.145 1223.75 218 181 165
-109.581 165.819 1016.75 141 120 123
14.4817 6.22044 1277.44 204 182 162
-63.0464 521.685 1205.37 52 50 48
