-6.107 3.36119 889.085 250 255 249
-17.1834 -44.626 884.186 249 255 249
-24.5222 -45.8139 932.618 60 58 54
-493.629 345.384 1379.89 224 230 223
-1050.97 19.5305 1400.52 67 68 61
-457.097 -9.22555 1204.92 195 179 167
-403.192 44.0218 1238.12 210 212 209
-69.561 -122.365 1096.85 230 237 234
-420.836 148.721 1245.6 17 1 0
-478.98 125.566 1111.73 105 72 55
-416.858 24.4853 1122.56 47 33 24
-95.657 180.344 1019.16 255 247 250
-67.1501 -127.277 1195.05 236 204 200
-67.2379 -32.3144 906.639 204 194 176
-441.424 213.252 1132.86 240 228 214
162.753 337.735 1019.01 16 34 24
-453.338 142.418 1359.99 200 176 157
42.2076 133.664 887.929 80 81 69
-572.874 132.561 1172.43 254 249 242
-406.281 182.128 1253.42 24 4 2
-152.372 46.4845 959.981 215 198 200
-85.7112 183.255 1021.56 251 234 218
-516.598 17.02 1387.38 237 217 206
116.366 261.829 1048.32 253 255 246
-1214.63 8.77265 1611.44 151 156 141
-531.452 42.801 1131.23 254 247 226
126.522 430.261 1182.54 85 111 118
20.8533 83.2256 898.827 242 238 219
-401.899 19.5693 1238.96 199 190 189
-329.416 206.01 1230.02 215 196 177
123.3 291.736 1008.6 254 255 249
-393.449 184.984 997.259 90 67 41
-416.341 13.2463 1353.93 52 36 30
45.7071 -19.0446 854.326 246 255 245
-41.3883 -22.2444 815.296 235 230 223
125.763 237.293 969.932 245 242 227
26.386 -128.035 1042.47 71 72 74
-522.213 -29.8025 1030.2 120 109 80
52.3751 1.02144 868.69 204 204 190
-549.983 136.309 1132 130 130 128
-349.916 228.383 1314.32 219 222 216
-466.686 -12.5682 1245.02 198 178 161
-165.132 50.6027 992.886 245 239 238
-185.203 -14.011 972.599 211 200 197
-23.6197 -53.1931 900.649 237 241 242
107.818 254.829 937.693 253 253 250
-472.262 33.6831 1252.07 176 165 161
-476.906 131.254 1113.39 255 243 227
-581.301 29.7762 1220 255 250 223
-140.08 162.041 1046.54 250 248 238
-84.9843 -119.455 1107.67 224 227 219
-417.687 143.293 1188.76 178 164 152
-400.517 141.305 1304 194 154 136
-167.365 -20.5671 940.773 175 157 143
132.803 262.952 976.027 250 247 237
-420.896 37.8796 1286.37 149 142 139
-48.1172 169.799 967.176 250 240 231
-72.76 -101.446 1075.41 229 194 176
-49.149 -81.1674 1018.47 209 192 197
-501.494 66.9351 1094.03 216 192 162
99.7868 152.549 964.592 178 184 162
189.23 373.255 1100.98 69 90 95
111.325 253.981 969.588 212 215 208
-125.084 156.388 1010.64 255 247 249
38.7133 63.3214 900.042 251 252 251
49.6547 8.78246 808.664 176 178 158
-510.128 98.2263 1143.51 255 248 213
-107.56 248.409 1061.94 93 97 91
-406.601 46.2167 1297.28 165 174 167
-482.606 7.60765 1094.09 188 190 188
13.6637 54.523 867.038 215 208 196
-430.945 26.6774 1215.75 217 208 203
-513.871 80.9872 1139.06 203 168 147
94.457 143.922 925.165 247 249 241
203.774 451.833 1159.12 182 205 226
-125.01 146.277 1009.82 254 252 252
-518.213 -0.390013 1173.23 221 213 190
96.6289 458.789 1137.44 137 168 169
-81.0818 -73.0558 1028.52 244 211 202
-74.4862 47.8696 942.429 254 242 229
-106.102 -77.699 1023.31 236 230 232
-70.8322 90.9152 966.739 253 254 242
-36.8343 31.7758 886.115 87 83 75
-436.983 220.405 1193.68 178 192 180
-103.393 233.924 1021.89 224 229 214
-374.428 285.083 1490.83 56 56 49
-376.034 119.218 1308.81 25 5 4
-362.1 316.815 1501.7 62 57 50
-521.327 15.4106 1078.4 232 190 154
-401.78 33.0446 1228.42 37 31 23
-475.719 152.729 1509.83 211 196 186
111.295 477.61 1142.1 91 119 137
-67.7757 86.1833 980.594 186 179 167
-52.8886 39.6953 915.863 253 252 247
83.2281 171.693 945.834 243 255 246
-17.3203 209.227 1037.72 249 243 234
97.8605 218.904 932.938 248 255 241
71.4696 209.785 1053.68 115 123 107
-401.377 -52.0853 1165.34 131 165 173
-381.497 167.942 998.272 174 159 152
-60.5601 91.1901 982.398 240 238 232
-53.4262 167.745 989.963 255 246 236
33.0676 -123.562 1005.57 79 77 72
120.641 248.77 923.898 102 96 90
-35.6702 -10.7441 871.196 86 71 69
-424.641 298.641 1331.08 147 150 146
-134.166 73.3269 1001.74 254 253 242
-65.7202 207.25 1027.82 121 109 90
-438.95 20.2795 1491.32 18 21 13
-446.953 155.454 1288.34 176 167 157
-59.0451 50.7828 932.371 217 201 191
97.0111 127.102 944.162 107 104 103
-81.62 255.2 1068.4 234 231 207
-55.588 194.716 1028.84 243 215 200
-646.828 -14.9143 1184.17 159 127 116
-370.662 11.9348 1236.53 72 72 65
-566.892 48.9729 1211.23 255 247 234
102.938 230.04 969.77 239 245 234
-678.415 57.7561 1177.85 171 157 146
-95.1622 -78.4263 1050.8 203 165 162
-428.045 193.984 1134.58 69 57 56
-598.26 238.225 1247.08 231 229 218
112.107 185.95 983.577 245 249 239
-71.6942 -27.8477 906.16 178 154 139
-8.15402 46.5651 940.982 212 205 193
-45.2461 23.1927 933.252 211 194 185
-578.313 87.1152 1110.29 236 219 204
-450.908 5.1094 1402.37 137 103 92
-82.8138 78.3931 945.773 240 236 224
-394.028 20.6265 1298.13 176 178 168
-399.776 275.854 1216.64 207 209 197
-488.831 104.839 1153.79 35 34 13
-439.198 207.444 1178.84 214 206 211
-419.198 4.55027 1286.04 169 137 123
45.9026 7.44706 868.311 247 255 224
-108.336 263.733 1151.07 241 248 232
113.777 229.534 868.912 125 121 113
-473.984 320.102 1311.74 170 163 138
-144.369 135.59 1004.52 254 247 228
-421.806 162.3 1243.78 203 182 165
95.8034 161.537 878.756 192 200 180
38.4312 38.3116 842.445 247 255 237
-588.353 90.8118 1156.62 236 218 199
-564.604 -37.3456 1107.55 230 224 201
-624.811 128.228 1425.18 245 229 205
213.581 478.243 1215 176 188 212
-38.1623 -25.7608 911.921 184 223 215
-527.318 -40.8971 1174.28 153 147 128
-18.4161 86.2643 955.492 254 242 220
-754.098 -29.5843 1190.26 221 217 207
-430.938 180.647 1243.54 180 150 135
-489.569 -40.6303 1085.1 161 153 134
96.7971 245.179 987.184 238 248 238
-689.264 313.416 1435.16 238 238 231
-82.3494 271.305 1112.47 245 247 221
27.0188 -17.9609 800.077 245 255 245
141.62 83.7091 978.833 165 145 121
-511.379 -60.0587 1181.38 141 129 122
-110.75 -19.2786 930.843 81 82 70
-44.2175 -51.9624 940.477 85 81 74
-139.635 148.332 1006.66 227 224 220
108.522 191.853 919.63 242 243 237
-46.4184 21.509 871.039 217 201 185
-666.785 -30.2243 1048.83 226 219 196
-518.327 -46.2616 1126.79 124 116 99
-357.974 142.897 1397.14 113 106 95
28.0375 -140.464 1048.86 176 177 162
-148.876 100.396 1000.63 255 250 239
-70.7437 201.86 1026.31 201 182 164
99.4882 -4.37018 920.996 42 45 37
124.44 219.284 1008.26 135 138 128
-673.246 -0.432803 1092.69 231 216 205
-661.369 156.205 1335.17 114 113 109
19.3064 -15.5799 836.402 252 255 251
-351.458 100.223 1314.03 159 153 141
-438.92 -89.9861 1324.33 43 45 34
-43.6577 158.113 991.104 238 226 218
-153.776 110.248 1000.29 251 247 233
-373.396 -47.3237 1153.45 54 58 53
-684.832 -28.9531 1163.57 255 250 240
-149.314 91.5884 1025.72 129 107 95
-599.034 101.467 1163.88 245 217 198
-446.588 -77.8998 1102.4 143 125 113
69.1052 161.87 923.391 254 255 231
204.52 504.35 1238.5 76 112 120
24.998 112.76 950.521 255 254 231
-393.281 1.40963 1295.48 55 56 36
-73.5687 196.351 1064.74 142 135 129
-454.129 252.495 1192.17 187 143 127
-382.22 125.584 1307.78 144 117 111
64.3098 59.3797 831.823 247 247 227
-598.607 76.0226 1148.55 127 104 85
-122.714 151.984 924.3 210 206 209
-569.697 153.567 1178.09 177 173 172
-21.4395 -94.0849 1022.58 133 113 95
109.693 277.007 1009.53 250 255 247
-22.4475 219.472 1037.62 154 140 129
-425.478 293.15 1328.3 214 208 195
-556.195 93.131 1101.22 182 150 111
-107.125 131.147 1037.87 255 242 215
-407.059 198.008 1256 135 124 114
127.286 399.048 1135.53 136 160 167
-60.5981 173.928 1026.01 254 245 231
-428.346 176.171 1300.25 120 95 81
-47.2074 37.3799 914.777 130 131 117
-452.429 195.078 1124.96 184 147 130
-102.098 63.8573 938.198 227 205 183
-669.63 26.655 1100.33 239 241 237
-124.399 -27.4235 896.539 114 115 101
69.8085 1.05354 870.883 119 111 93
-518.657 -37.9529 1127.54 123 115 97
-11.3942 186.44 1083.35 249 240 233
-124.425 -23.0168 896.786 148 148 127
55.9924 34.8479 811.752 197 196 193
-408.016 145.486 1013.28 138 113 98
168.151 158.354 1048.25 151 129 122
109.764 285.751 992.325 247 255 249
-143.904 83.1015 1000.35 249 240 240
-142.237 140.463 1030.64 171 160 155
88.2329 147.722 855.576 241 241 229
41.3155 20.9688 816.189 245 251 227
43.1268 49.9428 899.677 154 175 172
70.62 77.6731 841.421 201 204 190
-145.901 101.561 965.412 180 161 156
74.8944 74.5665 877.037 105 111 94
46.2558 59.1143 872.036 246 249 233
-611.913 106.254 1217.88 232 211 186
85.598 178.584 927.361 246 255 237
19.5821 47.5843 896.365 161 172 157
-118.671 -62.1006 994.149 184 180 150
-550.574 -5.63639 1018.59 177 115 101
-559.062 226.905 1130.4 252 251 246
15.1267 -112.029 919.744 117 100 86
62.6165 101.618 905.112 247 255 250
-597.203 50.6245 1215.38 253 243 226
59.3932 365.919 1079.66 151 176 175
-21.8563 -92.1109 974.055 215 205 191
142.158 462.142 1189.29 141 170 183
93.5436 245.974 943.852 201 217 208
-715.503 71.2379 1377.92 253 246 230
61.0958 40.2124 859.704 121 125 116
0.211298 283.168 1022.33 245 241 230
-14.0679 214.185 1001.29 201 170 152
-475.101 142.549 1115.74 201 163 142
-692.418 67.7599 1200.59 255 249 242
97.0287 234.453 998.605 244 250 240
189.367 450.192 1151.33 97 122 144
-424.187 86.7505 985.008 140 124 91
-476.429 193.467 1173.5 255 248 233
-40.4641 96.6259 920.091 236 225 202
-86.1309 -33.9652 922.766 113 105 102
-13.2747 111.383 978.704 252 249 233
96.6305 238.499 1005.2 220 230 219
43.2471 67.8324 901.036 250 255 255
-55.0803 -82.5433 1004.38 117 76 48
-197.299 -17.7404 980.194 47 49 43
46.5044 95.9829 874.648 242 245 233
-671.446 53.4033 1178.38 240 208 199
-385.135 -33.4657 1223.34 90 90 81
73.4668 160.108 882.913 244 254 248
-531.005 85.0205 1136.51 187 146 133
-509.683 4.8295 1082.14 128 105 85
-89.504 127.245 979.484 181 167 148
-343.714 189.57 1410.58 66 60 53
-616.334 18.1378 1079.58 250 250 242
83.1422 243.672 1144.71 164 168 163
46.1822 48.2988 871.263 216 237 225
-83.4843 84.8301 1051.96 201 187 170
-18.866 42.2199 921.815 125 115 107
-555.454 -19.6071 1108.38 243 235 198
-412.473 35.3314 1433.42 148 148 142
62.2316 90.0842 971.429 240 252 237
-103.838 134.212 977.018 245 233 225
151.64 149.591 1007.2 130 118 99
48.8479 19.6437 842.578 182 178 166
-412.582 -47.5525 1279.85 54 48 42
-60.5755 163.631 1025.11 228 215 203
-18.8752 33.0984 921.414 109 105 97
-713.659 70.411 1220.02 245 246 238
-467.814 173.232 1173.7 190 158 139
-436.585 -32.8585 1400.71 69 56 56
-544.794 54.7811 1120.79 235 201 188
-33.9765 -85.711 997.984 185 140 133
-124.972 141.212 1009.41 208 199 193
-84.7379 132.303 980.853 250 218 208
68.5731 -105.538 975.821 48 107 105
9.11787 -11.7158 861.988 172 176 158
-745.338 234.586 1485.59 189 180 177
-132.655 180.712 1049.99 246 244 245
-565.454 197.222 1120.47 251 248 231
101.433 215.463 985.487 237 255 238
122.821 160.868 930.572 172 155 146
-463.723 79.1364 981.046 255 247 228
-661.022 30.9914 1156.63 247 248 244
107.136 185.814 982.826 251 254 234
-533.101 79.3093 1134.92 244 231 220
-381.981 74.8081 876.745 92 71 45
-682.822 26.9985 1167.59 245 228 214
-104.559 179.175 1056.31 217 206 199
48.3131 -99.1696 1009.69 61 85 80
21.6117 -12.9623 875.279 230 239 215
-79.9227 127.492 981.465 236 212 193
180.708 455.636 1150.72 116 153 172
28.678 -9.40275 837.492 145 153 120
54.6431 81.4011 903.695 238 251 230
0.744496 139.248 963.005 195 192 174
-491.587 154.108 1160.68 255 250 233
-15.3155 299.748 1086.52 217 209 185
105.058 193.722 967.956 248 255 237
92.8685 197.515 930.211 244 251 220
