14.2518 -10.0878 1198.63 107 91 83
8.36313 -8.08526 1115.18 255 250 240
-28.4593 406.344 1245.92 255 247 231
15.0089 409.446 1255.6 242 236 230
-43.4191 82.1231 1071.14 16 17 16
54.8933 -5.3884 1128.56 109 73 58
20.2179 -13.0685 1199.6 255 250 226
462.033 -116.824 1611.03 255 246 238
450.526 253.945 1667.05 26 48 58
362.59 188.17 1845.2 219 221 213
8.63703 358.576 1251.14 63 44 35
-115.487 486.986 1357.47 168 168 160
-34.6187 387.118 1243.39 231 245 244
12.2158 370.036 1313.56 247 231 218
39.0856 116.231 1120.22 106 69 51
117.172 434.397 1367.94 73 76 78
279.086 161.148 1824.21 75 73 60
2.55146 429.053 1315.48 40 37 35
23.168 -24.8944 1199.37 190 203 202
-77.4514 52.6262 1062.43 250 213 185
-77.4766 63.1579 1063.07 246 177 154
425.593 275.905 1869.36 12 39 38
464.001 6.62043 1630.46 135 119 113
65.997 -11.4089 1178.99 66 14 4
-16.0322 476.539 1252.51 226 230 218
-62.4036 65.7783 1042.41 85 49 45
-18.2461 391.399 1191.29 149 133 125
455.026 -5.42894 1627.45 115 109 101
120.887 206.297 1356.73 85 58 34
5.18826 267.293 1189.07 247 249 231
468.594 14.7047 1632.26 251 235 234
-22.2597 444.528 1249.45 198 183 173
29.1285 319.387 1197.16 242 240 227
63.944 157.266 1247.38 165 129 111
-132.18 501.405 1426.91 216 211 191
-66.4577 117.022 1087.93 243 215 214
-77.4324 44.7439 1061.95 255 235 212
527.861 -131.148 1811.61 243 230 221
-28.4417 437.754 1247.7 32 8 4
53.321 456.162 1295.78 243 247 248
2.24614 273.11 1188.83 161 155 149
-30.0626 310.138 1184.25 110 94 99
-14.3017 367.402 1157.47 179 174 155
-38.826 223.913 1176.91 255 229 200
-30.1549 78.0983 1168.13 96 99 86
-14.3854 305.152 1266.64 139 129 120
-80.0946 180.938 1189.73 44 24 14
-104.431 522.276 1436.12 185 182 175
57.2511 190.848 1308.3 255 249 235
381.365 -203.323 1760.99 37 41 33
38.7658 113.374 1238.6 255 216 208
468.426 334.702 1766.8 213 244 249
491.897 260.255 1779.93 182 213 230
515.032 19.9761 1734.92 255 252 251
73.5402 182.461 1251.38 255 247 232
-64.679 174.111 1118.16 100 63 51
66.2306 153.239 1277.68 250 236 214
447.023 -85.1383 1614.16 209 185 165
-61.9554 190.934 1119.79 80 72 71
100.136 175.337 1350.47 164 149 137
79.3265 194.995 1282.82 177 160 152
51.7702 141.382 1298.9 127 108 93
56.8829 210.257 1279.2 152 138 134
54.798 194.431 1248.72 255 248 234
79.4596 194.063 1452.18 119 98 82
62.975 143.643 1276.42 131 82 50
479.402 194.979 1673.97 91 90 82
14.916 374.725 1253.49 229 212 201
54.2855 113.663 1241.65 248 207 190
75.234 176.756 1374.06 254 251 237
-53.7546 269.863 1126.15 81 75 60
58.0391 132.987 1208.86 251 240 222
64.259 205.902 1271.95 63 42 38
-32.9739 354.603 1186.15 163 146 147
464.263 -73.3748 1618.25 159 145 143
-13.8728 342.002 1305.64 236 240 237
-111.407 517.986 1433.89 89 88 79
544.611 -10.022 1733.49 253 234 220
7.3492 297.787 1164.81 144 141 139
-25.8447 356.537 1136.5 113 107 96
-85.9234 186.64 1188.7 211 171 161
-44.6124 188.473 1173.23 250 237 206
-50.8053 178.904 1196.17 139 101 73
38.4141 351.716 1317.92 248 246 237
117.595 220.61 1341.9 163 131 105
35.4548 49.397 1206.72 180 72 86
-73.1375 86.1434 1159.55 244 180 172
45.2311 159.921 1243.93 246 215 203
495.96 -114.914 1610.99 245 231 214
641.462 46.1257 2391 210 206 198
448.163 -36.7529 1688.64 199 163 148
490.572 -49.6894 1625.3 255 246 217
475.604 251.112 1874.61 85 121 112
44.5257 425.951 1205.96 116 122 124
450.86 -55.4544 1620.19 186 166 170
507.39 -111.305 1710.85 241 233 229
-50.4239 232.259 1174.93 249 244 221
30.5793 48.8247 1228.84 185 101 84
-6.46403 55.0281 1198.65 255 252 254
110.272 61.0066 1261.88 255 246 223
119.647 68.4908 1346.14 206 129 109
-65.505 193.288 1193.64 177 161 138
-88.2274 553.974 1523.92 159 153 144
-20.8537 402.486 1068.72 82 64 48
-7.45381 134.686 1147.19 255 239 208
70.0699 138.745 1246.93 186 133 97
-73.6004 91.2333 1133.93 190 93 67
60.4477 104.493 1242.01 171 117 90
73.4446 169.975 1250.3 229 217 205
543.303 -31.3394 1729.59 238 225 216
505.748 -28.6904 1698.89 255 248 235
458.551 253.135 1871.58 74 107 99
370.726 -228.121 1671.06 214 168 161
508.079 304.679 1890.76 135 156 150
-62.5064 163.138 1091.08 231 218 217
486.847 348.91 1890.13 75 110 115
66.5676 220.128 1281.71 165 149 137
597.349 -6.07278 1892.55 246 231 216
14.615 271.011 1246.45 128 95 84
-40.2003 283.136 1169.44 159 161 148
105.622 -54.4628 1234.43 255 250 228
341.205 -190.468 1580.51 109 107 112
-4.33539 247.442 1158.14 142 111 101
-14.3307 335.682 1156.52 130 101 83
-15.647 341.246 1290.64 158 105 110
23.069 292.087 1194.28 149 112 105
-13.503 325.013 1335.09 119 87 69
-120.258 103.478 1176.34 161 141 133
15.4495 263.841 1227.56 220 163 156
1.81989 400.808 1171.61 128 130 128
-6.89003 116.315 1175.88 251 208 200
51.0969 101.248 1239.92 253 232 212
425.234 266.465 1867.91 42 65 70
571.833 429.815 2180.66 117 139 145
510.114 20.7883 1641.66 227 206 183
-178.722 44.1619 1214.71 151 121 104
481.318 30.3846 1837.39 157 142 119
-3.79177 357.776 1248.41 226 195 176
495.407 -90.2676 1713.17 223 229 228
449.152 93.3734 1568.49 134 130 109
392.947 191.583 1753.47 21 27 23
-13.3817 146.068 1230.69 171 152 129
47.0255 149.608 1273.57 239 186 171
-20.1951 331.736 1142.94 241 226 222
-79.0817 185.385 1238.95 174 171 171
-86.4438 124.732 1084.46 100 59 48
-8.14865 283.025 1265.7 254 237 231
-31.5602 140.131 1145.23 216 199 183
20.7446 246.289 1245.89 255 241 241
-40.7528 480.732 1247.21 107 98 94
-1.22136 434.495 1225.66 224 217 211
14.7889 96.6775 1102.19 255 242 245
-35.9238 153.647 1172.62 156 122 93
-56.1803 211.469 1172.28 254 248 214
68.5753 328.991 1286.57 254 254 235
-3.54692 335.495 1191.38 255 237 224
-0.661404 296.835 1189.69 146 119 118
36.0553 609.879 1367.57 155 179 168
567.619 -256.082 1689.76 194 213 218
-176.622 234.588 1289.42 79 24 8
560.496 -141.826 1623.8 209 215 186
-168.537 499.901 1496 156 139 117
596.896 -82.7614 1829.73 254 251 238
-34.6091 421.59 1245.41 110 103 91
-75.3102 252.804 1143.29 158 126 118
-12.5029 266.452 1185.32 201 142 120
482.545 344.106 1770.22 110 133 134
569.327 102.535 1755.39 249 248 223
-17.3773 137.606 1148.02 253 209 185
128.365 112.668 1378.17 255 245 226
420.819 -172.373 1488.53 73 84 84
257.748 -160.869 1361.81 193 198 189
136.765 165.297 1261.49 255 244 215
-76.3915 99.6256 1133.75 207 193 179
-9.85066 451.822 1252.57 109 93 80
62.1667 322.471 1243.2 177 178 153
414.89 -61.1299 1613.51 151 121 110
44.8734 98.077 1238.42 173 148 137
68.4867 -54.2809 1228.09 91 66 48
-33.0345 112.858 1170.21 169 153 134
-189.34 62.0236 1130.25 88 33 18
-148.835 467.638 1374.38 43 36 18
35.9882 363.525 1301.97 223 217 190
42.1473 225.202 1390.25 227 204 208
-88.4926 39.6768 1180.01 171 149 117
-84.7506 33.4676 1077.13 225 200 176
63.4445 598.628 1372.59 109 130 120
-21.5582 -5.45499 1163.15 93 64 49
430.297 327.178 1683.47 98 122 132
-24.5561 142.69 1132.19 177 118 74
-74.9806 149.72 1210.14 200 192 192
-25.9174 242.932 1130.5 185 135 107
2.60765 452.797 1255.34 158 147 127
587.11 -107.621 1720.52 250 250 227
-167.117 249.574 1260.53 99 38 19
623.552 -35.2034 1956.79 172 152 139
377.411 -76.6967 1384.5 33 13 6
513.498 242.437 1778.55 160 181 183
568.203 91.3353 1831.8 253 248 228
-73.2668 141.039 1163.55 177 146 129
500.734 328.923 1794.77 153 181 179
-103.251 168.416 1183.78 88 45 20
375.721 -216.382 1875.49 114 107 101
489.477 293.425 1693.11 170 189 187
-83.1764 30.9441 996.97 142 117 93
-47.4374 271.531 1077.78 144 132 132
-6.43975 69.8686 1199.56 255 230 230
369.183 72.7111 1306.78 117 103 78
686.105 -300.375 2017.6 88 98 86
-53.9092 34.4157 1066.05 254 239 211
606.217 104.639 1755.14 228 231 199
558.85 -123.941 1803.6 215 196 176
107.345 49.2918 1278.46 255 235 217
99.4639 635.006 1493.83 157 185 172
-19.0408 95.2456 1281.74 254 233 221
-169.445 -52.8297 1409.38 80 68 57
-20.4529 99.8997 1122.47 252 223 205
596.264 349.807 2016.22 173 191 189
-51.4019 187.267 1231.51 131 84 54
89.4175 42.3649 1138.26 184 133 120
-47.8701 220.725 1198.87 187 176 142
75.5719 30.7115 994.3 254 242 226
27.5129 115.356 1294.93 198 179 175
-15.4135 352.082 1307.18 242 178 169
461.792 27.6316 1949.11 120 95 74
646.811 96.9705 2041.09 167 174 145
415.751 -177.783 1442.16 141 145 140
-17.683 332.485 1246.04 220 187 188
705.774 125.007 2131.35 197 196 174
-24.4194 217.588 1151.36 214 175 146
-97.0687 145.486 1041.25 124 102 92
-24.925 -5.09177 1069.06 191 165 149
500.495 198.901 1655.65 187 198 201
-38.8097 112.747 1168.98 229 178 157
-22.4076 272.366 1238.55 247 205 186
669.503 387.36 2140.87 183 186 184
-54.9763 33.5362 1001.48 184 159 140
345.065 -73.5834 1269.11 22 5 1
326.337 8.76855 1619.1 42 48 24
227.208 -182.564 1565.23 85 103 83
