-25.9969 269.022 856.689 224 221 217
-187.588 95.7025 860.633 242 232 216
-343.008 14.4647 1361.99 242 233 221
-20.463 315.688 876.874 210 209 198
13.5898 8.5254 959.725 248 250 246
-98.0939 18.2312 1056.22 255 245 255
-92.9225 13.0714 1056.98 66 71 73
103.181 27.3418 907.568 35 36 24
4.23268 349.878 959.591 210 212 202
-26.7429 27.2298 953.903 235 241 240
64.6261 361.526 970.433 231 221 222
15.5495 289.165 925.341 245 220 205
-85.8 221.669 817.234 162 164 162
54.8399 351.144 968.375 220 223 215
91.7546 27.2861 906.043 188 199 193
-414.706 12.2997 1303.08 215 192 175
-110.423 196.295 800.805 213 225 222
-2.82216 3.25792 1009.93 251 244 233
-73.0736 207.803 769.417 73 75 74
-354.245 47.771 1449.97 96 78 68
-352.18 60.5404 1543.04 220 207 202
0.169908 279.629 909.875 88 85 83
96.3038 25.0832 906.542 41 43 33
113.043 264.42 973.517 193 196 189
143.913 365.527 1019.93 248 215 199
-360.629 42.546 1454.41 209 183 175
-364.407 56.9082 1455.23 211 208 202
8.19784 276.942 941.472 216 208 191
-10.8016 273.548 873.808 196 204 201
-348.204 -58.9482 1320.76 192 170 158
51.6213 68.8016 872.173 210 194 181
-113.513 23.3553 1053.25 87 58 58
-275.558 32.4653 1482.88 209 180 160
-297.749 38.1212 1558.91 174 147 134
-54.7055 3.77104 1041.4 86 41 29
-257.331 34.4839 1572.29 68 55 46
-161.366 96.5248 877.205 84 88 90
-435.908 -27.207 1369.27 175 157 138
-453.24 80.8893 1349.02 243 239 213
-105.595 200.431 812.894 35 34 38
-73.2526 222.087 808.904 175 163 164
-268.709 46.1019 1570.51 102 63 41
-69.8799 307.726 867.328 224 206 193
144.456 174.558 988.006 21 4 1
-89.0506 31.7036 1034.82 247 219 196
-22.9317 14.0952 990.165 254 243 233
-13.1691 269.134 919.597 183 150 131
-493.189 106.554 1494.08 255 248 234
-208.026 265.411 999.783 209 212 208
122.385 211.234 971.852 184 153 133
-142.758 56.659 968.932 72 81 69
-324.151 -46.1464 1233.43 244 230 213
118.24 219.797 938.119 66 58 62
-78.9043 238.033 856.319 113 114 111
-16.1824 256.559 874.674 142 124 102
8.84039 274.026 902.649 199 214 206
134.873 226.281 974.558 153 163 162
-96.5068 17.9011 993.013 52 60 56
-490.313 114.109 1496.71 151 129 105
-487.711 41.2426 1403.77 254 246 222
-121.933 34.9141 989.562 247 252 245
-56.2766 354.466 917.629 176 170 167
-237.114 -9.89188 1222.85 161 169 163
124.923 218.626 972.665 74 58 34
-145.128 85.8538 869.012 92 117 113
-466.27 -35.5976 1441.75 218 191 166
-524.785 82.4895 1558.84 130 110 83
76.8774 367.191 972.683 172 168 173
66.5988 257.121 932.284 193 182 165
-472.8 -28.4392 1439.84 167 142 116
-458.425 67.3846 1344.41 232 221 203
-305.229 33.5666 1455.76 218 207 204
17.2641 270.022 893.419 225 218 220
-171.049 128.804 808.298 247 254 237
-412.922 56.8857 1201.53 137 121 103
-410.318 -28.8549 1282.88 155 132 115
-342.245 -52.5387 1323.13 37 15 2
-126.598 38.2746 1068.65 145 98 107
-410.942 -47.724 1376.74 177 153 137
-447.71 171.486 1438.95 159 137 120
86.6146 353.202 973.677 209 187 186
93.9933 353.688 974.872 219 157 142
-65.6729 334.401 869.252 202 184 172
-90.04 86.8381 879.572 240 236 233
-262.134 122.067 1043.32 215 213 199
112.936 252.222 972.836 186 179 177
135.261 262.951 976.727 125 132 134
43.4901 290.265 976.936 215 222 206
-63.4498 -9.2218 1169.57 72 71 70
-389.391 -42.6985 1270.44 173 148 132
94.9114 265.638 937.026 23 12 11
-37.7738 299.114 872.942 197 164 144
-262.955 11.6101 1406.66 210 188 184
-487.424 121.74 1499.35 246 232 210
92.8015 225.721 929.907 142 116 105
-286.305 16.905 1547.85 101 57 49
145.014 227.858 1012.15 169 162 151
40.8195 257.458 884.305 50 25 16
-495.815 180.996 1598.01 218 196 190
187.071 339.912 1064.42 190 151 142
-211.309 94.3507 933.817 155 155 146
58.8664 242.879 878.955 74 70 54
-79.686 154.928 816.048 49 64 62
99.3639 228.383 935.836 90 60 45
-287.747 6.02776 1642.46 96 95 88
-9.42952 297.352 932.94 207 206 205
-50.9508 176.704 836.693 119 119 117
-128.36 94.7351 872.594 87 120 119
157.006 296.764 1088.76 39 22 28
-51.8364 177.517 831.262 147 149 153
-70.4481 170.491 855.997 60 77 75
-135.49 97.5076 851.788 123 146 142
-89.6451 158.557 814.395 57 78 81
104.813 169.367 966.702 146 115 97
-37.5917 28.4933 988.304 119 110 96
-249.491 -0.581304 1355.49 78 74 72
-23.4842 313.134 906.118 172 143 124
26.0762 301.937 929.214 216 192 183
-232 81.0614 949.832 79 77 64
-453.02 153.202 1432.88 161 133 112
-94.3162 54.7164 960.221 192 152 139
-39.4866 27.4579 930.831 237 220 207
-203.726 116.818 888.973 187 172 170
-202.628 129.244 936.78 185 215 213
21.5635 24.6785 912.355 191 225 218
-17.3269 -5.50668 953.901 109 78 67
-17.3988 334.559 940.28 210 210 195
84.9213 361.024 959.627 70 61 71
-95.4663 30.7147 977.429 212 199 181
-98.4035 175.627 823.139 123 121 124
-146.431 69.7923 1069.03 205 188 177
-164.357 61.7699 1044.09 234 197 174
-430.874 216.421 1455.2 162 135 114
-139.84 63.749 985.786 88 76 74
29.0003 19.1429 999.285 243 255 255
-92.1636 50.3603 894.514 255 233 220
-428.023 224.005 1457.92 225 211 193
-91.5213 170.165 869.973 146 166 166
-103.06 177.331 796.085 62 59 53
-80.6704 0.323885 1103.33 134 141 117
-466.471 187.552 1510.07 227 211 197
171.85 262.384 1033.99 81 69 59
-206.595 105.415 921.205 206 179 156
-373.741 23.4943 1306.28 128 108 104
-12.6053 -7.9183 1021.74 234 188 173
35.8273 228.227 905.729 126 57 35
28.1542 186.042 891.535 181 120 93
71.6917 310.803 969.398 52 79 91
-225.504 265.391 1061.33 144 146 145
-284.834 -63.1502 1505.19 97 93 81
-94.0422 54.4331 921.786 224 214 196
-68.9139 64.2196 948.005 230 211 189
-72.7187 -7.75432 1010.5 186 192 173
110.364 249.899 1005.93 187 156 134
-281.945 -18.9091 1510.16 63 63 47
28.8509 156.132 902.273 178 133 105
-217.73 243.604 1005.43 252 251 248
-271.272 -22.688 1513.39 115 116 103
94.9364 160.416 912.339 170 130 108
-360.146 23.7134 1242.87 68 49 44
-454.122 44.0748 1499.42 138 125 113
-360.251 -58.7507 1316.81 128 122 103
-129.959 42.5428 949.508 126 65 65
-139.975 14.5856 1139.12 127 132 121
47.5574 256.732 1014.25 166 123 109
-136.547 46.5405 1049.55 19 28 21
-40.8893 29.7667 856.519 175 140 125
-368.076 210.705 1255.18 230 198 180
-99.0834 327.183 885.013 249 254 240
27.2086 31.1536 989.786 183 231 216
