126.764 -49.4334 1295.76 238 223 213
38.392 390.84 1129.17 255 244 214
33.9053 379.206 1148.86 214 201 198
351.217 -92.229 1685.25 244 228 216
309.512 349.324 1769.91 204 229 234
89.9967 -73.3846 1734.61 29 31 19
73.2141 -4.76061 1178.68 254 240 209
47.8895 427.542 1234.57 142 110 84
4.48784 69.813 1079.48 88 13 2
71.5743 -15.6611 1266.74 218 192 184
358.359 41.7012 1716.17 251 247 238
4.40017 72.0234 1037.24 200 135 120
39.6677 382.475 1150.12 75 64 54
322.817 280.766 1738.6 25 59 68
-0.632037 183.308 1085.25 83 69 66
-0.353329 45.2756 1098.07 120 91 66
4.47394 64.4374 1079.14 241 164 139
18.076 309.735 1216.06 28 10 5
123.223 439.066 1276.67 96 95 94
33.9652 380.933 1175.99 250 239 228
12.6188 91.503 1082.34 241 218 199
15.2982 86.1426 1082.5 72 56 43
94.3636 164.283 1198.64 116 84 67
343.292 208.175 1658.02 77 75 63
11.9864 178.571 1065.31 45 19 14
6.42019 95.8792 1057.95 87 14 4
17.1246 187.242 1124.27 238 219 217
366.003 -75.279 1779.53 132 115 108
-56.6124 92.9416 1069.05 147 138 132
122.292 463.288 1309.19 25 26 27
89.0357 3.64522 1135.08 165 93 87
344.169 -63.334 1690.94 210 191 178
47.1868 454.534 1134.64 243 236 223
32.0862 228.212 1093.83 121 103 89
-46.081 106.492 1071.97 160 135 124
68.5794 383.855 1207.81 225 224 222
26.7575 304.765 1121.12 84 91 91
69.6334 429.119 1239.05 251 243 233
54.9733 314.139 1042.37 240 233 213
236.611 -162.504 1660.09 53 58 55
160.156 293.406 1303.04 27 30 28
69.832 457.537 1241.28 100 75 54
-3.40354 268.06 1136.01 250 234 231
15.6552 202.954 1089.42 98 74 61
314.496 5.01725 1592.27 237 211 209
57.6054 497.645 1241.74 160 161 161
23.9635 6.27972 1124.1 231 201 184
325.536 56.6883 1606.3 117 106 104
119.357 8.86176 1374.46 173 84 51
57.6568 295.027 1126.25 144 128 133
17.7146 200.012 1046.44 243 228 214
117.031 214.253 1321.72 151 151 146
63.8977 274.539 1169.17 225 211 218
34.013 279.837 1126.82 167 169 167
406.86 -221.978 1776.3 200 221 218
33.1021 -36.2407 1280.3 138 148 154
369.064 405.421 2002.28 113 138 142
56.6405 10.4592 1232.4 223 200 175
121.425 -27.8794 1251.61 219 205 185
385.247 419.479 2122.85 175 203 217
37.1423 451.035 1261.69 143 132 117
325.318 -9.09338 1700.57 204 184 164
94.4684 176.306 1199.56 162 134 120
-24.9341 166.672 1057.41 70 30 11
97.5104 -42.9175 1291.5 106 82 65
89.6404 -21.1744 1212.13 121 108 75
39.0571 236.09 1165.26 231 198 172
-14.4214 182.989 1060.63 239 200 183
39.4335 316.117 1146.96 161 141 126
41.0128 294.573 1197.43 128 85 63
66.1106 372.276 1233.68 161 132 115
339.592 16.1695 1708.07 137 123 116
319.62 54.3537 1713.57 156 136 138
26.738 69.2586 1071.24 254 252 240
94.4019 200.47 1184.64 160 150 131
38.5689 445.507 1204.82 51 28 17
36.1579 545.562 1137.06 109 128 118
366.691 271.225 1863.83 105 133 136
60.3303 272.42 1125.04 150 140 143
19.217 66.7924 1000.14 253 241 219
-75.9469 69.4672 1157.6 157 121 111
-9.21602 211.608 1206.31 155 129 114
288.553 -30.1424 1581.02 151 120 113
-102.18 425.904 1122.31 108 100 89
19.6472 -22.7677 1222.25 161 182 184
94.7243 206.415 1201.82 164 145 121
89.2135 501.471 1337.49 21 26 26
58.2765 356.013 1170.58 255 242 231
365.111 -13.8695 1795.18 223 194 177
351.817 362.112 1881.02 110 138 141
-118.706 271.962 1215.55 85 23 4
71.9341 314.59 1178.2 119 110 87
-148.215 486.368 1310.53 9 0 0
35.8382 492.634 1236.92 176 163 138
102.922 141.206 1312.09 176 137 116
360.559 338.031 1984.6 117 140 134
33.1408 321.739 1188.43 254 254 255
77.9915 329.844 1180.57 208 199 176
-107.837 479.939 1259.84 57 52 42
11.8199 111.01 1171.03 254 231 207
380.872 1.69594 1815.74 131 113 108
-35.8958 329.194 1183.47 146 124 115
66.3995 368.082 1181.38 251 242 228
413.026 -49.2539 1791.49 255 254 220
358.767 35.1372 1806.75 144 117 113
-175.552 429.316 1201.46 71 54 38
-95.6974 528.474 1364.63 153 151 143
371.888 -30.126 1701.86 254 231 213
88.6499 121.284 1171.7 249 228 209
18.6682 273.616 1012.04 166 165 160
52.0519 451.126 1184.43 110 91 71
101.715 159.663 1254.34 223 206 178
45.1927 319.311 1148.23 255 250 235
6.54872 135.714 1061.07 127 53 25
-101.198 74.4783 1126.95 140 103 90
346.345 -21.7031 1700.57 115 91 74
-11.4707 136.91 1080.54 97 47 37
45.2174 111.77 1108.85 255 232 224
-110.552 -17.0605 1251.03 166 154 147
28.1008 179.407 1047.29 239 215 173
-119.198 248.242 1181.95 65 16 2
75.4164 117.156 1095.07 181 151 134
55.6699 350.571 1259.71 163 135 120
70.4202 108.832 1043.42 221 189 164
73.6716 112.239 1182.93 217 169 157
79.0135 124.085 1132.22 255 233 211
48.7325 258.48 1274.34 138 101 83
42.2495 301.87 1146.77 255 241 244
109.772 161.094 1315.32 182 145 116
69.8817 109.977 1189.98 255 244 240
116.881 200.972 1320.46 255 248 235
343.802 -152.072 1680.4 47 40 38
51.1765 301.623 1173.2 214 184 184
-104.455 -17.177 1112.84 20 4 3
39.3343 72.556 1061.58 168 150 143
43.9448 59.4661 1131.68 255 252 244
-48.2112 305.442 1128.68 133 110 98
147.537 26.2033 1318.58 96 105 87
1.29916 -36.0882 1273.97 121 145 156
-27.8323 149.593 958.699 134 111 93
54.3216 76.7986 1158.66 255 245 231
-91.1437 465.517 1206.64 100 97 88
70.9199 203.133 1134.85 186 164 152
-1.18755 140.429 1020.03 140 114 113
-37.0861 114.265 1119.9 118 95 92
-34.8547 134.383 1279.59 107 64 51
231.789 -197.179 1751.34 196 165 158
60.7862 418.721 1183.96 206 201 196
54.5405 125.899 1161.21 254 200 186
-44.358 360.766 1158.07 62 56 38
-3.60172 165.773 1129.96 213 201 196
