-466.718 415.675 1046.59 230 230 225
-247.168 407.866 1065.5 234 232 225
459.376 199.558 1124.09 253 253 245
441.15 177.819 1076.2 235 235 229
317.368 -67.5588 906.581 195 199 195
194.365 33.4955 1014.76 254 252 249
172.474 -113.89 1071.66 250 227 227
-485.669 398.546 1066.91 224 221 212
-366.513 213.287 902.062 221 218 192
-506.34 519.352 1202.29 17 18 6
229.871 147.915 1051.47 246 228 212
313.631 377.974 1213.41 52 89 99
293.724 429.794 1195.3 25 41 50
-358.93 208.335 1001.17 101 73 56
-431.909 174.23 998.402 250 230 207
328.813 -86.5517 954.798 246 250 240
362.202 -75.5784 1013.55 236 248 238
-477.487 400.718 1041.62 235 235 231
287.236 133.151 1101.52 234 211 205
210.047 146.628 1033.34 255 243 242
-380.871 206.374 916.4 53 38 30
-531.551 186.734 944.913 71 60 39
-412.106 209.719 985.438 117 93 71
299.957 371.442 1246.84 203 226 236
396.92 -21.351 1000.75 247 255 244
452.521 211.235 1105.24 251 251 247
254.233 28.781 1022.35 252 244 226
384.588 114.102 1028.47 99 125 111
173.503 19.4185 998.639 196 187 187
-406.761 170.717 944.483 70 47 36
-414.171 204.687 984.489 253 228 205
-514.632 437.497 1112.37 48 44 40
296.957 -2.15461 786.759 235 243 237
144.6 15.7454 924.35 191 174 171
-320.774 116.185 984.68 225 211 197
-426.569 192.768 955.749 226 195 188
-298.838 243.536 1222.62 209 185 166
-586.898 117.883 943.911 224 227 215
-398.532 177.818 926.728 104 75 65
227.9 226.436 1053.88 237 240 211
-313.171 180.456 1032.52 247 226 212
389.255 68.0418 1046.52 86 96 78
-321.653 97.3693 944.147 254 248 231
-339.213 254.96 1009.48 115 90 79
186.977 53.5752 1064.47 221 212 216
-303.247 327.097 978.682 250 236 228
-451.918 477.697 1106.08 201 201 203
-335.338 263.206 988.778 242 220 207
398.539 -43.5317 998.75 222 236 221
164.246 82.1027 1041.4 136 81 78
240.852 82.1545 1010.11 247 229 217
-305.959 98.508 911.492 248 227 212
285.159 -16.4102 992.203 225 218 213
165.703 139.041 1042.27 214 196 190
300.119 380.864 1247.44 174 199 211
232.096 237.176 1110.22 229 235 208
-317.47 111.505 945.757 232 207 179
-465.192 52.4868 920.052 204 195 185
405.206 -1.63787 1041.28 246 255 239
364.874 430.164 1204.8 76 100 122
-449.49 180.725 993.387 138 111 92
229.237 -124.097 1054.37 102 74 68
276.131 43.1168 975.252 247 237 217
-567.497 116.398 950.741 137 136 135
158.688 66.2702 979.253 210 186 176
-440.588 394.846 952.554 231 234 232
-508.46 330.981 1006.83 255 248 242
191.742 95.386 954.774 235 216 188
405.813 -12.9479 1021.62 224 244 233
-422.674 49.3537 845.502 226 226 209
209.228 57.1752 968.242 226 208 181
-422.664 202.64 957.738 241 215 197
221.202 93.0168 1047.97 246 222 189
223.604 -118.209 1097.85 214 230 216
-476.701 360.577 1019.31 251 236 214
-312.029 453.512 1147.71 55 57 45
134.355 -140.051 1157.73 93 92 88
143.42 68.983 982.092 253 240 228
165.619 128.692 1041.85 220 210 211
159.095 131.873 1007.11 83 69 68
382.045 -86.5522 1071.52 218 238 228
-274.134 218.736 1091.67 171 147 133
-400.724 62.8031 903.934 50 24 9
-519.533 172.015 922.178 116 111 105
-322.441 119.876 966.065 242 231 212
194.945 140.193 1103.41 216 211 209
-411.721 257.38 1055.11 125 125 112
-427.264 211.147 980.853 116 95 84
153.373 34.2563 996.64 254 253 249
216.812 -77.6197 1079.93 157 150 139
242.589 142.189 984.752 241 216 210
364.11 -125.465 1163.51 234 248 247
163.917 -68.8642 975.391 165 163 144
356.983 -28.9058 928.816 234 247 242
400.288 -1.59453 1002.82 214 235 203
-306.705 229.105 1061.58 219 192 177
202.57 -109.099 1075.92 186 165 159
369.734 9.83711 1019.95 169 167 158
-308.235 114.489 1077.39 195 183 180
-488.928 510.031 1184.18 83 84 80
283.357 155.817 1018.14 121 103 99
-475.978 303.071 992.537 249 245 240
222.455 141.827 982.269 74 59 51
195.224 -103.971 1013.02 87 89 74
244.284 155.086 1013.44 219 202 192
-358.557 419.312 1035.18 238 236 228
-435.414 55.3979 875.313 135 117 112
182.768 25.2102 984.317 250 234 233
270.295 -7.7159 972.018 196 179 167
411.883 490.634 1328.01 109 135 149
394.042 -63.4037 979.863 234 244 222
268.517 154.286 1068.71 246 232 228
-250.833 322.662 992.788 241 220 202
191.631 -108.945 1074.53 207 153 132
241.245 208.508 1055.1 103 87 78
424.014 153.57 1073.51 238 252 243
-488.513 387.672 1017.62 50 49 38
-525.099 318.922 1000.32 138 122 122
276.717 357.727 1215.92 93 119 134
-302.115 250.719 1064.17 244 235 206
393.31 85.697 1009.86 204 220 209
-299.796 427.257 1070.71 244 252 243
417.385 -60.8322 1019.15 130 144 121
295.04 -79.2063 952.849 163 167 166
-264.79 320.194 1032.89 255 241 223
-435.838 50.9863 892.863 209 210 192
398.029 5.83652 1003.35 234 254 236
461.001 96.7466 1140.84 220 237 223
-402.862 185.119 946.435 217 176 163
-357.092 108.957 955.844 254 240 247
-324.814 164.448 1028.66 254 249 236
-318.971 228.784 1098.39 126 102 89
166.952 123.235 1084.58 249 239 238
176.996 118.813 1003.41 215 208 219
224.586 -134.577 1144.93 209 186 164
-415.717 271.629 926.829 175 177 176
169.759 128.656 1085.24 134 131 128
-260.152 338.881 1034.98 251 239 219
-434.45 291.215 1001.71 156 155 154
142.83 76.1753 965.201 160 148 137
181.055 79.0703 987.624 216 168 149
260.782 -88.8718 980.606 151 131 124
-394.856 60.7933 922.972 107 54 24
-322.408 110.79 893.009 255 241 225
428.98 123.414 1054.39 242 255 236
-346.327 349.964 1109.18 221 214 203
-473.929 295.54 971.884 129 119 118
326.561 -36.922 1052.75 103 81 77
-542.785 240.616 959.43 247 240 222
340.409 -88.6517 939.324 202 214 193
306.982 -109.814 1006.08 235 233 235
252.018 203.499 1056.34 151 142 117
152.376 85.4111 1018.51 239 223 210
-554.649 146 894.808 231 225 218
222.15 82.5407 1030.65 253 245 224
216.847 28.266 920.775 225 218 196
-534.32 192.241 926.374 244 230 230
353.203 333.922 1164.96 132 162 167
406.169 21.5194 1043.58 245 255 251
-436.592 305.743 943.522 128 105 104
311.845 238.846 1092.88 248 246 232
400.107 294.374 1151.63 241 254 254
132.505 -48.3542 1028.48 182 177 170
-562.103 133.291 953.703 153 163 154
223.292 107.156 1073.19 253 232 207
291.325 -39.4809 955.806 170 157 150
-326.855 41.7616 923.882 200 180 146
-520.163 313.313 1018.23 148 151 146
273.188 156.581 1057.32 148 125 118
156.174 148.963 972.382 180 174 169
225.802 19.4991 1004.95 215 172 147
-440.382 108.387 930.81 168 138 129
281.795 36.7853 1033.91 231 213 198
-395.011 192.453 965.83 154 115 83
375.018 307.492 1173.87 221 227 218
251.156 179.295 1126.11 206 181 168
-604.835 124.079 974.402 100 92 90
398.425 15.7518 1004.28 226 239 223
358.274 -93.611 954.689 120 131 110
-316.477 174.618 1021.67 254 241 212
-512.32 237.947 930.243 206 191 164
-482.449 342.581 961.799 122 88 80
-300.571 290.811 939.883 226 216 206
-303.011 161.581 973.41 213 190 179
311.881 -119.644 1005.85 140 167 166
-485.631 338.673 971.255 250 226 220
-517.149 404.419 1041.24 120 105 89
-378.769 307.378 1139.04 201 186 176
400.118 67.94 1026.13 227 244 234
290.477 106.976 1058.22 147 127 122
420.814 202.555 1059.71 211 220 216
340.542 -96.68 973.215 48 47 51
-537.394 243.355 947.179 227 225 216
-442.304 103.718 929.959 254 231 219
-377.226 227.537 1014.95 150 126 108
-462.662 362.606 1043.03 229 237 212
-481.013 154.205 897.48 254 218 193
121.437 -43.3646 974.044 38 33 30
151.28 51.4287 1019.37 253 250 249
-331.244 310.919 1033.6 152 141 132
264.519 114.4 1054.46 193 169 156
-426.019 445.34 1002.06 97 96 91
396.506 122.481 993.959 130 145 126
165.423 34.9353 982.816 236 224 229
303.255 167.642 1061.38 207 184 162
165.356 30.0609 982.486 161 145 152
398.622 20.7047 1004.74 241 252 241
-523.993 365.422 1102.62 130 116 108
243.167 -96.8166 1000.43 162 202 187
118.595 -92.1262 1065.51 55 51 46
-335.784 133.762 963.065 178 126 109
344.487 425.866 1230.88 94 123 135
320.737 72.8385 1002.58 165 171 146
-460.623 300.418 952.939 253 253 253
-471.068 292.536 989.631 163 133 117
456.219 -22.2205 1098.29 236 248 228
303.954 92.9118 1125.67 149 108 102
249.831 78.1376 1093.92 224 211 176
365.167 37.5667 1021.19 242 238 217
-537.397 386.55 1048.72 255 253 254
-425.178 310.463 987.814 182 178 177
-395.197 351.188 999.154 240 242 218
-497.011 329.246 1028.05 152 146 139
-341.421 188.445 1041.87 176 132 99
-287.971 299.785 1071.03 217 200 182
249.209 192.91 1055.63 243 220 183
-497.67 468.761 1110.97 68 57 55
235.724 113.553 939.061 241 218 203
369.657 -37.1222 962.043 182 196 188
430.735 -24.9253 1040.66 238 238 221
275.899 104.391 930.385 237 210 191
-337.353 230.535 1028.29 230 210 200
-285.685 218.871 980.772 226 208 193
219.813 -6.48736 986.339 146 145 121
-247.665 364.331 1174.72 74 68 57
210.733 113.62 1047.51 235 227 225
-269.459 306.534 1031.07 188 154 137
260.976 30.4298 993.492 117 96 81
-469.967 322.882 992.662 249 249 240
111.512 -43.0878 917.561 161 153 144
266.264 -85.6715 932.926 165 148 140
164.431 143.614 1002.55 217 213 211
-314.371 150.514 913.285 255 251 226
341.585 341.753 1197.15 113 139 152
228.92 115.21 1074.5 234 230 235
-450.298 374.063 1028.54 198 197 170
201.198 -156.615 1184.49 172 153 148
275.824 -105.432 966.747 96 121 128
-393.265 106.493 964.247 252 230 217
145.114 -87.1025 951.892 98 78 73
-310.652 108.965 1076.46 88 72 66
264.027 371.059 1299.34 194 196 181
-269.515 311.715 1031.32 252 225 203
-511.281 152.206 991.942 254 251 246
352.333 50.1157 1020.68 246 246 228
259.881 -16.3396 989.77 199 178 170
295.335 441.981 1308.63 84 115 119
238.798 -93.2529 989.09 57 75 68
185.588 -68.8927 959.196 153 146 128
-335.659 126.204 1201.01 167 155 149
252.794 -99.6673 1017.29 95 129 114
165.112 86.9443 1053.14 150 149 141
-326.651 324.146 1035.42 160 151 140
-514.852 134.382 928.454 231 227 218
-313.294 128.106 947.444 228 180 172
-325.661 358.22 1064.07 160 144 125
125.489 -148.302 1155.72 105 91 87
-468.566 114.664 899.12 250 222 202
-451.035 418.172 993.965 152 149 150
-482.449 515.055 1152.66 107 105 100
435.323 164.373 1075.06 199 213 204
453.835 133.912 1143.92 242 250 228
-446.55 142.403 950.228 178 172 170
211.774 -64.355 1057.84 146 141 127
321.159 168.166 1154.68 217 207 191
263.232 180.072 1113.82 165 142 121
-388.867 74.6671 925.181 243 204 173
-339.231 46.9719 962.504 133 106 68
341.236 339.281 1163.6 136 163 169
-460.616 269.93 974.256 249 238 232
200.707 174.191 1138.41 107 97 109
-541.249 187.189 902.367 208 215 214
-316.196 380.334 1068.09 140 115 86
-530.72 154.032 965.769 255 227 205
305.705 395.702 1160.08 133 169 178
-392.92 70.0007 923.864 178 90 64
172.077 56.5334 1022.51 136 112 115
244.035 64.4727 1092.42 192 173 146
-512.776 212.463 890.785 222 225 201
267.343 -25.2542 954.79 118 112 102
-347.472 188.37 962.587 153 118 107
427.573 193.642 1075.61 197 215 204
286.008 -88.7542 872.756 146 178 177
-362.507 393.161 989.827 191 202 168
-585.088 189.19 969.374 154 161 154
-477.651 59.2083 936.682 232 229 219
-532.149 280.182 994.722 118 96 74
-513.41 119.979 889.91 167 169 164
-424.679 155.742 918.396 226 190 172
380.767 -107.372 941.173 89 96 89
-451.207 540.381 1129.56 165 169 162
-348.102 158.848 979.164 249 236 223
-298.006 304.088 1023.47 187 147 126
-566.141 393.342 1108.23 238 234 231
294.595 -40.9961 991.006 159 146 139
-517.945 634.012 1317.63 151 154 145
-283.268 207.837 957.871 250 214 186
-539.112 372.847 1046.95 248 253 253
298.621 -80.7372 1046.79 128 125 122
-290.591 309.682 1004.51 178 142 121
328.229 65.5564 1002.71 231 229 209
-486.718 331.272 999.857 246 236 232
323.783 114.397 1104.98 186 136 125
335.107 -23.3126 991.211 167 162 158
-475.641 103.677 829.621 225 222 216
244.867 88.7297 1074.49 211 208 191
387.783 5.85819 1002.62 224 236 220
276.707 -23.6178 984.916 128 119 113
430.438 191.596 1079.15 200 214 202
-325.318 170.258 967.8 253 245 213
-378.621 81.8156 928.307 140 76 46
221.539 86.9433 993.063 158 130 101
212.302 227.175 1095.29 74 76 71
143.146 28.8505 941.018 164 152 148
-511.795 119.565 947.163 235 214 197
190.133 46.4605 1024.12 93 92 89
237.116 -15.1317 919.958 118 93 82
304.14 66.9501 1027.74 187 156 129
-543.125 163.528 994.417 200 130 116
-565.776 170.424 931.489 241 241 237
-372.196 228.319 936.041 120 123 108
-307.259 144.517 971.41 194 168 154
145.01 -49.2718 991.327 141 135 138
274.875 105.146 1015.15 172 145 143
-334.883 88.5604 903.865 198 141 108
416.84 -13.4796 1062.84 198 212 211
-493.808 282.47 980.969 144 101 88
441.685 39.605 1047.82 240 243 232
372.882 244.12 1057.83 177 178 156
354.063 65.2884 1105.55 159 150 128
952.391 -94.2808 1475.06 188 188 183
-341.116 97.3104 902.559 202 189 174
236.484 70.9696 913.92 236 209 195
-343.864 242.637 984.888 252 253 254
-525.688 249.207 951.61 124 114 91
-537.463 195.962 917.65 141 125 114
-546.357 173.434 899.607 206 218 215
353.855 228.886 1096.98 248 244 200
-506.38 107.002 929.74 247 228 213
949.653 -102.284 1352.49 170 161 153
338.141 -25.9181 995.984 143 135 137
265.312 -7.93129 1008.34 176 156 140
101.48 -42.4461 859.433 72 50 41
342.629 444.883 1276.62 148 183 187
189.384 113.297 1044.6 171 145 138
268.473 25.5096 993.892 211 188 173
270.789 59.6255 932.347 249 224 197
178.765 14.9928 1036.81 58 39 41
230.849 109.571 1010.06 207 183 179
373.983 364.8 1256.38 174 207 215
