132.549 209.101 907.594 212 208 198
-60.1524 28.2236 863.471 251 247 230
146.565 411.894 984.612 61 72 62
-37.5717 -51.249 983.863 252 250 247
29.4991 194.305 862.576 57 55 35
-51.0359 38.7796 884.532 73 105 99
31.3495 65.8209 804.479 229 225 215
71.4652 191.862 856.746 33 37 32
-86.3127 24.7652 889.453 214 203 200
-341.862 175.654 1237.17 65 37 27
-21.2812 63.3021 809.734 253 255 249
26.8359 60.0057 758.027 43 35 30
-173.103 40.2891 940.322 207 201 196
-25.6041 46.2373 761.466 238 231 222
129.595 147.94 903.886 186 172 162
-66.0735 26.7724 852.026 248 242 236
8.09826 7.98303 863.133 0 13 21
-23.1853 51.0586 821.172 82 88 79
67.9048 183.053 826.914 132 134 129
-383.099 23.1784 1242.69 222 205 196
108.744 317.197 884.297 253 253 243
48.9534 65.7353 791.662 187 180 168
-21.8001 18.5198 858.962 254 252 248
-275.474 255.41 1360.47 231 223 210
-377.845 61.3807 1240.32 197 186 181
-157.614 33.9803 928.934 206 187 162
199.881 505.197 1073.66 231 248 255
-34.8805 -13.0157 930.129 93 102 100
-355.789 171.657 1298.86 75 39 27
-323.907 62.2821 1258.45 27 29 24
-361.011 61.665 1246.09 236 225 221
24.6724 49.0791 839.127 250 254 250
-61.8362 -9.41898 912.227 255 218 201
-25.2259 36.8194 820.251 105 116 117
-89.7999 237.979 1027.07 251 250 235
-321.846 59.6054 1373.17 184 185 173
-320.768 71.2058 1200.52 167 150 142
-328.612 190.886 1208.22 58 33 23
30.5093 71.7513 793.509 201 203 182
-364.07 24.4456 1160.51 184 162 147
-44.4217 271.256 1052.68 120 107 98
-21.1521 42.7455 921.418 10 26 22
7.89591 144.309 857.056 248 247 233
-25.6005 51.8941 761.722 251 255 255
-518.347 381.4 1442.75 88 89 92
-348.009 165.191 1274.07 203 167 152
-422.151 -25.5591 1158.74 194 182 168
108.034 183.908 873.52 195 169 155
94.3843 323.201 907.033 232 234 230
-19.7414 105.396 850.916 238 234 221
-109.111 42.6228 874.305 223 216 197
-54.3928 -10.725 929.669 241 211 206
-79.7553 243.591 1029.4 250 245 233
40.4286 -4.80907 867.267 216 214 210
-24.3171 57.0304 805.806 97 94 98
96.1644 331.352 895.875 239 239 228
-305.681 49.4017 1327.91 58 52 37
-10.7176 42.5831 833.66 65 93 88
-43.1652 -28.3927 948.16 64 65 65
-373.707 183.766 1293.87 191 172 163
-19.1263 42.9541 821.449 119 128 118
-305.634 37.2527 1304.38 67 55 46
-21.8087 7.93368 858.567 169 197 189
-335.836 213.126 1269.22 35 15 9
-146.73 98.6987 933.722 253 249 247
-44.8509 -36.6658 983.355 253 243 238
-92.415 289.17 1028.65 235 241 221
188.156 497.965 1055.62 225 244 248
-100.595 40.5514 875.811 216 207 197
-314.441 166.461 1271.67 193 170 148
-47.8388 -21.3843 947.681 25 41 32
-442.566 105.586 1139.95 247 232 219
-23.6653 285.322 1042.36 110 101 95
42.8782 107.343 833.475 133 133 125
190.041 441.721 1052.41 49 78 94
-71.0837 -14.3225 943.861 246 228 215
-410.037 210.276 1183.1 128 98 77
-121.698 28.5061 902.677 172 172 157
191.037 511.621 1056.82 47 67 93
-344.888 187.85 1237.05 214 187 173
192.162 231.341 982.195 169 165 152
-21.9401 251.592 949.843 254 247 245
88.4868 245.481 913.873 254 254 238
-179.819 35.5868 938.752 95 93 89
-355.002 167.824 1258.5 160 125 114
-33.7984 -19.0988 950.223 110 83 57
-100.087 -5.12447 974.594 252 226 214
77.5539 122.468 838.577 163 156 154
-329.579 212.023 1310.47 78 62 59
-319.851 38.2467 1234.54 193 152 137
51.3555 264.668 941.666 104 107 97
-312.64 78.1343 1263.64 169 171 170
-102.298 234.806 1024.3 100 93 97
81.2427 128.867 867.162 169 167 163
-338.132 303.195 1246.77 219 216 207
-317.554 -18.374 1152.03 141 171 172
-407.558 216.373 1184.48 229 219 205
90.381 306.433 894.157 253 253 246
-122.15 205.071 979.405 251 249 249
57.4726 282.978 997.577 165 166 158
-43.4354 85.251 819.365 106 87 71
-368.442 216.424 1298.17 184 162 157
-49.1628 229.498 960.364 231 217 210
-52.917 278.662 970.326 137 129 117
-419.923 -8.10848 1107.68 140 125 109
-452.758 42.439 1222.42 144 141 136
-334.777 162.826 1305.02 215 197 181
-477.961 99.3183 1217.09 225 188 172
-66.9248 110.62 928.134 201 191 184
69.3695 198.237 830.49 254 251 240
-307.649 159.46 1386.94 77 46 28
-373.805 -43.1422 1131.34 134 121 104
-448.217 62.6459 1102.95 151 126 106
147.857 170.488 923.054 185 174 162
6.95316 -25.5187 972.071 143 87 83
77.8759 60.3402 810.333 55 59 57
-136.067 139.006 973.703 159 146 143
82.7324 284.078 903.836 253 254 242
-249.141 256.123 1257.37 24 22 15
-432.562 54.8182 1058.2 212 193 172
-74.4247 30.9156 850.739 144 115 94
-314.828 46.832 1302.23 64 40 26
-364.235 311.923 1181.11 133 128 114
63.262 227.32 878.863 247 255 252
27.8242 199.439 920.019 229 227 209
118.59 190.548 904.747 165 125 108
56.1315 278.996 942.83 88 92 87
-1408.49 -26.0995 2515.86 74 74 63
-7.5426 -25.3717 920.576 128 109 85
20.0611 123.43 830.86 249 250 244
-397.716 246.822 1190.47 250 238 221
-134.243 147.192 956.878 252 249 235
89.7111 258.772 850.582 182 186 181
-95.8354 181.745 983.907 255 248 233
102.619 351.777 941.313 241 249 233
-339.01 225.679 1269.38 139 117 108
-45.9237 152.968 907.788 237 228 210
172.047 502.105 1053.39 145 171 184
-439.595 258.951 1310.48 151 123 95
126.833 169.966 920.314 175 173 161
-417.924 30.313 1113.68 166 160 148
20.6091 108.392 857.377 253 255 240
-56.8221 104.619 935.722 115 118 108
-78.0848 120.866 841.593 254 250 244
-336.979 -48.9407 1287.31 38 37 21
-21.2047 -16.2786 918.794 255 237 234
108.104 541.255 1150.23 158 176 175
71.821 205.25 850.764 193 192 174
-468.332 68.5968 1156.05 254 245 228
-1807.74 -56.8012 3208.54 191 193 188
-50.0014 235.992 943.838 230 211 194
72.5512 426.252 1049.85 155 164 162
-386.953 156.588 1058.29 166 138 114
12.1547 161.801 925.906 227 227 209
7.03763 363.795 1034.97 245 240 216
-114.989 195.626 980.525 243 242 243
-19.6865 -21.4976 952.495 174 136 130
-582.902 76.2595 1207 162 131 130
-324.687 80.7888 1332.32 17 17 17
-55.2459 211.09 921.752 233 210 198
-340.022 -38.5786 1007.77 142 132 117
195.573 231 965.609 156 157 153
30.0032 115.444 870.475 248 254 242
120.121 470.84 1083.45 97 133 133
-305.632 169.051 1047.02 156 132 124
-255.827 240.77 1234.46 34 32 24
-59.643 145.395 952.88 134 114 101
23.5953 192.18 945.699 204 207 191
-303.243 77.652 1208.22 36 29 27
134.2 499.641 1087.71 139 163 171
-49.0607 81.775 845.028 218 199 187
-512.361 255.311 1276.17 248 248 233
125.283 172.64 904.704 79 62 48
-288.53 145.176 1291.29 41 20 10
77.4758 219.843 870.85 249 252 240
58.0158 285.923 859.378 103 106 100
67.0921 99.7214 846.908 70 62 53
51.2563 218.847 866.92 234 242 224
-542.688 73.1949 1159.77 188 167 163
-58.5762 218.541 849.841 233 222 212
-57.6024 99.9995 885.604 234 229 224
-122.545 123.722 958.091 196 187 175
26.3453 140.101 832.509 253 254 238
117.047 550.567 1131.44 139 154 155
-8.32841 51.1805 808.036 153 155 150
-100.653 191.328 983.32 251 249 237
-9.19296 99.3342 852.328 177 177 166
-437.843 119.888 1142.47 223 201 185
-385.616 257.532 1256.83 172 170 166
-239.739 226.523 1368.53 162 156 141
-45.0786 205.314 926.509 254 251 246
10.9367 172.707 899.662 246 245 224
-70.3812 140.956 902.706 221 216 184
-72.8414 308.91 1048.01 239 241 219
30.4766 131.929 832.772 235 239 226
-117.144 213.696 1020.19 224 227 227
-572.573 16.5905 1104.25 232 223 210
-5.18419 337.807 1007.22 224 226 199
-487.264 118.124 1125.36 182 163 144
-407.864 -13.0666 1062.23 148 128 116
-293.76 -12.7654 1159.93 46 45 42
-50.5307 235.39 969.901 164 138 127
36.7793 144.538 834.235 244 255 245
-128.264 32.911 901.558 179 178 152
-402.648 106.444 1040.19 185 156 144
113.598 310.048 952.49 67 58 46
-515.458 404.297 1460.89 136 140 128
29.7209 153.613 822.317 245 252 250
-293.588 154.605 1277.15 155 121 109
-305.488 12.6233 1259.49 71 66 61
-79.188 129.482 900.504 255 253 242
134.289 507.951 1088.26 127 155 172
-327.412 212.554 1294.02 175 150 140
-424.845 176.953 1175.05 236 216 189
58.9476 429.055 1089.89 227 227 224
-57.3439 211.884 955.853 184 161 147
112.326 517.191 1085.07 208 233 238
-470.119 86.6361 1187.81 138 107 97
-512.211 89.7654 1135.11 247 235 221
95.3588 208.697 819.063 162 146 132
-495.633 250.157 1282.15 166 164 160
-48.8454 8.22716 883.743 175 197 186
110.318 301.272 908.594 127 126 117
-497.098 -8.22117 1132.54 140 128 114
73.626 283.636 902.434 234 240 234
-41.5984 10.853 916.582 121 119 121
96.504 357.111 974.827 247 249 245
-404.4 175.144 1126.58 188 176 157
-531.427 147.946 1234.08 164 163 150
-447.755 -14.0344 1150.51 135 107 93
-299.378 326.08 1579.88 150 153 144
49.1321 257.314 782.812 217 219 214
-256.357 224.57 1408.91 96 81 71
-332.027 10.2108 1169.53 192 154 130
-53.4262 421.022 1184.25 211 209 201
-104.762 224.468 1023.32 251 248 249
-1437.63 -165.88 2386.79 171 171 162
112.08 231.036 905.845 156 141 132
-458.892 205.614 1300.37 226 213 194
-657.417 22.6413 1283.45 179 176 170
22.1485 127.581 831.353 246 247 246
28.1925 120.093 815.435 254 255 243
-450.564 344.021 1260.75 156 155 154
-571.552 -6.74854 1142.35 249 248 238
-331.749 -10.8914 1292.11 42 30 28
-306.128 -7.04107 1163.77 103 99 87
-135.492 105.891 936.343 215 206 202
-59.1689 254.334 978.218 172 156 136
-385.126 247.089 1228.31 83 78 70
77.5658 235.088 871.484 233 243 213
-765.211 -93.7825 1236.24 178 182 174
-115.701 233.446 1081.98 156 150 153
-1061 -125.337 1740.87 128 132 122
-552.931 41.4689 1114.57 252 254 252
34.5114 165.324 872.797 250 254 250
39.9666 -7.89688 848.636 63 79 96
-110.077 180.667 923.382 230 228 224
-549.595 77.5189 1119.17 251 253 242
-127.074 109.924 922.221 245 235 227
17.5858 170.223 859.632 110 107 94
-15.2877 135.887 864.048 243 233 213
81.4876 277.102 921.258 233 241 225
-471.468 68.2603 1127.62 255 250 238
-66.1474 100.61 854.399 151 141 133
47.609 134.331 787.573 180 194 166
-310.852 195.144 1235.1 211 190 182
8.0736 -2.65748 862.703 78 105 103
-574.85 177.003 1290.04 183 180 177
191.847 448.146 1093.32 65 102 132
23.3474 73.7142 803.707 248 249 225
-541.318 159.339 1301.93 232 225 205
-2.99605 49.2629 958.789 85 102 98
-86.206 174.762 985.564 233 213 190
-122.875 190.633 961.683 239 238 233
-14.0853 226.693 929.605 174 155 147
59.6538 72.1755 808.568 75 62 52
-502.273 248.76 1213.78 237 238 223
40.0408 158.034 824.074 246 253 242
-1.91793 46.7021 955.048 77 126 126
-79.0236 206.955 988.342 232 219 217
61.9194 222.807 818.967 241 251 226
-95.7816 159.744 982.988 226 207 188
