94.0409 -61.7854 1288.69 195 180 169
4.72615 390.429 1171.04 251 240 209
-99.6929 58.1522 1103.02 187 173 173
324.71 -108.846 1678.22 244 231 223
363.077 313.938 2089.51 24 53 60
109.154 128.442 1224.52 95 88 67
-38.8194 183.908 1173.96 24 8 5
-1.87659 364.361 1139.31 251 248 238
41.8509 454.909 1235.8 49 58 51
-34.3273 67.2044 1117.37 251 197 174
-32.8512 59.1081 1071.77 96 19 4
56.4509 422.905 1184.75 158 164 169
30.6896 405.579 1258.21 255 252 242
-18.0568 268.598 1083.34 71 59 56
359.078 213.642 1849.96 106 109 101
35.4575 410.479 1231.03 248 251 246
31.5892 293.102 1311.5 255 242 234
26.4162 334.145 1142.03 215 173 166
82.0587 -4.89948 1440.85 192 82 75
-35.4981 53.7517 1070.92 252 171 145
37.172 462.954 1292.41 119 93 80
317.179 -88.3699 1681.87 57 33 23
331.852 372.393 1988.82 227 248 249
-4.06102 363.187 1167.2 226 213 202
35.1789 -14.8782 1202.41 237 202 181
12.5171 477.818 1320.22 185 177 161
-23.2191 120.333 1123.21 252 216 214
71.138 -9.39186 1300.86 128 61 38
317.58 -80.166 1683.77 195 175 161
338.441 371.577 1997.7 208 237 247
92.4998 448.479 1320.24 56 60 59
332.534 49.5707 1714.52 64 42 43
-20.3552 199.048 1128.8 118 110 99
7.81491 453.278 1175.93 140 124 103
-22.1382 169.13 1080.42 112 90 70
-8.87794 83.4602 1077.89 145 148 150
35.2846 376.137 1228.14 250 250 251
-32.9048 42.7344 1091.68 255 247 212
1.26196 -48.491 1272.61 175 190 202
198.196 -167.352 1565.63 88 93 98
5.2274 280.386 1189.59 115 100 94
13.9792 408.925 1226.42 175 140 112
-32.9876 278.422 1181.41 196 194 187
-0.679904 283.081 1188.53 189 189 182
31.8364 -25.6519 1224.26 202 181 169
284.449 -55.2255 1684.7 167 143 129
62.6772 -7.46437 1231.74 187 141 101
296.635 -9.23722 1611.15 213 203 197
335.216 389.552 2107.41 73 95 101
-3.64147 434.692 1252.52 151 155 142
378.239 -237.16 1738.55 184 214 207
1.97299 155.744 1180.49 112 65 47
342.813 285.958 1969.12 77 115 139
4.69599 79.557 1175.25 134 127 116
70.5777 215.646 1312.99 166 166 157
27.2269 313.697 1251.74 152 129 132
2.14419 219.676 1134.58 225 186 170
313.071 38.8543 1801.55 188 171 163
-141.903 46.6464 1116.38 190 154 137
13.7045 462.763 1177.75 201 198 192
386.265 20.4026 1934.48 254 244 223
318.624 -31.9563 1784.67 234 184 161
46.8078 336.073 1242.86 253 248 232
319.029 40.9905 1710.76 173 173 175
35.1379 348.086 1225.7 252 232 222
-28.7551 92.8536 1143.38 196 112 101
-83.6311 102.505 1109.39 154 130 126
353.542 418.783 2136.79 156 179 174
98.6232 -44.7982 1353.24 253 246 225
-158.16 270.069 1264.33 97 33 17
60.4872 111.952 1242.53 238 212 185
309.285 -34.0457 1663.54 187 146 127
2.52265 408.433 1144.2 39 24 19
-38.1402 35.2501 1069.23 163 128 89
70.1917 166.394 1308.34 171 127 108
-22.7434 64.2487 1008.67 136 127 116
60.5537 121.241 1243.37 125 92 68
-67.8093 294.256 1174.7 167 152 145
336.062 406.123 2112.2 73 98 103
-10.0383 -4.47337 1165.55 246 214 192
258.183 293.79 1956.94 60 85 88
-4.08073 218.749 1108.81 165 137 119
359.006 335.496 2095.34 150 167 164
5.72308 441.716 1254.93 103 101 97
319.583 -38.8354 1693.29 134 94 84
-154.483 556.076 1505.04 195 187 172
4.50151 310.602 1164.92 200 163 161
309.351 19.7929 1704.77 57 31 26
80.3493 199.521 1313.46 178 176 176
241.805 -31.7121 1773.19 45 28 25
13.8315 185.637 1185.04 92 53 38
22.4218 433.496 1177.66 122 112 95
313.207 -169.454 1663 83 71 52
19.0174 -1.5697 1171.37 229 206 189
-30.1713 125.894 1076.35 112 41 22
52.7891 48.8376 1315.75 179 140 126
4.87691 144.07 1180.22 197 159 145
-48.1593 186.779 1122.3 166 135 110
61.8204 -55.1837 1283.64 132 113 96
19.2286 254.558 1139.99 253 229 219
-3.81607 190.937 1181.83 255 248 218
364.592 -23.2954 1792.85 255 244 234
355.983 -14.4585 1794.03 165 142 129
-46.0857 125.516 1073.16 91 50 32
-19.8166 64.397 1050.69 253 246 231
228.196 203.658 1783.9 33 41 35
209.076 -214.084 1743.61 204 177 172
66.9376 139.95 1246.24 190 132 101
54.8204 101.98 1165.1 163 118 98
-18.2441 125.879 1201.63 160 123 128
61.4347 187.166 1194.43 243 230 220
-37.0811 142.39 1121.82 143 131 122
446.486 113.58 1935.58 252 251 232
23.3146 447.148 1231.37 226 220 209
306.537 -1.17326 1790.7 150 124 118
42.8816 311.362 1254.83 181 140 133
411.773 -65.7705 2191.68 230 188 178
13.1856 -1.57563 1170.26 193 172 146
372.653 -248.291 1872.44 179 195 190
-62.4766 106.382 1137 191 146 134
108.012 14.5859 1299.76 14 14 0
-33.3182 -48.3983 1265.42 114 146 142
-75.4857 105.313 1111.35 166 145 144
-32.8398 96.4118 1074.07 243 188 160
262.033 20.9801 1789.35 122 99 82
73.9815 228.924 1314.87 188 168 153
-40.9824 29.2089 1089.43 251 227 210
110.889 107.008 1374 215 181 159
17.8638 313.195 1249.74 148 122 127
48.8604 121.932 1205.78 243 214 190
-11.9188 224.751 1132.07 255 250 231
14.3851 357.809 1197.49 157 145 136
371.884 266.383 1968.37 168 194 201
47.4245 348.795 1228.25 197 196 171
-73.0429 319.823 1199.62 137 113 106
413.521 -70.6269 1877.95 255 252 220
-28.7256 204.379 1127.41 219 184 160
330.27 2.97382 1704.02 161 142 137
116.41 5.30553 1362.76 114 98 83
10.1687 148.815 1206.83 217 173 144
-80.1381 323.008 1228.52 82 63 59
-28.9061 126.016 1034.12 203 172 160
4.51723 -4.59054 1220.96 216 187 162
369.115 -64.164 1968.11 135 105 99
-97.1 85.7406 1105.37 126 104 84
108.922 236.083 1404.68 255 248 232
-38.6212 218.098 1148.17 232 189 163
-0.728981 194.113 1132.45 222 198 166
-12.5858 466.531 1172.45 122 108 98
67.3712 175.69 1177.01 187 179 169
