436.525 69.5407 1136.41 30 37 23
261.645 166.971 1198.21 255 242 239
-257.768 450.03 1182.28 193 195 187
545.244 227.408 1292.36 249 251 240
-315.143 464.148 1166.44 251 253 251
312.204 134.506 1148.79 232 208 202
-472.872 51.0062 998.888 196 193 177
381.379 -81.7592 1042.58 253 254 244
-316.96 110.472 984.041 244 233 208
-408.137 209.174 1004.05 103 69 50
191.214 16.0977 1105.34 255 249 246
-476.668 217.754 1106.63 247 232 211
-507.676 405.936 1051.85 91 92 77
407.971 472.497 1297.95 54 84 103
-481.038 368.449 1056.2 255 244 231
376.144 -100.608 1052.78 198 197 202
-533.065 426.576 1182.05 83 70 58
512.436 181.267 1218.48 224 227 222
-320.945 101.761 1006.29 255 254 236
343.534 -122.882 1090.72 226 238 231
472.939 130.546 1221.56 93 104 97
277.381 163.63 1195.79 255 245 230
-310.269 113.205 986.13 249 237 229
199.458 -121.1 1139.19 251 233 234
541.792 241.113 1280.93 228 232 218
-327.854 104.025 1004.47 248 232 218
-488.098 417.503 1088.84 191 187 176
304.984 -103.352 1088.38 190 170 157
281.118 100.096 1176.74 255 228 198
-450.714 109.722 981.818 132 105 100
-525.653 378.896 1071.34 124 96 103
-436.555 177.029 1035.44 216 200 172
-317.765 150.799 1053.99 229 214 199
-422.272 208.763 1073.41 121 87 59
228.489 -118.816 1142.89 244 217 207
-371.997 222.94 1090.43 122 90 72
-525.715 430.747 1185.38 209 196 180
-438.632 204.964 1067.75 219 197 173
275.221 151.016 1102.59 112 105 94
168.328 71.0513 1063.41 252 242 238
-342.582 276.424 1049.95 83 61 47
301.162 174.673 1180.51 255 244 225
-555.691 335.888 1160.94 240 224 216
-455.342 480.901 1130 252 250 243
-523.622 440.293 1187.39 199 188 170
324.576 37.9913 1147.52 224 209 201
524.876 169.034 1250.11 239 250 238
-511.704 55.0634 1060.09 192 189 186
357.134 443.952 1288.98 91 115 125
280.84 88.5875 1122.88 255 250 223
205.096 175.99 1167.47 229 217 223
-482.798 155.358 1063.04 127 122 119
452.54 -20.373 1127.61 244 255 244
-424.012 211.881 1042.88 246 226 205
435.409 328.092 1284.9 238 242 230
-632.084 131.631 1046.97 197 201 200
279.117 26.3028 1073.45 253 253 236
-451.158 380.157 1063.09 228 226 209
-351.012 141.436 1043.69 179 126 93
-465.879 187.268 1057.15 226 207 190
-308.95 161.527 1030.97 249 237 223
-295.465 243.713 1249.47 199 169 154
-293.229 241.885 1224.83 191 161 144
-280.983 344.451 1148.25 239 220 204
-416.412 72.4622 1019.03 147 64 35
-542.816 520.043 1252.35 50 44 34
359.032 -134.57 1107.68 174 189 184
-493.284 396.039 1148.19 236 255 231
-283.034 388.511 1205.45 232 210 193
190.337 135.173 1114.79 210 195 195
-322.027 120.359 1027.72 253 250 243
313.717 -11.0375 1073.57 220 214 207
436.436 -47.7662 1089.82 246 251 241
-286.081 332.278 1145.68 242 228 214
335.347 148.084 1226.72 226 199 200
460.88 -26.0523 1127.5 242 248 234
319 114.084 1129.5 252 241 241
-302.885 231.237 1082.9 255 249 235
386.32 533.696 1496.95 101 130 137
-480.323 384.81 1016.34 249 249 228
-312.093 195.337 1077.14 255 246 233
197.728 47.257 1065.57 254 251 249
-504.657 57.5294 988.17 234 232 228
-324.98 150.445 1051.89 255 231 203
225.227 135.365 1167.11 195 193 202
201.742 152.618 1165.13 236 226 220
338.899 395.418 1275.55 74 103 115
-566.531 352.213 1103.73 144 135 137
-307.633 220.008 1080.55 255 255 231
-258.721 309.725 1039.93 120 88 73
306.607 -14.2359 1116.03 232 220 196
-327.748 96.5661 1004.08 247 232 198
-348.521 133.724 1043.94 244 194 164
-317.086 117.812 984.5 242 233 219
-321.357 171.249 1077.09 255 254 245
-481.2 433.847 1065.75 139 138 136
-454.664 271.669 1085.22 109 106 95
502.396 159.297 1199.33 240 250 235
-413.115 253.29 1149.31 149 121 100
314.585 170.204 1233.72 113 75 73
-590.805 117.526 970.912 181 191 181
-298.214 155.132 973.223 253 245 229
439.346 -37.6496 1106.52 233 254 252
342.621 -48.474 1072.52 182 167 163
-533.382 488.236 1189.83 254 253 244
-451.195 238.839 1083.14 121 110 91
233.29 19.2775 1238.91 212 200 202
-406.941 112.074 1048.86 219 171 164
480.854 93.2582 1190.51 232 245 238
407.127 477.561 1392.32 109 140 151
-386.698 428.372 1090.32 220 233 194
-522.694 547.299 1276.09 29 29 26
444.433 -43.5466 1080.51 226 233 221
306.436 -19.7991 1115.45 243 231 208
-299.749 258.56 1114.36 254 239 214
235.868 234.55 1150.66 89 91 73
332.311 387.231 1280.09 206 238 244
454.346 15.9816 1131.92 251 253 247
216.869 221.681 1080.15 199 204 188
412.587 502.398 1491.83 97 129 140
299.666 150.61 1130.34 107 77 68
366.831 430.222 1452.67 206 245 250
326.835 176.426 1202.92 160 132 123
228.211 32.6319 1111.58 190 184 179
-501.285 363.325 1130.04 125 106 106
-346.124 338.365 1127.88 204 194 192
405.349 7.42337 1083.28 200 190 172
220.791 88.1445 1115.32 212 172 153
254.293 18.434 1070.01 219 174 156
-506.079 391.814 1112.2 129 108 97
-292.932 363.821 1203.33 255 248 235
461.168 -20.4776 1128.18 231 244 226
219.484 146.881 1167.27 216 204 209
238.445 116.082 1119.93 248 244 239
179.607 119.811 1087.64 252 240 241
-347.21 428.704 1223.95 124 90 69
-334.138 127.313 1262.6 151 144 132
189.509 82.2779 1110.62 140 108 116
-293.1 231.757 1054.25 247 235 228
-416.04 175.872 998.804 144 114 85
190.526 72.901 1094.89 168 146 136
-430.483 211.158 1007.21 224 196 181
-403.558 105.878 1025.26 197 150 142
-318.566 385.619 1107.55 221 210 197
-377.59 238.912 987.546 121 119 110
-535.148 596.888 1334.18 185 185 178
-315.483 132.963 1026.89 208 183 164
254.592 112.415 1169.1 237 221 205
190.109 -78.3338 1054.13 165 155 136
436.418 496.492 1397.58 88 132 156
461.591 88.4395 1110.31 215 227 210
371.628 271.146 1249.81 229 229 211
-548.671 333.864 1066.82 164 164 164
391.704 558.474 1427.46 98 134 138
216.882 -118.588 1141.55 245 189 159
188.804 85.6985 1157.66 153 130 137
-316.078 164.012 968.621 169 115 82
480.994 -26.0915 1128.73 248 252 227
-329.467 115.483 954.137 255 246 223
-340.625 44.308 997.523 246 233 185
-579.759 425.534 1163.76 254 251 252
339.778 -21.8621 1215.87 138 124 100
238.141 27.3364 1185.93 255 254 248
-420.675 62.133 1017.04 104 54 33
-291.787 119.391 937.142 123 101 83
441.416 -48.7798 1079.72 238 244 228
243.213 235.704 1122.33 198 192 176
331.729 -31.1232 1116.78 99 104 94
351.414 -42.8729 1097.98 98 95 85
200.224 133.488 1187.09 186 182 181
476.631 19.6244 1184.2 232 241 237
475.925 162.05 1165.65 226 240 224
-583.593 414.694 1203.39 245 229 221
252.226 97.2347 1142.12 233 168 142
481.52 206.394 1171.94 219 231 213
-610.641 159.795 1011.91 231 238 230
385.042 -31.5501 1089.61 175 159 154
-571.973 190.791 1035.68 160 150 141
-369.518 127.744 1037.23 236 209 198
-573.996 511.255 1239.06 196 196 187
382.773 35.676 1043.27 255 255 228
-283.892 290.277 1093.38 189 154 139
208.152 23.4956 1064.99 241 233 232
315.614 32.2809 1146.07 150 124 115
-356.313 174.898 1091.74 254 243 221
246.83 -144.124 1191.29 221 199 194
-313.75 166.505 1029.92 245 244 233
-530.024 365.516 1119.51 255 248 251
265.42 26.3956 1071.94 247 240 219
-458.615 170.601 1027.07 253 216 198
205.961 56.9148 1157.54 236 216 222
464.477 18.8721 1132.9 245 254 244
272.923 101.653 1195.85 243 183 155
-576.486 262.588 1044.35 245 241 223
261.27 -8.53611 1111.7 172 161 143
388.672 -102.495 1113.59 62 58 62
450.913 4.70195 1130.41 215 221 205
-516.472 326.728 1120.06 173 116 105
420.667 38.4322 1131.87 241 239 225
-338.89 255.53 1029.23 120 110 102
-593.034 210.168 1025.43 255 252 254
311.072 381.145 1307.91 91 138 138
-601.372 255.727 1076.9 240 241 222
-592.571 120.292 1015.17 124 132 129
503.189 230.723 1225.07 222 234 222
204.897 37.4619 1131.91 255 253 255
540.818 44.8001 1240.56 237 236 226
346.818 178.42 1186.29 154 114 111
-346.817 197.336 1096.23 189 165 151
296.88 99.4578 1224.46 251 230 212
-332.943 292.941 1048.07 210 200 193
-417.587 156.951 980.92 248 235 214
205.857 51.0628 1157.01 254 244 239
-569.037 377.022 1168.12 242 235 238
-375.514 289.208 1165.92 182 147 129
-496.628 433.878 1053.45 105 104 96
259.004 76.8932 1092.71 241 232 203
-610.015 143.566 1058.55 148 149 148
465.907 15.9635 1132.7 232 243 220
-393.757 473.207 1178.95 179 170 166
218.014 139.946 1029.28 180 142 129
-456.951 337.624 1091.35 179 178 175
-373.784 106.932 1034.59 255 245 236
218.509 119.186 1136.3 204 184 165
-351.837 354.725 1158.65 136 123 117
-489.884 310.842 1029.44 171 163 157
-426.23 519.511 1294.79 76 70 64
-373.924 114.648 1035.04 220 202 209
-524.97 306.673 1072.32 117 95 78
-564.691 184.087 1034.02 134 120 117
475.023 3.35301 1160.16 192 208 181
-440.273 385.922 1154.3 234 239 223
-402.25 -66.8098 1219.56 69 65 53
336.45 -100.233 988.233 148 181 182
143.618 -104.522 1161.93 57 55 47
186.772 87.7912 1110.67 210 193 183
-546.987 109.75 976.355 138 144 134
-485.694 343.013 1045.98 178 161 165
444.562 384.176 1292.62 121 136 136
-572.212 252.009 1038.76 207 194 168
346.561 169.516 1185.47 243 228 215
-448.405 509.858 1237.51 90 93 80
304.717 -83.4291 1025.53 184 178 173
503.874 350.171 1393.04 218 232 230
-503.15 329.472 1074.07 254 253 250
-523.268 320.256 1116.66 252 198 193
337.061 241.458 1263.73 161 159 161
295.999 213.103 1182.99 246 238 209
-324.862 135.076 1024.29 219 196 175
321.632 404.761 1311.09 164 201 205
190.457 34.5737 1129.64 255 252 246
408.457 -103.423 1055.25 106 120 106
264.248 106.899 1017.47 219 193 181
337.108 44.1681 1124.88 224 205 185
-330.107 184.541 1038.1 244 235 228
422.871 404.539 1420.08 149 174 177
-343.523 182.832 1066.44 235 228 207
-560.457 317.699 1051 232 236 235
-298.882 106.813 1082.56 106 87 76
308.038 372.768 1290.07 105 146 140
-328.867 157.284 995.457 242 223 194
357.678 -49.9651 1144.5 184 175 161
-530.175 572.524 1342.71 117 114 118
229.634 332.746 1207.57 95 86 74
-409.597 354.842 1060.43 196 202 184
-582.829 173.866 984.52 245 234 226
-489.116 144.277 970.997 240 226 224
253.312 119.594 1140.58 254 248 253
145.151 -54.4068 1050.47 159 161 151
146.627 -141.892 1211.99 164 153 133
-492.277 344.558 1079.62 184 184 179
284.241 230.672 1182.8 116 97 92
461.171 359.738 1389.23 217 224 211
424.402 54.7329 1181.64 253 253 232
-606.526 180.733 1145.22 204 151 134
-660.846 213.643 1126.51 164 168 169
253.18 -131.729 1175.09 171 170 176
159.294 -56.8065 1094.61 142 145 143
128.519 -130.908 1096.66 124 103 82
475.677 -70.3923 1123.02 157 161 143
-505.864 340.115 1074.26 155 146 151
242.368 178.206 1224.66 79 75 79
186.437 -182.296 1447.9 136 116 106
-608.218 224.654 1069.92 129 106 92
-370.149 197.225 1059.27 153 104 95
-515.889 113.557 926.021 229 219 213
362.139 413.197 1344.29 77 106 124
-528.19 369.454 1082.31 241 212 198
-570.827 303.826 1095.72 133 100 79
185.603 147.425 1064.05 185 178 176
1433.49 -144.427 2164.25 157 144 137
262.867 355.353 1267.29 74 63 53
416.514 -69.1792 1008.19 221 236 204
368.743 66.5884 1085.99 233 233 213
-602.247 191.168 1019.3 232 234 237
426.515 380.722 1347.81 162 180 192
2209.7 1076.19 -3318.13 152 151 148
350.753 58.5344 1058.28 226 225 200
-339.877 236.878 1072.19 248 239 219
-494.796 292.131 1073.02 235 222 220
-394.152 212.72 979.615 250 236 219
225.813 -122.063 1014.63 145 104 92
154.139 -53.2079 1104.99 43 38 35
277.071 254.546 1206.28 215 215 184
-312.363 574.65 1179.14 26 50 38
304.017 227.723 1206.57 168 173 157
-525.269 123.331 998.029 254 231 220
337.498 93.1837 1203.8 160 132 119
516.56 196.763 1220.99 155 154 152
-534.738 155.437 997.368 245 217 196
450.195 -0.967773 1099.6 216 228 196
442.496 -68.2828 1049.05 241 242 228
239.013 186.654 1251.38 57 46 47
-561.771 264.072 1050.94 232 207 183
-509.764 100.63 891.22 243 231 220
297.094 82.5312 1080.23 252 252 223
144.553 -153.421 1187.08 70 67 53
-548.737 109.617 1032.48 188 125 112
277.375 -107.559 948.991 90 128 121
-551.079 121.133 950.709 218 220 211
-412.898 226.049 1030.39 154 118 101
-406.675 368.889 1063.61 237 240 221
-315.547 358.862 1139.11 238 214 186
-540.841 672.517 1419.05 62 65 53
-345.328 351.064 865.515 173 188 155
346.268 178.392 1157.44 204 160 157
253.839 -135.188 1109.07 157 130 110
196.357 157.478 1117.3 219 214 214
230.832 -172.254 1279.17 181 162 146
-466.525 339.85 1040.39 161 142 134
358.856 -130.261 1182.7 154 176 174
308.98 197.965 1235.57 214 192 160
-483.112 335.252 1045.96 248 254 250
-267.032 350.238 1103 249 221 206
276.492 25.0375 1020.2 149 131 97
318.085 442.447 1257.26 89 121 135
161.59 64.3447 1020.02 164 140 131
521.538 309.591 1381.25 145 149 134
334.283 119.43 1063.85 171 154 141
288.847 372.748 1329.81 156 161 150
-507.063 130.31 931.116 244 232 218
343.875 74.9331 1128.55 252 221 205
310.754 201.737 1111.74 255 254 241
-420.792 96.6296 1079.85 165 105 80
536.148 161.112 1311.82 206 219 207
361.571 -169.645 1199.3 41 85 78
172.123 87.2011 1083.88 195 174 160
-350.466 162.547 1029.39 239 209 194
-518.046 165.538 991.031 228 197 177
325.08 -126.827 1238.05 138 172 155
320.714 54.5326 981.58 229 222 195
280.779 215.409 1132.91 158 155 140
-625.724 129.751 1075.25 132 132 131
-376.142 179.482 1112.29 250 219 213
-534.237 395.993 1132.12 212 155 133
199.899 29.8383 1107.68 191 193 197
-369.056 101.99 1035.72 192 157 126
1132.24 -122.491 1590.26 101 100 89
215.022 237.867 1173.49 150 142 123
-487.835 330.324 1131.07 190 186 186
330.58 471.31 1409.35 104 138 138
-519.698 118.258 918.281 196 190 183
-372.243 270.411 1113.16 234 238 233
406.459 -45.9136 1247.59 195 191 175
-540.75 344.037 1112.79 229 213 205
-353.064 76.5056 883.115 166 94 59
-366.215 203.173 1043.14 195 166 143
379.688 -43.7648 1035.36 148 154 159
