379.064 89.3726 1063.77 34 36 16
-286.242 432.554 1120.68 223 223 215
239.127 140.997 1017.51 255 252 242
375.452 139.063 1050.87 37 44 44
-540.278 440.165 1122.64 70 72 69
277.294 -26.5578 991.051 244 237 230
-531.8 447.45 1141.13 215 212 208
-448.567 207.496 1033.07 45 21 13
238.539 49.0901 1070.67 254 246 238
-440.757 211.457 992.581 106 82 56
-499.547 638.759 1297.34 33 40 35
-506.674 59.4919 987.333 234 223 210
-532.412 533.082 1255.34 247 247 244
325.178 447.072 1341.08 58 85 95
-540.721 431.548 1132.84 224 225 223
282.725 -27.2315 1029 245 244 229
-564.279 414.025 1166.01 64 54 45
245.582 191.639 1125.83 255 247 227
228.706 105.154 1073.6 251 243 229
-493.598 211.9 1048.5 254 247 224
216.231 161.04 1016.48 54 32 31
-469.591 239.672 1028.57 252 241 226
191.441 171.693 1072.96 242 227 224
-524.216 392.435 1133.48 240 248 232
-371.53 275.549 1019.92 255 252 240
-388.123 212.635 1009.94 102 71 60
-516.993 59.1628 983.592 223 207 197
-294.846 405.05 1323.04 20 25 14
-571.088 120.834 903.674 86 102 93
394.349 -6.73989 1040.29 249 255 242
-293.155 347.466 1064.53 243 237 222
329.363 -60.4958 992.72 223 222 205
205.097 169.339 1074.71 240 201 185
-365.824 122.58 1010.4 253 243 217
-493.705 386.508 1081.83 241 234 218
-577.696 111.353 899.909 224 218 205
-461.776 203.902 1028.11 238 223 198
321.25 -118.012 1089.46 159 180 176
-355.656 192.546 1062.7 252 246 224
245.376 180.332 1125.04 93 37 29
231.06 -127.184 1142.81 113 87 77
308.765 -103.415 1046.79 79 92 92
94.0996 -28.9834 1006.3 50 39 36
318.855 -72.6975 990.84 36 26 23
-485.123 184.046 1017.94 203 181 169
394.871 6.12126 1041.52 235 255 237
-469.326 231.862 1027.95 126 120 100
158.475 -103.216 1090.86 219 203 199
120.766 25.8147 879.03 178 174 167
-402.814 320.843 1138.73 64 45 37
-365.09 390.639 1125.3 88 50 28
228.539 54.6503 991.813 238 241 229
306.537 -105.121 1024.27 200 221 218
-500.692 63.48 960.19 107 91 81
-463.328 250.757 1031.77 230 221 210
381.575 6.12561 1040.51 232 246 234
-537.37 456.012 1137.85 130 132 127
-509.655 680.234 1367.27 35 45 40
313.813 356.5 1143.6 58 81 96
253.958 6.56887 1069.04 247 247 242
152.104 69.6177 1060.87 254 249 251
-521.462 294.492 1015.11 254 252 243
-555.171 427.511 1171.36 225 214 201
-367.48 384.576 1124.01 208 197 183
-372.469 136.751 979.419 255 244 228
335.902 370.456 1197.26 60 82 102
140.5 32.1415 979.597 208 195 195
-469.779 179.922 1023.15 230 202 180
279.404 390.36 1208.08 191 229 245
417.907 197.953 1058.74 232 234 233
203.691 -53.9475 914.539 173 166 152
206.67 93.6607 987.4 112 90 76
-553.634 361.907 1057.33 144 129 117
138.23 32.7321 1056.35 246 243 237
134.605 -47.5834 973.837 178 186 154
-357.14 140.692 1014.39 230 226 204
97.9613 -35.353 969.798 154 157 155
-497.774 119.122 994.204 70 42 32
-350.002 241.248 1097.34 234 220 192
269.184 62.5697 1034.64 248 243 217
125.509 90.4036 1058.36 252 250 242
-312.079 326.351 1086.88 140 102 71
97.4298 -121.894 1174.15 228 221 201
134.459 -59.6106 973.034 175 169 147
-393.2 347.656 1143.88 94 74 64
-398.149 151.487 1053.01 194 142 115
-372.294 283.131 1033.63 91 82 76
167.55 51.3285 1038.77 236 235 229
-546.506 324.057 1106.39 136 116 106
160.947 159.452 1088.32 217 206 211
-423.048 112.046 976.061 229 195 181
-515.326 675.333 1364.24 118 129 128
288.465 -99.8984 1023.19 225 233 232
-518.353 372.12 1071.49 206 191 172
-357.968 127.281 1294.86 217 205 192
438.473 217.641 1104.02 201 198 187
-314.407 317.809 1085.52 252 230 204
-458.805 260.363 1081.41 253 253 254
-551.584 318.687 1053.22 116 118 122
-302.711 294.742 1167.58 163 155 147
-339.773 122.903 1119.18 170 170 159
-370.154 288.56 1034.88 189 180 177
-630.657 125.669 989.041 79 76 75
429.43 230.756 1082.67 233 240 228
-387.312 134.94 1075.18 255 246 249
281.065 394.609 1244.6 201 233 242
-415.412 384.307 1228.29 61 51 38
241.398 -63.9749 1061.61 229 222 216
248.633 -64.9922 985.275 203 197 185
176.915 -63.6896 1054.2 155 152 144
-350.724 161.454 1017.85 138 115 86
237.103 -0.563593 1005.81 224 207 195
414.762 111.23 1070.38 240 244 236
120.954 -133.77 1176.56 95 90 86
-447.574 78.0367 988.602 124 46 25
325.575 520.379 1381.01 87 118 134
-432.376 246.036 1089.35 122 120 94
397.201 103.976 1028.16 245 253 235
-331.366 314.996 979.284 169 168 157
381.277 -1.58747 1039.78 223 230 221
147.526 183.799 1088.46 213 210 208
183.514 121.846 1047.36 255 241 220
142.116 135.758 1063.68 142 117 113
314.894 -65.6313 956.14 229 227 214
-380.825 52.1691 986.061 215 203 167
-309.692 332.111 1088.04 243 224 200
-392.511 276.499 1086.71 144 104 96
301.207 138.592 1084.63 255 243 225
172.825 247.472 1101.21 211 214 205
249.338 0.883812 1027.84 113 104 89
167.894 43.398 1061.23 242 223 220
-555.024 375.987 1164.66 117 101 100
-425.084 107.136 975.151 150 116 99
363.639 476.379 1257.03 110 135 156
-290.346 286.574 988.792 134 105 88
204.148 10.1129 1041.71 156 151 148
142.373 159.868 1065.14 248 238 228
141.637 93.2425 1060.94 237 206 210
258.133 -10.6488 1005.35 99 100 87
-548.24 340.891 1056.97 255 252 242
166.592 -54.8477 977.235 163 163 148
141.173 71.5875 1019.34 106 72 71
-325.29 307.96 1219.22 151 131 125
-379.087 42.2752 961.162 249 234 204
-542.462 307.549 1063.94 117 94 82
400.978 111.093 1069.08 206 217 212
121.238 93.6512 1012.33 137 113 108
-381.598 345.906 1115.96 182 176 162
-434.297 255.904 1042.26 156 152 149
265.739 189.255 1128.32 163 142 124
-446.163 273.321 1039.76 134 131 130
136.449 111.11 1104.65 243 236 221
136.323 98.4819 1060.49 163 115 110
323.739 -77.6269 990.801 207 211 203
451.82 157.928 1145.65 239 255 227
319.212 -113.669 1047.08 81 101 91
228.519 -57.1075 1001.74 159 162 153
211.349 -125.876 1170.55 234 211 191
-427.117 102.161 974.242 243 215 210
281.223 403.721 1303.24 60 99 106
-347.444 80.0408 1102.64 186 162 143
-390.944 179.824 977.053 183 156 125
412.945 -6.77968 1041.61 252 253 234
-473.353 221.154 1025.54 143 106 94
-508.274 116.605 1003.38 106 75 62
381.967 -94.7278 1004.19 218 227 211
231.531 280.94 1201.61 245 242 221
133.401 -112.296 1131.9 210 211 214
-448.631 378.175 1096.67 254 254 238
-436.93 164.973 974.652 112 68 42
385.622 385.991 1199.47 95 111 111
387.023 -28.2053 1019.38 243 250 234
126.955 -46.4292 1009.65 169 147 126
130.428 51.0662 1056.49 246 239 232
356.612 314.203 1307.5 253 255 244
-340.442 156.705 1262.53 143 137 132
-385.831 431.313 1210.1 147 80 67
242.338 256.283 1177.74 93 82 74
-607.989 358.998 1125.14 148 148 135
-403.568 118.404 998.005 255 244 229
227.451 -74.3376 947.846 128 134 123
182.628 -122.287 1239 58 11 12
-324.059 246.009 1232.98 168 141 127
267.738 129.94 1080.14 231 205 204
303.277 -87.195 988.338 180 193 189
-362.775 123.954 1191.75 80 64 56
-319.04 300.919 1082.79 228 204 189
288.767 136.868 1145.98 116 88 86
397.947 16.4584 1042.69 208 237 211
177.143 -101.565 1118.79 238 181 157
-509.344 213.139 1093.31 118 77 61
256.404 155.203 1124.7 254 240 229
-489.436 222.829 1050.8 227 197 187
-332.076 317.563 1131.77 253 239 232
345.62 558.938 1354.51 116 143 143
438.291 212.081 1103.61 108 106 102
202.982 36.4618 1025.14 215 177 155
-564.458 666.006 1404.9 87 90 82
147.11 37.4078 962.842 227 212 213
183.463 -98.1439 1094.46 190 176 162
-420.845 116.508 1044.25 255 253 232
-380.821 116.485 1032.58 230 228 195
-322.716 229.601 1012.2 254 239 210
98.4435 -86.9168 1108.02 61 57 46
-625.721 139.45 974.958 253 241 241
330.318 374.166 1223.57 149 175 188
254.521 -1.77989 1028.2 226 210 184
330.581 -11.7409 1034.71 153 146 137
302.27 272.829 1138.33 230 230 215
-498.997 152.463 1010 167 158 162
203.691 80.754 1068.67 227 214 188
-443.334 67.749 967.25 119 58 38
362.364 35.7074 982.681 226 239 214
-513.799 120.037 946.374 255 242 219
261.689 145.367 1145.48 184 164 150
-581.636 482.582 1178.44 226 224 218
283.574 -103.42 1062.26 79 98 102
-513.294 340.501 995.612 255 242 224
-571.915 328.402 1054.84 158 156 161
293.915 62.5305 1015.82 240 231 202
184.187 104.491 1008.01 241 219 189
161.106 141.503 1066.82 220 216 221
-537.496 347.668 1061.77 254 234 232
-523.921 292.159 1060.78 244 237 227
201.686 257.296 1102.34 214 214 185
-423.069 147.085 1067.78 249 237 223
243.518 239.736 1128.62 151 148 137
297.862 200.643 1152.81 147 118 103
246.865 -61.3839 1062.42 101 103 96
460.466 86.4999 1139.59 245 255 234
384.102 103.889 1027.25 196 203 199
-519.326 341.773 1067.86 166 162 158
145.342 152.915 1108.82 209 206 203
-316.43 349.891 1114.33 249 232 216
-312.313 236.31 993.121 242 221 189
-547.503 564.694 1321.61 54 55 56
84.2162 -73.2144 1041 99 95 82
-550.68 345.975 1056.63 182 159 167
-529.39 350.807 1075.33 119 107 98
103.955 -34.4559 936.436 162 150 151
423.044 42.3968 1046.88 252 253 234
157.308 142.19 1052.93 176 171 183
320.256 86.2658 1041.7 251 243 216
424.643 186.901 1077.82 204 218 209
-531.143 304.925 1059.44 234 206 192
-349.09 329.892 1103.57 181 142 120
131.417 -127.125 1211.31 153 151 148
-437.393 184.276 961.486 244 219 192
351.351 55.2424 1042.21 217 212 191
-313.713 276.819 1183.4 210 180 165
-527.312 318.861 1062.42 130 125 120
125.286 69.4008 1056.96 255 248 248
214.83 94.2172 1071.07 208 192 159
383.399 354.582 1255.98 242 247 237
387.433 -65.8706 996.422 223 230 206
-390.171 204.839 1008.7 99 64 51
-492.427 176.283 1060.67 254 243 217
-564.446 170.934 1068.72 177 154 147
295.765 178.638 1107.01 225 204 195
-384.149 170.573 1034.82 255 242 214
-370.596 486.083 1209 116 127 128
338.493 70.7607 1042.28 240 239 203
-603.142 212.472 1020.24 151 122 109
314.076 47.4664 1016.01 208 189 161
216.675 -123.66 1122.49 144 116 95
-615.509 208.437 1063.3 95 74 39
305.661 391.881 1221.99 140 170 170
439.802 355.335 1286.89 212 230 219
80.7344 -35.0529 916.761 103 91 68
-538.88 321.73 1067.43 132 125 124
-400.278 144.694 960.635 206 155 134
451.535 238.762 1172.33 209 225 214
228.332 213.153 1060.74 249 246 199
238.64 -119.856 1098.78 222 192 180
211.865 80.79 1069.73 185 159 134
227.396 42.9936 955.804 86 61 45
117.141 56.1874 1054.87 209 183 176
176.169 -126.696 1136.27 202 135 131
-394.819 103.26 984.372 187 123 100
362.767 382.189 1244.72 151 177 186
302.982 445.88 1372.76 95 123 127
-641.04 216.986 1053.07 233 237 240
260.69 57.134 1094.15 197 198 198
196.867 346.775 1153.69 71 64 52
-389.538 130.976 973.288 233 209 185
-451.709 183.214 956.294 169 143 125
144.367 -104.557 1046.85 254 246 235
136.095 79.1705 1019.09 225 189 188
-363.381 40.5268 1243.49 78 80 72
-417.787 86.5597 951.332 159 78 50
-558.292 114.77 908.494 165 166 165
233.327 -152.12 1140.49 87 95 89
417.709 156.914 1074.09 244 253 249
307.778 -147.891 1102.7 18 71 69
431.679 457.202 1327.34 217 239 238
264.919 64.9839 1051.31 229 221 195
306.839 141.395 1085.46 186 172 162
377.774 409.146 1156.13 111 130 129
253.4 231.933 1151.74 255 254 206
-613.4 154.661 964.459 216 213 209
-369.753 71.2351 1244.33 141 124 110
-590.896 341.413 1164.63 218 213 200
-587.656 177.987 940.993 219 222 224
140.877 46.3626 1017.72 165 157 155
192.493 -160.669 1217.85 113 93 85
-358.715 103.071 970.951 240 208 187
-354.269 130.368 1209.41 128 115 102
-623.658 134.151 1023.22 225 221 218
-467.624 248.2 1086.8 176 148 131
-644.423 199.784 1039.06 145 148 146
175.112 107.801 1099.55 173 119 102
-666.982 214.108 1084.01 241 243 242
297.443 181.401 1131.72 230 201 191
-523.689 286.773 1060.29 180 178 174
185.721 195.135 1187.27 114 108 114
-563.02 424.998 1112.31 171 156 132
251.513 -77.0127 949.917 70 59 56
-389.799 28.4654 1070.81 135 120 106
-343.142 270.922 1355.28 56 22 7
227.586 149.012 1120.46 206 187 190
-377.178 94.0085 1106.35 140 137 122
-573.991 130.964 941.496 154 161 152
210.032 262.653 1148.71 187 175 150
215.931 138.756 1184.4 236 194 181
186.306 -149.2 1183.98 193 176 164
-383.252 136.207 975.822 178 164 149
364.689 493.986 1351.1 122 154 164
314.035 449.744 1252.23 131 165 184
-635.799 182.478 1022.37 242 237 234
-391.446 32.4776 981.902 211 189 161
381.594 -21.671 1000.05 195 204 189
-507.092 263.715 906.756 143 144 128
218.53 248.372 1148.63 192 195 164
-446.577 228.521 1018.84 149 129 109
341.334 88.5784 1129.18 129 119 94
323.271 -129.772 1063.16 153 150 158
-572.993 165.008 1064.82 239 234 224
-571.607 286.845 1041.78 170 148 122
-457.041 481.339 1171.75 108 114 102
324.992 -137.406 1105.28 65 89 102
426.46 281.929 1152.89 74 85 61
-312.6 121.875 1172.73 75 72 65
-324.868 265.994 1187.19 125 107 93
406.252 39.1471 1059.59 220 242 213
-422.486 -57.1577 1194.59 84 74 58
314.977 -4.3935 1033.97 155 157 139
277.953 -9.43581 1030 126 115 109
279.08 4.21804 1008.68 160 146 143
-239.416 428.854 1236.81 32 28 19
355.732 26.7281 1040.21 146 142 136
305.54 -139.132 1131.89 162 177 173
408.608 -45.2704 1037.6 149 157 141
-587.557 146.258 1019.42 245 222 207
326.382 -134.091 1088.72 76 70 86
366.559 490.517 1261.32 230 253 253
238.17 -83.9833 982.752 105 114 112
-605.005 413.767 1149.66 251 253 248
-575.372 387.938 1174.49 218 182 177
-632.476 259.052 1104 224 203 171
-494.319 437.324 1052.87 80 85 69
-468.101 260.848 1031.01 146 140 136
184.492 243.839 1091.28 88 82 77
-567.977 341.234 1100.05 210 200 191
-548.856 348.025 1091.22 169 149 141
132.209 -34.1447 1011.2 120 116 114
144.711 164.957 1039.88 239 240 240
98.1426 -37.5033 962.082 54 50 43
-675.301 99.1964 1015.25 229 228 202
213.791 -76.6389 1017.83 132 130 119
161.424 168.318 1068.46 254 253 254
-595.831 228.718 1025.21 240 215 186
312.459 94.0351 1041.49 180 180 154
364.779 -49.0431 947.94 235 246 216
284.479 83.6571 960.133 230 228 213
261.695 238.544 1008.11 160 156 123
-358.492 328.241 1384.79 130 98 86
-616.157 125.293 1043.56 187 183 188
369.28 -47.1885 961.635 182 194 163
-556.003 418.638 1151.05 251 250 246
357.481 508.207 1385.07 118 152 158
-393.998 36.7012 1048.64 133 117 92
229.463 -81.6094 1071.97 48 60 50
-388.661 141.657 1004.51 232 210 188
-589.013 206.296 979.996 151 134 124
-515.197 157.004 922.319 242 200 187
