-9.12163 15.5507 1219.25 255 241 235
239.595 235.749 1945.79 251 253 236
-42.6617 383.126 1128.73 240 240 240
-8.53122 393.996 1154.58 216 207 200
357.239 294.595 1768.39 51 74 83
32.3159 25.7804 1204.65 156 47 0
-1.2223 430.1 1222.04 227 222 215
-37.0526 402.159 1129.24 254 242 223
133.901 181.14 1616.77 46 43 32
-25.7836 429.475 1078.69 246 240 231
-15.6285 14.7419 1076.68 104 72 64
44.1174 225.262 1277.06 83 76 64
-25.7365 398.087 1150.77 255 239 227
396.261 230.706 1813.64 42 43 30
-4.91909 13.2788 1277.89 116 101 87
-15.0088 275.917 1109.54 254 235 227
-10.0692 311.835 1243.01 101 80 70
375.132 302.613 1829.22 108 137 146
383.765 67.9092 1828.36 120 118 118
-89.0693 94.5147 1082.59 241 190 161
11.3145 348.519 1193.18 251 252 231
26.6113 217.102 1176.44 128 119 107
-0.589567 411.412 1250.05 207 198 191
31.0252 162.248 1206.84 131 88 76
387.65 64.4631 1796.54 239 234 237
-28.8204 26.9861 1139.99 255 244 224
-6.98483 357.922 1163.86 251 240 226
79.347 457.107 1317.69 85 82 82
-45.4579 377.529 1128.23 228 217 217
-10.0935 5.23033 1251.87 240 205 194
327.498 -53.7921 1606.78 244 224 211
-87.9483 85.378 1038.06 108 49 27
-3.46266 385.501 1191.16 255 247 236
354.538 275.802 1746.35 56 87 98
371.713 44.5665 1718.9 247 234 233
-50.8555 260.874 1199.23 240 220 190
0.0346732 510.628 1343.66 134 119 107
299.98 -140.221 1508.76 184 178 169
-95.2841 75.6558 1097.15 253 204 172
28.182 227.782 1273.86 254 243 232
330.75 19.7412 1612.26 208 205 205
-82.8371 109.834 1064.7 224 178 155
345.907 12.6422 1708.16 235 221 211
-145.327 537.736 1350.73 172 170 166
23.4458 149.923 1238.61 152 108 92
324.235 59.9046 1675.58 214 210 205
-78.4727 97.4098 1084.94 232 225 213
-42.6663 292.905 1127.86 94 72 50
432.025 25.2018 1997.91 214 199 193
313.227 -6.16433 1614.28 239 195 164
29.847 180.952 1212.97 147 99 75
-86.91 76.9548 996.952 229 145 120
403.788 26.4088 1916.9 97 90 89
20.6529 138.823 1209.02 245 199 176
-72.5797 215.193 1071.73 91 64 58
-16.1953 342.3 1243.37 133 132 130
-90.3132 128.437 1158.79 182 106 75
351.61 -67.0826 1696.23 171 152 146
-62.5836 200.386 1140.89 138 102 92
432.726 -1.99413 1918.97 255 251 240
-72.4041 112.712 1067.04 156 143 135
372.406 57.3915 1721.83 243 246 246
-73.2676 198.983 1089.48 143 110 96
419.716 -86.7044 1904.42 255 254 240
-131.126 127.966 1074.73 165 145 133
382.496 46.7208 1719.59 255 251 252
412.753 -2.10338 1713.25 150 139 138
-9.30687 439.957 1190.37 128 118 123
349.51 -8.44728 1705.43 253 223 212
6.65543 478.722 1228.64 35 38 34
-190.125 77.6264 1106.5 168 142 125
39.1931 199.745 1245.77 173 165 145
-46.6254 158.084 1109.2 121 90 89
-15.2167 453.603 1188.78 255 249 241
26.7522 199.301 1243.2 174 152 138
-64.8701 302.515 1123.29 117 106 99
432.186 -4.30122 1823.26 250 243 237
-95.6644 148.803 1038.47 77 29 24
232.814 -147.946 1661.91 66 71 68
-42.6638 369.669 1128.97 141 128 131
-59.8202 111.2 1089.37 152 151 144
195.4 -123.081 1658.69 13 13 0
304.137 -7.82931 1518.79 194 140 121
-197.829 271.899 1222.45 57 11 5
53.7894 511.353 1379.92 184 188 190
361.921 -22.1394 1617.46 250 242 212
66.0559 637.324 1407.05 119 141 127
-204.028 526.718 1407.44 148 130 113
-24.5296 350.664 1112.63 153 106 112
24.7254 188.464 1232.44 192 165 141
-89.9768 124.323 1099.55 188 120 87
-77.6125 104.718 1065.52 100 92 87
413.44 -97.8285 1802.43 233 214 191
-42.6663 326.045 1128.72 184 149 144
-49.3296 164.215 1031.64 181 153 140
-63.388 262.49 991.084 224 219 207
-31.3863 447.085 1121.08 116 96 73
17.7592 183.546 1210.65 255 232 210
-35.8767 451.594 1184.02 110 84 68
322.924 359.113 1876.4 74 100 95
329.663 -32.7609 1774.07 154 126 118
415.939 -81.738 1898.48 162 164 165
-89.2439 195.635 1086 104 79 80
2.22308 278.541 1243.63 187 141 136
451.891 54.872 1919.29 248 229 218
-46.8805 163.519 1127.37 210 181 171
344.081 -18.6536 1671.91 137 98 93
-3.82822 343.132 1246.14 166 133 130
317.532 327.559 1977.91 68 89 90
-72.5631 204.686 1071.34 167 137 120
-156.122 511.415 1305.91 88 89 79
35.6139 179.473 1296.78 249 237 205
395.771 371.196 1890.47 158 176 171
178.226 -197.664 1720.44 213 212 206
-22.0752 310.689 1287.66 143 97 85
72.4222 88.3643 1338.35 255 238 223
-25.7557 444.164 1124.79 88 73 58
-42.6654 273.523 1127.19 184 130 107
328.912 -23.7425 1586.52 252 245 232
453.514 -207.325 1786.08 224 233 214
-31.4946 337.09 1165.29 251 253 246
433.963 -228.496 1778.99 174 196 199
303.721 -144.34 1436.69 87 76 66
236.708 -160.159 1660.62 117 118 116
5.47546 76.029 1202.42 182 140 124
-54.1878 324.102 1145.49 145 127 132
274.745 -182.158 1655.26 118 105 105
-59.268 91.9907 1068.58 178 172 170
34.7635 234.726 1192.29 192 180 174
-62.6185 256.433 1142.55 243 238 221
-25.7176 337.456 1166.46 160 126 124
457.888 132.828 1851.83 251 246 219
-28.7558 142.482 1145.76 254 225 205
-34.0406 457.42 1087.43 174 154 131
72.9896 220.048 1282.66 187 178 171
-35.6342 25.6809 1090.4 200 175 154
342.73 46.507 1712.86 61 34 26
-48.7991 108.631 1158.72 177 159 151
524.158 142.417 1982.09 234 230 208
-19.5509 113.978 1077.73 225 218 208
366.547 -28.4966 1781.98 170 141 137
358.238 445.25 1878.43 134 150 144
26.7617 -24.5846 1280.38 124 99 75
-63.3337 298.317 1118 221 221 213
12.699 375.346 1232.16 200 188 165
-223.514 106.262 1150.83 77 29 20
-50.5366 489.504 1176.35 107 103 94
-21.2169 372.5 1186.96 198 136 119
65.0241 558.125 1503.45 35 35 34
326.345 459.401 1999.29 85 97 90
382.988 263.759 1766.32 159 175 176
22.4801 510.349 1322.09 87 97 108
419.87 -181.748 2021.72 78 62 52
-131.88 442.689 1130.79 33 31 26
503.607 -111.123 2157.65 234 218 192
415.632 44.7311 1724.23 191 170 160
-50.616 28.8534 1271.55 224 198 180
-63.1203 -22.219 1332.3 112 150 154
-83.8766 158.585 1086.06 184 103 76
-56.8392 7.23114 1133.13 154 154 142
469.722 -89.3687 1812.38 176 175 149
-26.6682 531.626 1311.49 231 220 205
-9.95847 88.9313 1257.68 255 251 240
-91.3996 198.51 1053.45 176 145 127
-44.4026 425.19 1156.93 112 96 78
303.452 10.3876 1458.21 136 112 101
-85.7061 175.699 1152.55 219 211 210
-28.7557 32.5793 1185.91 251 223 203
14.0662 -11.9466 1279.18 206 181 168
-35.7305 -13.4671 1106.51 52 70 75
-25.5664 175.979 1230.34 176 135 109
-47.3386 167.533 1067.4 177 146 130
418.537 -48.4187 1703.17 255 255 222
-30.2008 -18.1712 1269.29 133 147 141
-55.8836 467.021 1149.2 71 57 44
5.64348 73.6196 1260 255 242 229
-28.4353 387.926 1267.65 255 226 207
406.848 237.004 1810.79 248 251 238
-50.4812 291.895 1177.42 225 196 167
-47.231 78.1611 1058.88 255 253 247
-2.56919 264.699 1171.2 138 118 111
277.352 58.7942 1702.82 135 111 90
-78.6322 222.734 1088.89 199 145 129
-25.3509 66.3851 1299.16 195 136 115
-38.8464 132.722 1170.4 245 218 197
-20.8213 220.182 1076.2 174 151 137
149.913 6.82052 1234.39 28 24 8
285.29 377.02 1873.44 68 83 81
80.2152 255.334 1351.24 249 236 218
-109.007 184.753 1062.63 91 46 26
-59.6213 207.782 990.65 255 250 223
69.6821 106.713 1302.54 255 242 218
57.3976 71.9698 1161.69 254 228 200
-4.28449 274.656 1159.35 245 211 198
-67.9764 18.3658 1131.41 115 85 70
571.332 330.342 2466.23 173 180 185
-28.7541 59.7914 1176.17 255 225 205
-21.2226 366.681 1186.8 187 145 107
-155.591 89.2325 1115.35 138 113 98
-67.5192 18.3071 1208.01 109 83 69
311.076 101.614 1451.93 117 98 75
56.7977 495.332 1346.56 86 87 88
-43.0359 285.388 1163.07 180 107 72
