527.564 -273.121 1344.99 246 247 239
56.9793 90.0416 1195.21 67 37 21
-119.357 366.453 1270.05 255 249 233
543.941 -44.137 1329.95 254 249 253
-57.4403 357.676 1233.7 242 234 231
-69.1465 312.66 1218.18 85 76 74
-66.1843 343.148 1219.58 231 216 214
-54.8458 -64.795 1116.49 229 216 206
0.259708 108.757 1226.29 127 82 64
-92.0911 -59.7967 1198.04 251 236 230
-126.556 349.393 1282.79 250 252 255
-20.8797 89.8032 1237.71 77 40 15
-8.86954 72.185 1222.82 156 118 86
-55.1021 -66.3097 1186.96 93 62 51
11.782 -57.6702 1165.55 131 45 15
-129.444 13.4493 1088.95 129 89 89
-23.9885 99.2131 1220.76 224 195 175
612.759 229.29 1507.19 200 234 251
-154.932 126.267 1137.36 102 72 69
625.222 -228.744 1508.18 239 232 232
-11.108 62.7451 1181.18 254 203 184
0.632401 102.501 1242.58 252 225 201
-57.1897 325.459 1221.07 210 196 188
-101.838 353.075 1212.03 118 94 78
675.925 -100.758 1448.2 242 222 226
-67.9078 -53.7675 1022.98 105 100 88
-14.1886 129.857 1168.2 247 223 210
738.891 -331.494 1402.67 188 212 195
-171.856 26.2006 1054.17 221 226 217
834.864 265.667 1770.39 109 127 127
15.3716 133.484 1187.77 249 243 233
-66.4469 385.781 1282.61 218 216 213
-8.39727 141.591 1169.78 247 223 218
-117.338 260.199 1219.86 255 250 243
705.676 -125.681 1528.25 235 221 217
67.5744 8.97306 1179.41 230 137 128
-180.989 71.5294 1092.4 255 240 240
795.391 296.597 1885.27 92 121 126
-43.0821 -1.64063 1172.97 140 98 91
-125.16 270.411 1204.46 127 99 90
708.233 -76.778 1533.76 231 208 199
-2.7931 87.453 1224.76 255 246 217
-39.1281 286.957 1223.96 241 253 233
82.9037 154.778 1325.38 135 100 82
560.118 -71.0569 1367.44 241 228 232
-98.7626 271.803 1210.52 253 230 214
-126.214 265.877 1217.96 148 119 116
677.421 -68.616 1451.41 132 117 97
-62.5439 -65.1886 1100.14 187 163 152
-70.4697 351.551 1366.64 233 216 212
551.537 -188.294 1291.81 238 229 232
-28.4433 80.1956 1312.71 93 52 26
-138.402 109.689 1140.49 87 56 40
-154.573 41.742 1133.94 114 102 92
76.4323 -3.35839 1268.38 255 241 226
-31.517 71.1952 1177.15 248 199 176
-51.7324 -4.60046 1171 141 70 67
-72.6463 407.222 1327.48 108 104 108
-137.076 178.369 1156.57 219 188 155
616.897 155.543 1461.87 183 221 232
-92.2491 411.23 1198.37 211 205 192
-73.1542 400.656 1295.13 222 216 214
635.246 -106.479 1523.15 254 251 248
3.63599 -57.0925 1238.76 183 126 102
675.295 124.755 1638.82 67 66 58
605.866 -143.759 1515.81 107 80 66
6.63039 126.761 1289.89 150 135 113
-48.5495 8.41548 1156.33 132 108 87
594.046 17.5442 1450.18 137 131 117
-75.8506 369.316 1280.1 92 86 80
9.37314 -68.7701 1181.85 139 48 21
648.507 162.129 1585.79 47 91 100
-84.1278 310.294 1094.2 192 171 155
-146.814 38.8344 1040.49 118 88 75
-40.023 37.1867 1159.31 121 108 108
-75.8565 375.666 1280.26 81 74 61
-11.1024 121.175 1182.27 152 130 105
700.015 17.8953 1461.14 250 246 217
-66.446 253.468 1179.63 252 243 244
696.598 -61.4969 1453.84 142 131 119
-152.407 182.987 1140.1 253 246 230
9.89439 90.3836 1244.27 142 99 66
-110.587 301.258 1208.67 174 157 144
-80.9449 224.375 1213 186 133 120
-151.191 242.117 1197.48 109 106 95
-46.8244 6.93128 1244.65 255 237 237
619.055 -221.385 1473.56 222 225 226
67.9479 155.318 1185.15 241 226 200
94.3443 -14.3145 1258.66 255 243 227
-104.721 310.598 1210.26 123 90 94
558.031 -146.974 1394.4 181 169 159
-33.1082 218.129 1237.47 136 129 127
629.472 -213.157 1399.28 207 184 164
-168.762 45.3559 1081.21 162 137 133
661.877 -129.125 1523.53 252 228 215
538.864 38.0898 1885.12 66 61 56
-99.9405 300.818 1231.92 244 217 193
560.368 -158.281 1359.76 142 128 128
24.1225 -45.3678 1185.58 144 77 49
546.801 -172.722 1379.05 183 163 157
543.657 -134.855 1360.16 84 62 51
-60.1607 405.351 1284.46 88 69 59
-152.47 255.26 1288.81 149 150 135
-5.56197 -60.3955 1161.98 90 52 48
736.078 184.596 1687.66 99 135 132
-168.124 167.256 1190.57 239 226 207
55.744 3.15326 1176.94 253 247 235
0.225661 54.222 1223.99 148 107 72
86.8356 -34.1213 1198.09 253 239 225
108.467 40.5739 1274.89 196 175 147
728.168 -76.8476 1535.67 243 224 203
672.787 -147.788 1522.6 250 237 216
565.75 -371.79 1537.87 195 159 151
-122.352 321.67 1206.64 212 203 197
-9.21474 81.394 1200.91 220 191 156
77.0171 18.198 1237.66 243 198 174
750.94 -105.172 1381.81 243 255 247
-14.7561 53.1466 1238.16 252 202 172
-158.28 24.0678 1082.88 135 99 111
677.41 -215.084 1481.13 215 212 191
-66.512 302.303 1231.39 200 183 174
722.479 175.974 1685.25 196 236 245
534.186 -338.712 1484.54 186 164 157
3.95103 301.941 1310.75 243 241 218
81.7953 41.7901 1257.75 227 184 169
628.502 -68.3133 1446.71 244 209 212
111.663 349.237 1335 169 162 153
-125.439 331.208 1267.52 193 189 187
61.6107 -8.46015 1177.5 254 241 216
-15.4353 119.4 1315.79 114 73 60
-142.733 226.9 1156.28 249 255 247
49.2268 -16.5274 1148.14 253 221 210
-78.0219 257.759 1214.72 171 156 160
-130.91 240.125 1202.16 202 188 161
-181.966 52.2186 1052.39 251 219 204
-2.44336 126.985 1242.4 148 112 95
48.5808 121.196 1298.62 180 151 125
107.165 29.2588 1262.41 254 252 232
-74.5293 367.762 1161.7 249 238 230
780.237 286.869 1882.57 167 201 219
-60.4887 250.857 1174.01 151 123 125
535.372 -172.386 1260.12 241 246 247
608.57 -182.459 1453.21 228 217 230
-108.481 336.436 1222.83 161 142 144
-137.332 13.4295 1087.19 207 126 134
80.187 33.555 1239.05 254 226 214
-133.142 189.351 1144.69 199 161 132
-89.8152 217.966 1210.8 113 78 62
-52.8781 -3.16451 1026.95 255 237 204
-92.9122 308.321 1212.85 247 205 195
-97.7744 287.111 1192.74 253 208 180
62.759 10.4428 1210.38 207 135 106
579.519 -111.12 1461.63 72 52 43
16.4283 287.892 1298.02 242 228 212
89.1838 112.619 1270.91 250 232 218
121.714 116.734 1228.52 236 217 192
675.397 -153.08 1484.86 255 240 229
-127.769 30.3088 1055.98 191 153 149
-119.361 227.031 1148.98 176 112 93
-71.5598 232.025 1159.49 243 238 235
662.808 -110.398 1525.66 241 234 239
-33.1064 303.985 1238.34 211 205 182
-131.238 12.8731 1001.1 237 253 249
64.7013 38.179 1180.19 254 243 240
3.39562 267.56 1232.29 161 164 143
678.769 -367.444 1393.16 141 179 181
-96.9872 233.765 1154.09 156 149 142
-95.1785 339.823 1353.22 199 143 114
-2.4347 160.758 1243.02 126 110 98
544.838 -93.2237 1324.14 126 108 102
-174.162 93.7068 1081.98 249 232 225
-75.7576 235.793 1121.58 245 242 245
-113.717 35.5688 1014.05 253 235 220
585.959 80.3303 1723.46 121 121 116
653.625 -298.529 1246.56 187 208 192
-66.2365 218.624 1172.47 116 66 51
-81.6251 43.6157 1100.53 239 213 200
655.751 -47.0577 1451.29 231 209 184
-57.7811 192.478 1181.53 202 187 188
441.558 -294.758 1271.13 133 94 87
-131.113 90.0179 1122.45 132 106 101
-108.981 341.771 1231.48 75 56 41
874.682 -347.368 1627.83 179 199 182
683.85 -162.834 1521.92 206 198 173
672.024 129.842 1679.63 186 198 198
-100.876 424.892 1275.88 99 75 58
-118.976 40.5881 1092.33 254 247 236
-20.8087 243.138 1248.29 189 168 169
-96.9696 67.3474 1063.22 245 206 162
118.089 101.606 1249.33 255 236 215
798.842 -122.243 1456.55 213 233 212
444.932 6.47741 1102.78 149 144 121
475.148 -116.748 1215.57 163 122 115
591.375 -356.018 1459.75 190 172 168
-90.9762 314.942 1264.61 243 179 155
49.6158 260.419 1241.48 243 232 221
-63.1638 223.455 1278.33 224 159 144
-87.9133 280.101 1234.47 241 186 180
-2.03809 -50.3736 1137.92 255 245 227
670.694 -122.511 1394.81 181 159 151
-91.3682 239.76 1155.47 217 201 189
586.104 13.3073 1239.83 160 153 120
-143.276 165.009 1031.82 220 201 186
495.215 -327.019 1405.3 85 45 38
706.301 -81.0476 1578.7 213 157 160
-71.0299 216.111 1070.61 253 252 250
-114.116 436.364 1286.6 93 87 72
890.949 -323.251 1680.42 75 70 65
789.234 263.377 1881.74 187 219 216
-88.2438 285.869 1274.77 242 218 208
518.904 -329.12 1534.98 26 24 27
116.632 131.748 1502.33 255 224 196
