-155.972 153.328 1083.34 40 9 6
446.109 54.6035 1090.77 233 224 221
-135.517 203.411 1093.39 40 32 28
-28.6369 358.674 1144.22 229 225 214
-214.093 153.347 1055.98 255 240 210
-206.954 155.792 1029.54 73 34 14
-220.897 116.862 1022.48 253 240 213
-223.842 137.209 1052.27 78 43 23
387.175 -213.942 1106.99 227 214 207
-300.516 315.774 1067.7 94 70 63
-233.334 144.469 1021.55 255 243 225
522.419 -172.481 928.965 217 233 224
502.779 -197.829 993.082 224 231 238
490.075 28.0246 1059.24 247 232 227
-204.629 143.489 1069.92 104 68 51
-280.398 377.56 1125.54 78 71 59
402.379 -206.351 1066.82 224 201 195
-251.039 53.319 971.778 51 34 19
429.357 -65.8662 1077.13 228 231 223
-296.776 4.48102 1023.08 240 243 231
408.162 -49.9242 1077.44 255 252 252
-132.925 211.411 1052.87 255 243 232
-262.133 379.566 1131.39 212 205 203
-115.402 381.109 1095.97 227 231 235
-200.157 184.009 1075.09 254 242 230
-329.326 406.448 1261.78 30 18 10
-209.765 13.2115 1016.57 102 17 10
486.499 -64.3675 1049.55 255 250 239
-238.376 324.404 1087.5 244 241 227
-246.37 435.093 1190.93 54 50 45
-257.808 53.2353 969.955 85 54 43
459.277 -72.0976 1012.15 252 249 239
-269.251 68.4966 1035.12 117 118 100
363.121 -79.1638 975.783 179 169 164
-364.759 222.055 1119.65 255 251 221
-264.283 349.837 1083.06 224 223 220
420.309 70.4331 1148.83 211 205 198
471.619 -178.394 961.645 214 208 201
-237.092 189.99 1109.47 237 202 197
-210.147 172.802 1071.32 98 76 58
-90.6624 297.994 1042.2 64 23 9
-224.496 126.812 1062.95 78 42 19
-131.656 373.964 1110.76 46 38 33
526.466 257.712 1228.75 176 200 207
-122.401 236.555 1066.65 224 213 202
485.467 -200.5 1027.09 186 176 160
-202.102 323.63 1141.09 254 247 222
425.257 -222.412 1151.24 253 205 185
-78.3813 396.976 1222.86 47 52 42
358.841 -22.1059 1018.13 254 252 243
-234.002 157.809 1051.07 243 223 211
462.586 49.2057 1091.37 227 199 190
-323.246 373.623 1151.97 100 92 78
-272.176 -0.629848 989.561 164 154 146
-127.417 222.801 1063.81 224 205 188
635.558 345.017 1253.27 38 61 77
-282.749 1.99531 1032.83 125 110 103
345.462 -202.433 1151.15 30 36 35
554.351 276.805 1239.37 22 57 70
-133.238 312.559 1305.06 174 170 155
-277.026 396.914 1129.17 254 254 250
-219.23 165.579 1027.16 107 94 71
-123.94 41.9638 1039.33 232 229 202
-349.949 147.848 1027.61 74 34 28
493.255 -143.286 966.318 199 191 185
583.713 -126.509 965.443 244 255 249
-242.826 594.517 1378.12 75 76 72
-395.144 72.5495 1005.47 239 236 229
-386.699 170.296 1097.89 106 70 57
613.576 306.409 1409.21 217 244 246
-124.926 231.011 1065.39 88 69 71
-258.915 336.435 1082.98 220 212 196
-203.466 103.048 987.82 107 61 35
-119.447 50.319 1003.14 254 244 214
474.641 59.8047 1065.44 244 218 210
435.559 -241.934 1148.56 203 179 162
380.199 -77.8033 1005.78 251 253 250
-249.301 125.998 1056 214 173 163
688.151 98.5676 1116.01 239 243 233
567.112 355.854 1303.85 64 101 113
-259.211 329.566 1151.93 205 215 199
-229.095 160.645 1052.58 135 95 80
-305.833 366.01 1115.97 127 121 108
-251.429 10.1547 1079.07 93 56 47
-125.146 280.279 1183.56 51 42 34
489.366 -73.2982 1047.53 87 63 57
-287.5 397.345 1085.03 84 74 59
-371.086 88.3337 1015.07 113 105 104
639.73 -22.9312 1049.19 241 255 251
-169.165 171.825 1081.91 153 131 103
401.849 -22.2279 1091.7 205 190 191
-369.317 76.3572 1006.12 238 239 230
431.668 -75.7632 1085.66 204 187 184
-323.327 272.882 1054.94 136 122 123
-130.766 265.061 1180.81 50 26 17
-309.041 6.76678 990.401 77 57 42
432.501 131.098 1157.82 182 167 140
-328.88 232.3 1042.55 113 92 72
-252.372 585.941 1373.94 60 55 55
-192.788 44.4077 1012.46 227 187 170
575.79 -135.8 964.29 234 254 247
-199.7 2.80917 946.263 82 29 12
615.867 335.223 1251.25 82 130 159
-59.5229 239.899 1081.2 250 238 220
-251.473 93.1353 1012.22 96 90 85
-105.222 121.905 1125.03 249 241 228
584.457 -119.482 966.595 238 255 248
476.466 46.5738 1063.76 92 62 69
-117.778 403.454 1163.78 118 121 123
-272.62 496.849 1354.28 143 143 138
431.855 5.8819 1061.21 255 236 218
-415.357 119.402 1068.46 137 130 118
-362.011 157.102 1014.1 107 80 73
364.321 -59.5743 1012.87 255 254 246
-323.594 280.959 1055.89 158 144 141
-190.09 195.328 1078.86 134 124 117
575.861 188.906 1128.15 238 243 238
597.324 -23.9818 982.799 243 255 249
683.815 -24.6628 1135.77 224 238 237
-68.7289 238.445 1157.65 245 234 215
402.924 19.2408 1140.64 239 213 208
-340.998 107.798 987.091 125 108 89
-272.104 282.01 1064.54 255 253 250
607.497 -175.979 989.433 239 255 233
-223.11 193.677 1069.86 233 216 201
-288.985 305.528 1157.82 126 120 115
-114.94 34.4399 914.146 255 251 227
387.016 44.0573 1064.02 189 173 160
-382.284 71.8501 1029.54 100 99 91
-382.393 106.18 973.612 246 244 241
-290.079 284.745 992.438 159 154 154
-157.988 49.7751 994.557 254 244 231
388.568 -39.5868 1048.31 100 91 89
-339.488 137.477 990.034 231 222 209
537.734 282.377 1285.15 217 240 248
343.922 -146.21 1032.92 153 150 150
-273.54 304.453 1159.19 119 115 113
634.553 335.241 1251.4 188 216 233
-102.649 100.597 1010.99 254 243 220
421.7 -76.9107 977.046 232 206 187
-55.6553 277.905 1149.39 244 225 215
-154.978 64.573 1074.61 255 248 223
-244.688 111.056 1015.59 240 200 182
631.741 -151.972 1034.91 232 246 237
-282.418 440.447 1230.51 88 59 53
444.658 22.4372 1230.4 248 234 230
596.577 -123.452 999.239 212 222 216
-124.68 173.629 1092.96 255 245 247
484.941 -16.8848 1095.9 250 227 210
-268.545 228.563 1060.42 255 248 240
-239.663 139.544 1060.02 129 98 83
367.49 -224.759 1149.01 214 208 210
-394.345 229.964 1152.1 244 241 223
453.269 -233.83 1150.07 100 109 98
-360.081 74.8151 1051.88 255 246 241
-121.812 60.5963 1029.82 255 221 191
-68.5614 223.239 1110.85 166 133 119
563.12 -207.196 991.175 103 109 106
-274.667 456.967 1229.76 112 114 112
368.311 -67.3625 945.148 250 236 242
-57.7043 254.703 1116.47 165 130 108
-28.7512 273.707 1093.5 42 30 22
-87.293 169.604 1101.1 248 242 226
498.569 -136.133 967.269 90 79 76
481.338 51.223 1105.56 201 204 197
404.635 -230.67 1149.47 48 20 16
411.73 37.2004 1130.66 122 109 104
-144.921 78.6102 1067.46 179 114 94
-57.4163 271.388 1163.94 236 213 196
630.988 -159.443 1033.75 213 221 210
490.83 -111.504 1005.39 201 205 198
-106.1 100.741 1078 231 210 189
-388.411 91.4692 970.403 220 204 194
-359.507 219.424 1093.06 80 73 47
532.181 -222.29 1026.52 77 113 101
369.791 -44.6672 1046.83 252 245 251
514.999 59.8583 1066.93 135 116 114
-342.404 328.423 1215.66 139 110 111
-31.4986 350.558 1178.38 236 224 207
453.213 -70.7346 974.659 131 105 87
-290.926 265.52 1088.31 122 115 110
-281.804 275.837 1061.1 128 122 122
361.53 -78.0606 993.241 180 163 160
601.633 -142.597 995.555 122 144 133
-244.102 246.294 1069.14 183 176 176
339.802 -254.883 1226.98 176 165 155
546.176 66.5433 1111.67 163 155 137
-214.812 194.156 1030.83 122 109 93
-83.4681 190.479 1135.91 255 248 227
-304.366 100.605 1037.48 255 247 237
632.368 -44.0162 1092.77 121 127 108
-353.107 61.0118 979.513 254 250 242
465.756 114.937 1113.45 197 186 168
-111.249 84.6143 1075.58 232 208 186
-299.581 382.759 1166.55 227 225 218
-278.432 275.486 1030.68 216 197 202
-200.138 25.3989 1050.19 134 60 27
448.393 15.6661 1099.16 255 251 253
484.862 12.3518 1059.43 175 163 156
420.308 47.2479 1106.95 135 136 139
-386.589 82.8282 1009.33 145 150 145
533.723 132.368 1077.28 247 247 233
-287.775 273.369 1103.59 255 249 246
-303.334 260.75 1053.19 160 150 151
-293.63 248.364 1061.24 255 244 240
-143.028 -19.0127 1003.34 255 252 212
-46.7306 283.646 1121.78 229 213 197
451.264 -174.829 1032.8 193 192 183
561.034 -243.042 1062.35 165 198 192
-134.482 98.5802 1042.18 255 233 211
-126.965 329.297 1307.56 179 157 144
-220.238 172.345 1068.56 188 174 152
456.198 7.52001 1098.36 255 249 245
-396.312 69.5788 965.999 91 67 54
-282.001 265.33 1045.6 246 242 238
-284.317 250.845 1100.4 221 192 176
600.342 -89.3027 1005.17 212 229 215
-306.606 57.2262 956.57 255 234 225
-168.879 367.525 1112.03 228 237 202
679.098 40.2224 1106.33 219 231 219
529.232 79.6796 1202.45 127 104 86
-354.573 63.5373 1018.28 166 150 144
394.064 -84.7339 1046.01 72 63 60
-96.0606 164.45 1159.89 201 165 149
328.452 -232.591 1174.92 136 132 119
589.341 318.776 1247.87 84 125 128
451.637 -24.0801 1049.93 253 241 222
536.138 -62.7457 1090.02 220 204 195
619.428 418.593 1366.14 105 136 134
548.699 -202.508 957.255 191 198 190
710.164 56.2503 1152.48 178 173 171
402.275 40.1602 1065.96 198 191 196
-334.998 319.153 1192.48 243 226 212
-303.486 318.229 1029.13 252 250 250
-303.954 308.375 1136.89 254 245 237
495.325 246.316 1195.92 82 115 122
612.662 295.534 1407.24 206 243 248
537.871 49.3446 1095.77 226 203 198
462.776 -288.129 1238.31 211 214 213
562.164 260.843 1236.49 116 152 154
381.509 -57.6495 979.241 233 235 232
-200.998 410.589 1192.64 216 205 186
-71.2652 217.525 1109.66 250 245 237
-134.106 64.9797 1001.17 253 216 183
550.595 328.729 1292.37 34 67 77
-85.583 151.76 1019 255 241 222
521.505 -229.529 1025.62 136 158 153
-65.868 234.57 1112.61 246 236 220
-309.779 116.389 997.376 242 193 166
406.03 16.4052 1062.3 201 179 174
483.904 -1.84737 1362.66 80 68 49
-92.5738 152.856 1098.16 228 209 202
-105.914 318.43 1157.89 113 98 79
-169.83 226.361 1087.15 255 253 242
-131.936 85.9139 1029.36 253 214 179
504.399 -141.932 1000.6 75 65 53
-203.148 213.644 1077.2 166 141 134
-351.967 137.473 1025.96 178 170 163
-160.273 42.7977 1002.69 240 220 205
571.471 49.1958 1123.01 177 161 152
513.777 114.082 1159.93 162 157 147
-95.5277 271.764 1203.73 178 141 106
333.372 -45.2921 973.575 201 185 173
-301.635 395.494 1121.39 130 126 116
-375.308 156.76 1020.11 243 243 243
-116.729 173.967 1094.85 255 246 214
-279.177 232.153 1101.72 165 157 151
496.672 47.4414 1028.57 198 177 171
353.702 -161.667 964.498 120 110 92
447.7 -108.881 1041.63 172 169 165
477.797 47.1582 996.623 141 113 107
409.956 58.2862 1108.47 251 253 255
-142.651 131.562 948.049 188 126 97
631.091 -25.549 1051.93 203 218 211
533.009 59.1517 1152.37 150 124 117
-122.069 309.334 1241.06 74 49 32
-242.105 98.4637 1015.23 190 172 168
-137.333 112.11 1097.95 210 141 113
-142.872 189.822 1048.55 250 255 247
565.558 -145.331 997.117 143 141 140
424.473 28.033 1103.8 159 158 165
-223.535 262.23 1043.56 196 184 187
529.001 44.8279 1150.03 95 82 88
563.53 111.59 1259.27 254 247 213
411.755 -14.7688 1152.76 236 222 209
552.266 -132.393 1001.88 147 146 143
455.586 134.442 1115.38 189 188 167
484.474 49.183 1063.89 192 165 167
-339.937 260.868 1085.85 222 210 197
-396.488 133.488 1044.68 253 246 238
-331.262 110.259 1020.16 249 243 231
-136.888 83.2645 1028.07 235 224 209
-151.863 82.6809 1036.7 252 228 215
721.944 42.0933 1193.88 192 208 196
-88.8696 502.605 1190.88 29 43 35
-204.683 -6.84279 1016.2 194 158 137
464.957 -74.5892 1048 252 252 233
642.675 248.259 1281.87 162 193 196
-55.0098 283.146 1119.94 251 221 213
-313.986 69.709 982.134 255 245 242
-329.373 86.0324 988.932 237 212 201
-356.704 135.323 1057.75 140 133 129
-330.767 77.9417 950.861 181 154 151
-345.958 84.0187 1022.92 237 212 204
645.528 -107.858 1123.77 134 134 125
-196.037 -9.43479 1032.65 179 125 98
-325.623 278.646 1092.39 221 215 213
-189.914 399.655 1144.76 154 144 125
541.916 302.784 1197.23 130 175 177
622.458 34.3344 1018.02 187 207 192
490.091 98.3138 1112.45 232 216 180
-137.67 271.058 1000.16 255 254 242
-369.481 74.5748 1048.85 225 197 187
-54.1472 314.365 1218.69 242 220 204
-312.426 255.67 1109.51 216 178 168
-145.393 -28.9159 1002.34 231 217 176
521.78 199.791 1054.17 132 170 171
-366.997 103.667 1017.85 137 152 151
421.868 69.3661 1110.73 81 73 82
-86.1186 268.559 1078.88 251 193 178
443.871 -9.69508 1035.75 168 162 139
477.589 -18.3888 1016.03 239 215 202
507.577 315.003 1244.72 66 95 107
503.069 5.79355 1061.68 231 217 216
-279.833 337.426 1069.41 222 221 214
674.384 98.5762 1116.12 206 224 218
-293.668 67.6711 987.745 255 218 211
-371.581 106.026 1016.54 220 209 214
540.188 41.0538 1059.67 182 174 167
416.625 -184.716 1111.99 139 137 113
311.991 -44.8628 913.283 181 161 149
-294.683 66.1118 1000.81 255 204 180
357.124 -5.82441 1054.49 212 162 148
-324.618 54.9559 920.604 254 254 242
-98.3411 221.809 1104.02 195 183 165
555.009 155.171 1167.55 195 181 161
-98.7976 230.983 1089.61 243 215 205
376.997 -59.596 1013.21 249 247 249
453.542 93.6193 1005.07 167 161 147
460.568 8.1095 1025.14 199 179 172
-118.574 73.2412 1083.97 211 177 159
-158.557 297.261 1142.45 209 208 213
-221.207 79.2491 1059.25 197 164 150
-124.552 127.058 1075.91 205 167 135
507.56 106.775 1114.35 247 247 249
489.91 -25.3886 940.508 189 189 176
501.252 149.473 1317.38 154 145 119
-315.153 68.168 994.665 250 185 168
452.008 -7.22645 1059.32 143 101 85
-218.074 72.0405 1049.03 203 154 142
629.988 253.682 1285.02 118 148 154
547.351 226.337 1140.8 146 178 183
-192.806 206.057 1079.2 255 254 251
363.78 -239.312 1193.72 140 143 141
604.27 335.556 1300.6 73 139 138
387.273 -3.30596 1136.53 162 134 119
445.219 118.61 1189.67 124 118 109
-238.341 638.122 1454.02 170 169 165
540.51 -18.9152 1136.18 162 124 114
477.295 -282.018 1217.93 81 83 82
-263.467 111.369 1131.09 190 159 144
-344.318 223.734 1068.87 207 191 167
523.636 209.368 1096.71 153 186 193
-342.14 144.565 956.886 225 221 226
-55.0201 288.826 1120.51 233 204 196
