120.272 -50.9088 1294.37 255 245 238
-72.6533 65.9629 1109.27 236 229 218
62.7398 -5.91741 1231.84 251 228 217
-70.8174 96.8543 1134.74 228 218 214
10.7982 290.133 1140.52 59 53 43
35.4343 409.003 1231.34 80 80 75
40.2623 472.333 1184.28 253 255 250
351.035 -99.2925 1683.89 255 251 228
-11.5792 42.5973 1074.64 77 62 40
72.1578 473.955 1270.91 74 78 76
342.897 -19.4733 1805.73 242 204 184
41.649 418.845 1233.42 89 68 55
32.4355 412.913 1202.85 254 247 229
-56.6038 105.817 1069.84 184 157 154
107.356 5.49419 1407.64 80 23 22
84.5771 -44.2648 1288.91 43 16 6
339.199 4.7156 1705.98 255 251 252
31.2406 435.676 1180.04 86 64 41
23.3554 385.145 1199.6 231 225 216
54.1689 -17.2254 1176.3 172 166 167
5.02447 195.952 1184.13 109 79 73
-9.22892 198.076 1206.02 39 20 17
-2.59851 74.491 1115.85 244 206 182
-8.90017 50.5863 1075.68 255 234 206
-5.87571 66.5283 1035.01 118 44 23
79.6912 490.425 1323.81 247 253 255
0.397101 89.032 1029.83 245 227 210
29.2543 402.336 1229.51 255 252 255
62.1373 377.544 1263.44 95 73 60
-127.542 270.034 1213.66 65 19 13
339.903 -66.3022 1690.07 233 224 218
65.9248 400.809 1293.24 240 233 222
-118.032 56.9091 1147.13 198 159 143
62.1051 371.2 1263.03 251 241 222
1.2024 129.317 1102.43 233 177 174
356.159 -3.71274 1706.32 138 130 112
342.624 -76.8309 1693.14 119 106 102
56.1282 450.39 1266.43 134 125 119
-130.381 251.661 1211.64 62 6 1
-20.1605 200.299 1150.26 190 172 155
65.4564 394.238 1308.42 102 80 71
62.5302 460.432 1268.27 78 60 39
54.0252 419.714 1236.01 114 108 92
21.4897 399.413 1127.07 185 167 154
5.38171 89.5466 1150.06 102 91 72
-12.5867 201.247 1180.87 216 180 172
24.9616 271.546 1308.62 147 127 110
-23.1869 141.667 1124.67 111 55 47
89.7242 139.197 1309.67 150 108 82
35.7815 484.323 1237.23 94 79 65
100.194 181.933 1350.9 155 135 121
72.0771 342.531 1232.92 246 236 221
-250.236 49.1779 1195.75 25 4 1
111.985 -32.2031 1249.43 254 246 235
798.357 -388.173 1809.4 78 77 75
-151.41 84.7341 1141.23 65 22 20
18.2107 208.997 1301.75 131 102 88
42.4654 7.26011 1152.45 245 229 213
445.92 67.5973 2161.6 65 40 27
30.0528 241.805 1216.19 240 217 196
57.1312 444.492 1258.64 250 247 237
-12.1222 282.339 1209.24 201 182 178
29.0408 292.329 1195.43 148 111 102
303.397 50.705 1925.57 165 134 115
121.197 480 1373.55 33 32 31
-164.619 -23.9804 1236.76 63 65 61
65.9753 407.402 1293.88 210 209 202
305.473 262.623 1844.85 67 94 87
354.723 52.5212 1908.2 186 167 161
-52.9741 382.679 1238.87 31 21 15
421.695 8.42022 2063.17 136 125 125
398.989 -199.61 2005.36 182 175 166
97.1683 224.9 1319.37 143 137 132
390.728 16.037 2049.29 25 5 13
463.558 -258.022 2015.99 209 222 224
70.264 325.997 1287.7 169 158 161
41.9471 478.539 1238.08 102 85 75
89.8508 152.274 1311 144 106 87
64.6746 316.436 1320.69 156 155 161
-3.39185 141.673 1082.52 140 109 94
304.738 -43.305 1692.16 133 105 95
2.10777 198.629 1086.89 110 81 66
24.5969 159.792 1135.28 161 132 115
52.9339 275.427 1199.09 250 222 213
439.713 41.5752 2063.9 242 231 238
-3.50735 209.858 1133 185 143 120
378.176 -80.9564 1784.81 248 244 241
-27.1672 116.921 1197.9 237 187 172
49.6231 421.469 1398.63 171 167 166
36.3475 300.745 1097.13 255 244 232
36.7031 334.918 1255.47 144 136 142
152.662 287.512 1307.54 133 129 124
293.868 60.1288 1925.54 46 17 4
470.161 -18.1516 2197.48 249 240 225
398.096 55.8973 1944.46 172 148 134
2.04379 167.271 1042.14 242 237 235
96.5913 165.56 1313.61 237 207 186
32.7406 144.146 1155.76 168 126 134
56.8741 273.617 1172.41 133 126 114
359.694 -85.2804 1694.5 252 245 238
31.4167 147.293 1158.08 203 179 168
34.7432 303.583 1165.14 253 253 252
17.2061 321.667 1194.81 96 102 94
60.0681 309.31 1176.09 215 205 202
321.903 -167.858 1664.52 92 85 72
13.1254 66.1729 1029.75 254 236 216
372.385 -185.912 1778.46 101 96 81
140.356 79.2049 1421.3 210 168 153
76.2766 129.423 1247.21 197 154 129
47.6102 61.37 1209.77 255 252 244
-48.1992 264.552 1126.94 164 147 134
17.3236 498.46 1234.34 157 151 141
409.479 31.8917 1812.82 169 152 139
90.8226 143.558 1222.95 199 148 131
32.2556 87.1006 1174.39 174 170 164
-53.9801 113.835 1070.85 134 94 85
-48.1006 113.268 1117.65 143 123 115
-1.34937 57.6477 1225.43 242 212 193
328.557 71.9409 2131.67 56 23 12
-7.91635 197.234 1057.88 100 63 33
46.1732 126.091 1187 255 246 236
40.9573 280.889 1197.09 201 131 115
-7.37253 -45.038 1417.43 129 156 164
281.035 -25.2397 1905.58 53 38 18
394.466 -88.2645 1845.75 192 187 180
35.712 468.595 1236.06 68 51 50
95.8331 205.014 1257.45 167 146 131
8.90966 -14.3147 1316.54 187 177 171
-103.381 446.861 1291.52 124 99 92
54.7 315.945 1224.2 174 175 173
354.75 -39.1705 1788.01 219 180 174
219.171 -149 1866.41 65 60 34
76.0383 156.858 1176.08 166 142 119
