8.85317 -24.2194 1315.86 251 238 221
190.611 -66.4319 1767.39 219 205 196
170.121 -40.5242 1669.42 16 4 3
-55.8885 428.771 1161.37 243 215 184
-81.6443 92.5463 1040.95 237 199 177
-62.2106 418.079 1183.42 199 203 194
150.398 17.3242 1677.71 233 181 159
176.81 40.302 1779.62 236 225 212
-40.5162 306.467 1206.66 254 235 230
143.516 308.201 1731.81 86 110 111
170.697 348.397 1953.91 16 36 41
-61.6176 384.678 1109.07 255 245 244
-76.5476 328.801 1175.41 89 82 78
179.113 -33.9421 1762.28 201 181 173
-82.8552 122.159 1065.73 113 54 28
-49.7554 452.092 1137.46 222 203 191
12.1797 -7.9415 1317.95 222 207 193
-50.5638 433.86 1186.74 109 84 63
-82.7661 88.0795 1063.7 148 69 45
-4.84127 34.1863 1280.16 146 59 23
-82.7528 82.7874 1063.39 250 213 186
-85.7837 108.73 1184.82 83 73 59
10.4644 482.551 1309.15 80 82 78
-49.6204 520.454 1221.45 208 204 199
-56.3385 350.546 1181.23 133 114 111
6.36904 -10.5102 1183.27 255 253 238
61.7778 -121.818 1549.21 61 63 61
-134.445 131.45 1054.98 174 151 150
5.87669 476.007 1262.41 62 62 61
-34.5427 478.575 1222.07 106 93 77
-3.38068 230.927 1270.92 129 115 105
-15.419 27.3826 1195.22 255 243 229
172.498 64.8761 1590.53 238 225 211
194.572 31.5924 1780.88 135 116 101
-40.5717 481.114 1220.88 198 187 177
156.134 -5.32629 1882.14 141 117 106
34.5581 213.14 1275.7 45 53 62
-55.0085 499.122 1188.81 105 85 69
-49.7337 490.355 1334.66 250 236 233
46.5911 344.656 1408.35 102 101 99
-88.2935 192.398 1022.45 98 78 78
-81.8797 162.292 1046.07 120 84 61
-77.4834 226.458 1094.66 91 78 64
-28.461 353.667 1268.36 144 108 92
189.533 314.018 1949.66 108 134 139
-81.9308 69.377 1020.89 226 202 181
-41.0808 512.739 1288.27 108 95 88
-119.181 -12.9681 1310.03 126 151 144
-83.2613 128.505 1130.99 243 195 178
-55.7034 386.254 1299.65 255 241 237
-42.585 416.917 1271.67 255 247 236
-61.4017 312.068 1151.65 154 136 131
-29.9943 480.645 1212.31 199 195 190
-9.13003 190.297 1213.01 149 102 89
181.504 239.006 1710.12 55 41 36
-105.51 165.527 1108.94 93 44 33
-67.1086 337.603 1152.38 128 123 123
-44.5442 33.6002 1161.83 255 232 207
-34.4523 400.902 1184.17 246 247 236
-40.9535 10.3833 1245.6 193 168 144
-21.3545 6.88592 1192.66 233 212 186
-59.6561 469.112 1198.31 109 101 93
190.512 349.314 2071.63 211 246 251
81.0516 72.5756 1576.63 64 44 26
167.764 92.8316 1903.94 165 145 137
224.208 -187.491 1820.26 175 193 189
-57.576 431.761 1110.84 130 134 126
-77.8147 204.49 1071.42 117 65 47
-48.5436 317.003 1149.17 163 133 125
-50.369 140.112 1168.82 255 243 221
-27.1893 275.851 1177.62 144 121 113
-34.5484 432.231 1218.64 182 170 160
-96.5454 303.878 1169.41 226 209 206
200.817 29.631 1794.93 236 225 205
-82.9487 159.213 1067.85 160 77 52
-7.60145 25.973 1141.31 171 95 54
-80.324 154.016 1068.11 100 24 13
-22.5446 365.526 1215.89 229 216 200
-73.5292 252.793 1171.47 255 243 223
-71.972 338.345 1169 203 204 198
256.998 96.5298 2188.79 129 104 93
-19.9782 3.89973 1179.85 134 105 80
-87.891 64.2137 1037.38 129 98 74
-92.4913 271.349 1051.22 158 136 137
-57.3569 187.391 1159.54 184 138 112
7.99452 6.68086 1341.78 242 201 172
197.413 -3.15258 1999.31 154 103 93
29.2811 -100.606 1715.13 41 45 23
-51.919 150.25 1034.57 149 116 118
-61.8278 89.6631 1113.5 248 240 226
-90.5241 -125.589 1686 85 85 70
-22.4822 -17.0913 1247.61 87 68 53
-62.8469 231.518 1017.56 245 231 209
-31.4957 328.116 1134.26 137 119 112
169.062 84.1084 1695.01 152 137 128
-64.6848 122.519 1164.37 170 172 166
-30.1063 324.227 1130.3 210 183 172
-28.6159 141.315 1227.29 253 236 219
-50.3148 82.4005 1164.45 255 245 224
242.295 -19.6268 1898.68 254 246 213
-13.1696 -185.566 1949.04 202 211 206
-89.67 165.13 1024.37 190 182 182
-53.2832 174.873 1170.71 212 176 157
-50.8845 111.892 1117.31 252 244 237
-56.4596 178.188 1120.5 166 125 112
-74.4598 110.019 1085.95 195 199 186
-109.224 234.024 1185.96 160 134 118
163.79 57.8998 1781.23 30 16 16
-44.6272 175.14 1172.61 126 78 52
28.4133 168.292 1214.22 52 59 56
-46.618 168.287 1110.02 108 60 39
-61.6614 27.8419 1157.74 162 146 130
-79.9458 -12.4209 1258.78 99 118 131
123.571 298.174 1825.32 94 120 117
207.087 0.925758 1775.77 242 215 187
173.173 71.1982 1786.2 48 27 24
-60.4691 248.919 1116 231 200 166
-54.8855 278.868 1255.16 110 79 50
-19.8753 414.795 1361 141 126 111
-44.0785 368.93 1131.62 163 124 122
-89.8982 13.6417 1150.49 156 149 138
-61.3257 210.773 1096.96 237 203 171
