18.0703 368.486 1253.72 228 224 219
24.3674 381.504 1255.87 250 247 241
24.7335 -40.0265 1168.99 255 247 242
480.91 -149.875 1524.58 231 213 206
488.64 -149.919 1525.11 255 253 247
-22.2696 378.369 1245.59 255 248 229
80.6755 -28.8442 1244.94 88 3 1
436.487 -198.428 1440.11 217 216 214
522.897 298.089 1759.22 224 251 251
-97.2406 478.696 1434.55 238 240 224
14.8401 330.523 1250.57 78 54 57
73.1094 132.975 1264.65 128 122 89
-9.81934 445.277 1252.24 245 241 237
69.6568 96.6562 1301.46 104 66 39
-61.7301 63.4073 1111.41 97 69 67
-48.0863 141.21 1119.47 121 85 92
554.058 65.4077 1742.13 229 207 188
44.9092 22.5083 1291.99 125 57 51
-28.4382 359.186 1243.02 246 246 247
63.454 86.0873 1240.82 244 227 210
-75.9027 68.8178 1157.56 182 81 59
-59.1427 55.6279 1066.25 19 7 7
-78.3147 41.7157 1082.34 251 192 168
-76.3121 37.4908 1037.52 115 39 12
-73.0529 63.0939 1157.75 248 222 212
-111.174 470.185 1430.1 196 190 177
-27.1057 283.508 1183.2 120 96 90
528.842 -7.54556 1636.96 104 98 97
137.458 396.916 1367.67 103 106 104
18.7152 340.458 1312.75 251 233 229
423.963 -59.409 1390.53 235 214 194
544.343 -50.2502 1713.41 251 251 250
-16.4043 405.215 1220 204 179 166
-47.367 43.2563 1161.72 96 79 76
119.594 161.85 1222.79 101 80 78
-64.4322 46.8691 1109.71 254 254 246
383.903 -217.732 1579.26 25 23 15
50.0096 99.1007 1270.81 254 237 228
69.2154 119.064 1217.43 243 220 186
-78.951 152.412 1163.01 47 26 18
548.293 -3.75049 1725.11 232 241 238
-22.282 362.721 1244.61 87 86 78
-9.9159 372.945 1247.97 129 100 78
467.474 -275.676 1880.09 59 57 52
-32.9277 333.699 1184.91 218 194 190
496.82 -47.6166 1625.79 242 239 234
639.997 -74.4235 1836.02 255 248 237
432.16 -256.285 1763.44 200 195 190
-28.7657 52.7318 1117.39 86 85 79
593.671 -207.105 1541.88 235 240 242
25.3498 363.983 1315.98 230 212 197
13.8681 367.135 1223.29 52 47 44
-13.426 371.473 1217.82 155 122 106
63.088 159.527 1277.37 255 251 240
73.6713 184.709 1310.97 95 70 50
-50.393 255.817 1176.37 134 128 125
89.997 165.484 1312.32 255 252 254
335.847 122.204 1825.89 109 104 96
38.8644 83.0774 1116 201 174 158
622.738 250.998 1990.65 215 241 247
545.06 -41.844 1715.54 250 243 246
9.06688 399.381 1314.94 101 101 102
37.9729 300.455 1222.23 227 234 211
567.006 -47.8575 1630.55 244 227 210
526.971 179.26 2262.28 216 216 207
-74.1061 98.3172 1186.6 250 223 215
495.386 -122.599 1609.21 231 219 210
546.496 -24.9567 1719.79 250 238 241
86.0185 164.136 1252.09 124 117 105
26.9035 221.554 1245.18 222 193 185
505.674 -39.6434 1628.21 96 89 85
-32.9732 197.691 1176.28 247 232 196
2.17415 250.84 1301.89 118 73 67
-41.6909 273.949 1179.42 106 101 103
10.6623 418.652 1367.45 150 151 148
-65.2195 94.1741 1135.8 68 33 32
69.8597 107.836 1244.02 244 231 203
82.9378 116.367 1306.05 175 138 108
10.9043 391.723 1224.76 192 188 176
66.3613 172.332 1278.81 255 248 232
-23.5356 132.09 1320.76 255 233 206
-167.707 13.1268 1159.7 147 134 121
545.444 -157.842 1604.42 228 207 188
527.086 -140.911 1614.62 255 252 250
592.982 61.8685 1656.5 255 255 231
545.641 -133.212 1692.68 253 249 253
416.986 -268.303 1650.91 205 159 152
18.1989 412.679 1256.42 122 103 88
-56.0682 150.118 1167.93 199 184 191
535.02 213.015 1871.69 82 114 119
495.968 -114.773 1610.98 118 108 104
599.487 -16.6299 1724.94 255 248 236
-61.8459 176.18 1168.5 102 104 84
517.438 156.853 1644.98 40 37 25
-32.9559 250.765 1179.83 232 216 204
50.618 -53.0105 1390.1 254 244 229
-30.0002 327.938 1185.21 135 116 113
138.119 198.95 1387.91 255 249 239
65.9983 105.703 1274.46 201 167 146
443.432 -113.458 1444.51 176 160 151
71.3147 360.882 1187.45 125 114 95
433.755 -234.31 1777.68 133 138 127
462.428 -5.35195 1598.9 156 142 144
611.071 -20.0267 1844.27 228 225 221
-11.7444 331.312 1230.59 144 100 95
466.226 -128.884 1438.21 251 241 234
86.5685 152.317 1310.36 194 167 149
7.62385 66.9991 1174.8 255 251 251
561.557 215.444 1777.46 229 253 255
565.728 -285.58 1655.38 204 212 211
-47.0799 57.0745 1247.29 250 249 248
614.327 -101.12 1827.75 253 243 231
-78.2692 151.477 1113.7 192 165 150
512.301 -114.863 1612.11 151 143 144
-16.035 438.466 1250.51 90 72 51
76.7718 188.877 1252.45 148 141 127
-38.5836 248.906 1150.93 139 139 129
-10.0751 269.845 1240.97 154 148 143
565.632 -54.5034 1713.63 253 244 245
695.752 323.75 2015.34 151 160 156
-72.7275 112.898 1112.39 155 116 103
464.665 -71.6311 1580.87 219 166 143
72.226 77.3365 1273.74 151 101 81
-91.4099 110.714 1210.23 78 14 13
503.957 -14.0099 1478.48 117 106 98
-68.0548 142.069 1137.52 192 187 186
-61.8469 146.403 1116.91 177 137 130
-28.4213 390.456 1244.96 138 132 117
-49.3008 43.9745 1105.6 184 173 137
-3.91009 270.148 1242.32 252 253 249
607.528 -142.434 1610.68 255 254 232
-24.1396 322.34 1186.15 254 253 252
464.051 -52.6949 1542.46 217 197 188
538.875 215.191 1775.35 120 149 158
583.525 -157.811 1710.57 207 189 167
92.8247 408.208 1360.26 77 54 40
488.126 201.187 1767.19 76 103 123
31.1126 277.995 1236.18 227 176 166
33.3811 278.171 1250.78 133 128 116
546.049 -51.7351 1628.39 248 241 246
744.684 72.0823 1938.27 238 239 215
525.554 255.502 2004.59 65 86 86
-34.3504 125.871 1143.86 170 139 125
127.988 29.4129 1304.94 255 249 232
-6.01894 89.5433 1147.79 246 218 197
-121.54 458.25 1426.3 156 138 129
-10.0353 297.816 1243 254 240 224
517.422 -106.148 1799.45 51 21 14
814.773 -210.399 2081.88 174 182 156
45.0105 341.961 1318.54 228 235 208
119.268 34.3037 1245.81 245 189 155
-2.101 418.367 1406.35 92 77 64
-27.4741 31.3501 1092.09 153 159 142
144.392 428.092 1438.57 86 84 81
687.636 -182.934 1768.63 249 254 231
-49.5294 48.0359 1044.1 255 247 244
179.93 162.744 1463.87 255 247 226
56.1615 58.2444 1269.21 196 163 155
595.609 310.195 1900.72 159 179 181
-120.129 77.0632 1174.84 158 129 114
460.285 -98.8916 1611.66 153 131 124
585.853 -67.7244 1627.03 172 151 147
2.3913 323.572 1247.43 252 226 204
626.972 -150.429 1609.46 249 253 235
-54.3343 12.3881 1085.82 254 241 230
121.262 19.6456 1302.68 253 232 199
71.9144 316.775 1308.29 255 254 232
-79.1544 116.432 1133.89 221 168 158
-38.7783 176.931 1173.59 245 223 194
-56.5932 92.7276 1190.16 76 61 52
628.621 282.655 1828.97 166 175 172
595.109 30.4634 1736.42 251 239 212
625.975 -222.645 1672.99 157 153 144
-6.6606 11.3956 1118.67 255 212 200
-41.6686 162.2 1171.92 218 207 170
-21.282 45.9263 1194.95 251 254 244
638.651 -150.137 1673.36 152 153 131
-56.13 205.62 1171.8 154 127 115
14.8089 318.012 1249.7 248 231 214
648.106 -210.647 1676.46 192 196 179
-31.5543 -37.9455 1110.21 102 79 64
25.3384 96.5182 1180.63 174 148 132
112.908 28.1487 1244.1 243 231 212
-56.1043 182.201 1170.19 248 232 212
-1.48034 3.29672 1220.42 200 115 91
596.714 -222.57 1672.29 188 180 168
148.645 72.3484 1460.3 255 240 209
-67.779 171.893 1220.66 158 123 110
581.982 -111.151 1616.89 240 237 210
88.8564 326.819 1392.85 253 255 236
-30.0614 209.582 1177.72 247 204 173
138.104 64.7713 1374.13 255 243 216
26.5619 82.2416 1206.93 223 157 145
109.58 139.725 1313.47 184 169 152
2.51396 61.0173 1200.79 226 147 129
5.95508 274.2 1212.63 155 136 124
-9.82947 84.2095 1172.69 207 122 104
611.73 218.471 1879.16 174 196 190
-53.2291 188.159 1171.23 251 246 224
-32.7983 196.907 1098.33 193 153 131
-20.3381 390.76 1117.99 157 138 115
-6.81018 268.764 1045.16 254 223 197
-74.6336 60.4366 972.162 214 144 119
-152.765 186.277 1168.16 76 23 5
-50.3592 202.884 1172.88 255 253 236
618.14 290.971 1897.81 173 197 191
420.37 -55.414 1811.93 43 41 19
591.925 334.451 1918.17 164 191 190
-4.10298 40.6982 1170.35 255 239 229
36.0492 305.208 1187.6 132 114 96
