388.752 269.752 1103.64 254 252 250
-343.792 443.626 1436.24 249 247 235
344.273 190.641 1138.66 57 62 59
376.109 269.698 1059.95 252 253 241
187.268 -3.01066 982.959 246 229 222
-545.989 380.63 1353.29 108 108 102
-532.566 665.023 1756.59 7 18 11
288.415 118.429 1002.83 49 55 28
388.79 241.412 1118.42 237 241 236
166.473 -60.5152 976.298 236 229 222
385.705 227.464 1117.54 236 246 236
-503.545 39.4269 1134.31 94 54 44
-380.245 341.197 1411.65 235 215 196
277.028 60.5359 1035.51 193 188 176
225.958 17.3144 968.553 239 239 230
385.62 221.869 1117.31 238 247 231
376.687 138.028 1068.46 251 251 237
-576.321 187.308 1370.17 255 253 239
-500.466 649.287 1687.97 67 73 68
338.279 147.893 1024.17 245 254 247
-536.096 42.8247 1241.74 89 44 35
-585.833 322.839 1407.59 43 45 43
-489.529 228.368 1283.42 85 76 80
163.041 -53.5498 941.933 169 157 142
59.926 46.5117 1158.31 248 245 241
125.899 193.341 1127.78 249 239 239
21.8846 -33.0654 1242.68 140 130 122
382.22 187.426 1055.46 232 236 217
-438.451 176.985 1344.64 255 248 228
183.01 21.0313 1039.47 252 242 235
-528.611 49.8769 1227.15 91 27 15
-602.837 411.178 1502.57 255 251 242
6.5031 -29.256 992.351 62 63 51
-415.083 95.4444 1171.98 255 247 228
-714.166 175.064 1451.19 106 93 81
-358.491 338.283 1343.95 143 104 86
-430.444 136.165 1271.57 251 239 206
73.1272 86.0708 1130.59 254 248 246
332.788 -2.20823 1015.89 234 231 215
-555.392 373.558 1428.78 254 252 232
-580.215 423.293 1486.64 226 226 213
381.541 279.886 1074.22 226 238 222
-421.896 319.846 1490.62 255 249 235
-440.342 379.406 1630.11 84 59 47
63.9418 48.0045 1088.69 15 8 8
365.242 235.993 1099.02 213 239 227
157.379 -62.9331 1011.88 232 215 198
-512.707 187.747 1269.4 132 107 86
86.0406 69.886 1093.97 254 250 245
-530.678 488.386 1514.1 109 109 105
58.4629 117.702 1139.06 133 110 99
163.373 28.8942 1095.77 216 203 181
-381.368 282.511 1329.8 146 115 97
111.753 -109.619 1083.42 255 241 235
-400.585 207.87 1288.09 175 140 123
-353.242 84.3322 1548.24 216 203 190
-483.308 201.813 1330.24 159 136 125
-506.747 124.415 1388.88 255 247 227
351.294 161.309 982.121 202 208 196
13.7742 -30.6474 1115.33 203 196 187
206.588 -89.0432 1052.94 54 46 35
78.7819 -47.0141 1002.48 135 132 121
-588.999 286.922 1376.89 118 112 107
398.216 572.651 1396.95 18 55 71
233.645 -39.2464 979.524 93 89 83
321.459 481.258 1407.87 105 137 143
339.865 512.155 1341.9 103 130 130
-649.957 419.823 1555.89 108 109 95
300.889 3.97788 995.451 245 253 238
-441.257 170.051 1342.95 137 113 84
-695.877 159.529 1408.54 108 89 86
83.7555 -89.1259 1125.32 200 194 193
-491.786 15.4872 1275.89 207 183 148
-280.612 373.148 1624.26 87 87 77
395.693 545.37 1350.64 193 228 244
-663.419 158.964 1343.33 220 220 204
215.556 -38.728 916.205 200 189 179
198.068 -88.2496 1014.62 53 66 66
145.815 388.424 1305.83 91 86 76
-465.818 7.26055 1183.83 248 225 217
283.432 68.665 946.398 253 255 248
380.545 271.996 1118.55 214 231 219
418.997 506.061 1330.6 103 125 136
-359.906 86.9432 1405.47 189 178 174
-544.725 408.308 1371.99 227 228 221
-436.306 87.3753 1222.81 199 183 159
-374.662 41.8398 1347.6 153 135 122
146.651 67.5367 1060.12 255 254 237
-247.097 317.599 1395.23 195 176 161
162.782 28.6845 982.151 234 232 226
418.739 496.481 1301.25 75 107 125
-448.605 11.4488 1152.47 89 65 24
394.801 231.993 1074.14 215 209 198
177.748 171.963 1071.61 255 248 239
157.554 78.2324 1062.44 235 214 196
-460.053 202.819 1180.56 240 239 238
-349.941 424.376 1432.04 249 246 212
-391.348 40.646 1426.67 185 166 149
-339.18 299.417 1565.19 38 19 14
294.121 15.3025 1012.98 222 236 231
56.2206 119.456 1128.57 255 251 228
-337.805 74.3554 1537.9 49 23 10
-343.083 92.7925 1499.58 48 36 30
-532.501 505.211 1548.45 95 98 93
-493.087 150.749 1160.98 248 242 227
-328.496 213.203 1413.34 203 177 159
120.723 -97.4463 1110.35 243 203 177
170.26 65.0114 1039.96 250 235 221
-443.796 123.683 1288.63 234 196 176
150.166 288.807 1186.09 240 245 217
-551.892 23.1605 1170.58 231 211 197
331.686 432.215 1342.56 105 138 139
275.041 88.9118 1037.49 250 250 227
-375.788 299.584 1333.74 179 137 121
-576.068 363.974 1418.35 85 77 72
322.707 142.805 1026.64 215 229 212
183.775 179.586 1102.86 237 227 220
-384.196 142.951 1146.99 255 250 218
-557.986 155.013 1295.93 244 227 210
353.171 217.812 1069.24 215 227 218
-318.911 212.823 1471.25 186 164 145
85.3079 60.6358 1183.76 255 247 239
-421.137 124.508 1232.21 136 102 74
-442.202 592.755 1525.9 155 159 154
222.939 -83.2214 999.098 199 212 209
163.931 67.5574 1040.15 255 245 226
67.4653 91.6226 1129.75 125 92 87
208.073 -81.2818 1036.55 121 128 116
351.338 370.46 1200.75 243 247 244
145.243 300.42 1301.84 74 73 61
200.847 -79.7021 973.989 228 227 216
-324.974 228.319 1388.68 52 16 8
341.459 35.8002 1019.01 214 222 206
-517.481 256.425 1347.7 159 150 149
355.833 96.8603 1023.7 210 220 206
352.752 114.255 1008.78 205 203 187
407.848 465.137 1326.8 101 126 131
226.044 -48.7695 978.257 88 75 69
-701.675 78.5313 1298.56 233 224 218
90.5001 175.595 1148.96 243 233 231
-428.532 115.328 1169.1 227 179 141
-541.363 152.606 1302.43 244 217 198
311.825 6.56715 1028.65 122 122 114
317.768 393.533 1197.52 107 136 147
138.864 266.818 1111.62 249 252 226
242.227 -97.0214 1039.57 38 69 70
241.485 -102.546 1056.87 172 186 195
332.417 -36.7489 1029.25 217 221 199
111.434 27.4691 1071.51 215 204 178
-372.737 81.9473 1380.19 87 58 45
367.403 153.409 1027.35 222 223 215
306.694 -12.6662 959.353 136 136 132
-578.881 25.1019 1204.53 215 199 193
146.563 202.442 1182.03 223 194 181
362.38 207.419 1114.15 213 235 219
283.348 -61.9211 953.338 90 99 75
-523.492 187.208 1264.93 157 135 124
-677.342 96.0645 1251.44 255 251 243
162.721 195.376 1114.9 102 85 78
376.664 542.272 1359.56 85 138 162
-506.739 173.808 1446.28 171 120 89
160.381 21.7994 1078.67 219 194 183
33.2319 -35.5673 1028.68 165 132 98
-346.409 85.3085 1497.75 157 147 130
-407.928 142.156 1214.33 255 241 206
-489.485 214.987 1329.16 156 149 132
215.646 -61.1956 947.06 62 92 81
-516.891 535.771 1559.78 106 108 103
357.899 164.548 1067.69 232 250 215
-702.029 85.0129 1299.26 194 189 180
57.3555 87.2658 1091.09 129 99 96
-336.499 273.281 1418.34 170 142 127
381.752 124.925 1081.87 157 157 139
98.5277 -72.8155 1108.56 180 149 124
410.245 389.584 1263.19 216 231 216
246.41 -61.2752 998.644 106 113 99
86.7252 157.439 1100.15 241 237 242
147.758 381.893 1251.37 98 96 92
150.634 128.433 1108.43 239 231 209
40.8202 98.3485 1064.53 246 241 231
260.783 324.007 1238.78 244 248 227
-425.81 233.365 1393.95 205 178 157
-356.641 243.56 1461.47 154 128 117
-557.841 237.008 1383.95 240 224 215
237.929 -92.8035 994.592 157 161 158
61.4497 -53.3271 1076.1 179 174 153
388.474 527.989 1327.74 199 232 240
377.703 283.263 1103.34 202 216 200
-701.199 398.173 1638.62 125 89 80
-325.733 104.123 1399.82 142 136 128
264.295 -59.4055 934.339 213 223 203
334.62 494.281 1204.02 222 248 250
47.9076 107.373 1090.13 156 150 145
-415.448 253.368 1387.45 209 186 148
297.179 56.1464 999.237 237 245 230
122.66 134.26 1124.59 250 217 202
58.2684 -53.9049 1038.01 40 35 26
174.84 208.809 1136.31 227 206 190
-717.392 528.82 1780.51 97 100 89
260.872 28.7427 993.484 144 144 135
372.94 205.705 1097.77 216 228 215
-428.903 287.696 1313.78 136 111 92
231.72 234.437 1197.2 152 131 123
305.568 37.474 1036.55 218 226 215
415.026 255.888 1121.78 71 58 43
-338.786 116.457 1543 105 100 101
163.896 203.619 1163.23 206 197 190
368.384 135.233 1067.48 211 228 194
199.168 159.724 1117.9 229 208 202
-504.066 157.578 1214.88 166 140 124
429.642 592.537 1505.56 57 112 124
454.151 426.205 1355.47 98 125 123
-621.598 136.097 1284.79 253 235 220
364.678 422.911 1205.01 114 129 133
234.722 -56.5707 965.551 221 223 206
-539.587 237.329 1335.96 179 176 165
176.289 161.874 1184.91 251 240 224
-695.843 45.857 1234.14 226 223 210
-287.226 62.0181 1342.92 130 117 102
52.7687 -96.7509 1199.72 98 93 90
-443.55 103.158 1162.64 253 227 210
-344.789 224.604 1554.32 197 172 152
-295.948 80.4083 1406.75 32 35 26
-331.117 237.181 1133.74 248 233 217
204.773 151.061 1074.02 254 234 224
38.1128 77.1334 1043.66 250 245 248
67.3184 145.867 1096.11 121 101 85
-670.961 111.977 1257.15 245 244 239
119.306 150.324 1152.07 255 249 246
114.133 272.579 1179.26 210 205 193
112.638 52.4374 1014.09 235 203 182
143.931 -106.995 1214.59 172 164 150
409.453 357.541 1260.97 55 62 32
235.145 -48.4559 886.914 108 116 101
293.648 -152.755 1128.83 49 98 96
484.926 519.13 1339.43 36 58 65
-330.889 82.0968 1541.43 162 151 136
-295.717 215.003 1424.7 128 88 76
-518.702 325.362 1298.19 207 208 191
-547.843 22.0104 1115.16 112 110 103
191.34 209.966 1120.22 159 133 117
-406.845 340.119 1327.59 153 136 118
168.676 -56.0708 924.5 48 76 69
228.821 224.987 1126.62 181 158 146
-630.849 265.61 1356.4 177 159 150
-424.28 341.301 1365.4 175 167 149
-431.729 62.3297 1173.98 131 85 29
-381.851 46.0223 1375.78 62 40 28
474.583 522.122 1338.36 116 139 144
-725.151 106.238 1344.09 222 220 215
318.392 389.574 1194.49 147 174 182
139.271 121.038 1142.98 167 155 127
-546.683 426.623 1409.87 109 104 93
274.724 415.68 1304.73 139 153 154
243.118 5.27165 969.896 162 156 154
64.4028 151.846 1142.67 231 211 196
280.318 -65.9401 903.502 191 197 201
35.0084 -23.4701 1100.92 155 150 148
-625.269 300.974 1386.17 159 151 155
-481.969 93.6469 1249.07 253 243 229
-710.227 215.702 1458.23 215 183 165
175.756 194.998 1089.17 201 172 160
216.491 199.634 1078.79 225 205 196
99.2066 260.141 1176.15 127 120 108
-306.628 281.307 1197.72 126 119 113
-609.741 331.57 1398.14 182 162 154
-343.867 262.215 1495.18 201 161 146
-592.476 282.649 1398.1 231 189 186
311.828 -45.3621 974.099 171 177 150
-598.21 97.8104 1108.85 138 138 133
189.208 196.113 1152.84 134 110 108
336.473 76.1329 985.035 205 210 186
341.739 377.322 1217.97 238 242 236
-323.596 74.6508 1543.07 51 52 43
-724.715 143.959 1389.7 255 251 250
37.7441 59.0587 1019.18 183 168 163
-330.123 267.469 1473.06 103 74 58
485.471 410.51 1332.43 75 99 84
-435.517 64.1865 1334.42 134 127 118
402.114 442.802 1285.38 126 163 165
-475.553 299.724 1611.54 168 145 114
-448.411 90.6777 1227.47 129 108 98
85.9754 61.7317 1093.36 199 185 172
-508.017 106.272 1353.53 177 146 121
259.472 207.952 1148.83 190 185 170
-653.891 160.305 1273.13 226 225 227
-606.35 29.6003 1209.15 246 232 211
-613.49 228.937 1302.23 255 250 225
219.049 160.16 1055.65 251 242 223
203.758 92.6856 1113.48 235 222 199
46.4081 63.818 1107.86 253 248 249
232.352 -121.136 978.508 73 94 88
-356.991 -1.28246 1520.77 58 53 48
90.9319 233.516 1152.87 112 96 88
316.541 102.556 1168.89 162 157 127
-655.888 40.553 1162.54 234 225 209
-606.365 245.018 1308.24 158 147 121
276.768 -64.1454 965.86 107 118 103
405.462 470.938 1262.71 124 151 166
376.615 156.998 1071.52 199 216 191
393.291 166.071 1115.67 201 219 193
-642.961 193.585 1307 250 241 217
-390.573 55.5328 1176.75 101 100 87
-478.569 138.429 1325.79 216 195 170
-1160.31 279.67 2086.88 114 116 113
323.543 109.4 953.454 247 255 233
316.932 127.23 1024.59 219 238 221
-612.232 273.605 1387.66 156 123 112
-458.898 453.266 1346.75 108 111 106
-604.036 281.565 1392.7 189 135 132
195.301 -60.8217 997.184 120 145 147
340.023 524.451 1412.26 132 161 165
368.306 335.276 1151.11 182 187 156
-509.969 413.829 1383.85 190 204 170
-255.248 221.893 1519.75 121 102 90
59.9083 -15.4047 1105.77 168 153 139
159.266 210.769 1087.25 140 118 96
-479.529 72.7647 1318.71 188 135 86
-336.065 59.3926 1448.62 130 106 92
66.6094 -78.1607 992.655 173 164 157
284.236 -52.496 934.715 143 149 122
281.083 106.383 1099.75 251 252 224
343.24 306.272 1082.45 217 212 180
224.772 112.496 991.393 185 184 161
-496.297 73.687 1198.61 173 118 98
-422.561 78.5968 1077.25 216 198 179
-570.222 265.206 1302.84 255 248 247
173.635 162.062 1114.33 233 212 200
74.4488 59.4602 1101 248 246 246
76.6855 -33.5789 815.942 126 110 103
149.542 -116.226 1003.37 130 103 87
-398.464 335.773 1456.18 194 158 123
90.9588 239.745 1101.05 119 118 107
163.882 -62.7814 923.448 112 155 146
96.0007 24.1832 972.793 151 148 122
-416.277 380.774 1403.51 185 153 134
-385.895 253.444 1166.92 212 190 181
-434.193 411.429 1495.35 254 206 183
