-40.7653 57.0138 1070.18 252 229 199
417.607 -109.781 1527.36 255 249 230
12.0539 472.144 1255.44 218 215 208
-9.12288 212.803 1131.92 91 66 56
-1.17259 357.012 1165.88 245 240 239
398.741 -168.43 1514.26 227 223 215
-40.7636 51.7402 1069.84 117 48 25
134.517 431.5 1370.97 73 72 70
482.647 282.659 1883.57 28 58 64
-4.02003 233.344 1239.74 54 30 27
92.8298 -8.31972 1213.62 84 15 14
-3.50862 207.419 1132.76 255 241 221
43.4782 450.195 1261.88 70 74 74
-40.7618 46.4629 1069.5 254 231 206
1.76882 371.51 1167.16 212 194 168
4.78543 74.5149 1228.47 62 63 51
82.1632 142.948 1195.26 100 56 36
550.349 317.367 2112.76 85 109 115
452.04 93.1803 1651.42 204 192 160
11.9669 435.343 1254.6 248 243 234
-30.1494 160.474 1078.4 77 46 31
78.3422 111.436 1218.94 123 80 54
-9.04533 263.05 1134.46 130 120 116
30.7547 421.261 1258.19 140 139 134
-149.229 469.524 1419.71 207 195 179
-35.4799 104.685 1074.18 254 255 242
69.9391 113.221 1190.63 91 53 36
66.3519 452.118 1297.06 248 253 250
30.7022 405.765 1257.54 106 99 98
84.6446 138.664 1221.71 243 210 191
13.89 381.012 1223.38 236 230 214
-4.59934 279.743 1211.4 247 247 229
493.359 20.7158 1727.03 255 252 251
432.709 343.448 1789.64 49 85 87
43.2842 400.418 1259.98 235 215 214
525.129 42.805 1942.89 57 38 36
59.8553 454.811 1295.9 108 114 108
386.971 200.278 1852.2 9 17 13
-114.822 497.765 1431.52 196 187 176
-93.7746 467.501 1323.01 211 207 198
43.1683 372.272 1258.59 196 184 171
-45.3135 42.8752 1113.55 159 98 71
-41.8349 33.8736 1045.11 255 232 203
-11.959 72.874 1052.92 121 118 114
350.726 -196.61 1673.79 29 33 32
84.59 129.628 1221.18 156 92 67
-27.5328 59.8161 1072.93 238 225 206
501.128 377.115 2015.35 190 232 234
449.167 188.723 1669.79 38 30 19
52.352 38.077 1131.69 104 86 67
76.4191 178.382 1196.92 255 246 229
40.048 394.972 1286.87 171 167 162
450.375 248.564 1773.23 91 115 122
83.5446 182.992 1313.09 253 251 246
428.531 -83.9709 1612.13 222 202 185
505.586 38.1982 1842.59 214 200 200
-3.63845 140.469 1128.64 105 56 52
490.98 263.653 1880.01 229 255 255
3.11274 410.65 1214.65 193 190 184
83.397 197.921 1274.89 123 100 82
396.63 273.14 1864.3 53 81 83
559.022 295.709 2106.39 223 255 255
29.0545 359.037 1163.58 238 224 222
-35.5833 81.0467 1093.06 189 108 67
41.3359 355.339 1227.32 219 195 176
-0.599065 115.271 1039.57 138 118 115
82.3558 106.3 1246.51 253 235 211
13.769 347.554 1220.94 114 99 95
169.209 -394.821 1596.76 183 177 170
75.2182 438.792 1268.4 238 241 241
-28.7384 173.103 1125.63 178 147 129
469.658 -78.5566 1712.01 203 201 193
39.5835 272.301 1251.73 151 114 99
35.1687 327.708 1198.06 255 246 224
-27.5292 67.728 1073.44 94 89 77
98.8297 184.267 1256.51 138 126 120
39.3595 284.134 1169.57 255 251 237
-35.4806 72.9222 1072.22 239 158 145
82.6163 202.539 1284.07 158 149 141
-0.95086 372.793 1115.64 45 39 31
489.548 -30.1172 1714.52 254 235 222
-54.4294 118.388 1090.89 101 57 40
64.8625 343.074 1322.86 254 255 243
-18.638 272.583 1156.82 129 117 120
488.369 -21.4418 1697 255 248 252
-28.6984 189.199 1148 113 81 70
85.4072 97.1006 1246.21 178 139 104
-82.7425 88.1961 1063.54 162 139 125
53.1254 310.922 1200.85 228 223 208
66.7143 106.033 1243.55 252 213 198
14.1174 276.455 1191.13 145 139 137
35.5334 422.224 1230.54 119 76 63
-21.3546 204.521 1179.32 255 251 226
-0.635892 302.074 1189.42 149 135 120
-7.59517 340.107 1134.08 191 184 179
4.83146 427.625 1168.25 135 111 90
-85.6076 486.597 1364.79 63 59 52
-36.8328 82.2411 1073.53 182 123 101
35.1282 342.753 1225.05 140 108 90
-44.9044 173.939 1197.29 75 55 50
51.966 432.021 1224.67 87 94 91
33.3131 268.934 1250.19 251 214 192
-9.6878 181.594 1180.22 255 243 227
306.533 -629.745 2669.34 229 201 196
399.773 234.237 1763.71 76 107 111
481.658 240.055 1775.17 119 163 163
70.1246 143.137 1247.54 229 203 187
89.5513 208.942 1256.82 159 146 136
454.552 -101.906 1612.55 254 254 251
30.3263 302.968 1251.86 161 144 135
-31.4638 150.018 1051.65 191 180 183
-56.689 182.378 1195.12 197 170 150
548.649 -254.099 1745.83 175 199 199
-3.44091 243.76 1134.69 142 50 32
27.0573 254.04 1216.04 151 92 74
471.467 -115.664 1609.07 238 212 192
432.446 29.2902 1723.08 180 167 160
582.831 -174.796 1769.46 244 244 225
-136.451 33.5332 1117.04 170 143 132
-24.7943 187.226 1080.83 250 241 216
23.6199 110.436 1208.24 252 234 221
477.548 -95.3397 1710.06 166 165 167
-32.9928 268.23 1180.7 156 138 131
-103.86 47.5135 1125.16 147 121 110
-33.1011 88.6422 1195.22 250 233 214
-19.5917 28.1577 1072.36 255 239 221
83.2626 329.859 1290.3 245 245 228
103.423 183.54 1317 253 253 246
601.266 104.346 1848.73 250 253 226
18.655 330.559 1312.04 255 238 229
-144.452 221.792 1234.24 75 24 10
487.539 190.925 1765.31 105 87 66
-173.045 63.5558 1217.59 76 33 17
98.5803 168.003 1285.15 183 161 143
409.786 30.0977 1552.95 169 153 147
495.302 24.5145 1838.55 90 78 73
-6.58459 -19.9477 1193.84 84 60 49
58.8278 345.094 1260.33 211 202 179
-36.7358 119.472 1065.1 145 70 43
88.8601 -58.6795 1235.06 84 62 44
-4.63635 81.7934 1034.91 157 170 157
23.9159 397.656 1143.22 219 200 195
92.4337 441.107 1301.55 163 171 174
85.6395 167.665 1282.61 158 137 124
-14.4994 161.394 1149.75 172 134 121
45.7745 257.091 1251.9 232 199 190
-139.091 236.329 1208.42 64 10 0
-3.51277 346.054 1190.76 161 147 145
411.075 -32.499 1621.24 193 165 152
442.092 248.519 1870.71 101 133 132
46.984 283.928 1198.19 189 163 160
101.435 578.209 1377.38 87 103 93
656.391 119.815 2117.56 246 238 217
-4.80886 326.274 1133.7 218 215 217
8.28936 -11.2119 1197.43 105 85 75
-15.663 309.125 1289.71 203 196 200
71.149 -36.5029 1154.95 153 125 104
477.039 8.48859 1813.84 147 129 124
417.103 -0.545146 1628.53 68 51 48
497.591 -53.532 1720.13 247 227 204
5.25181 287.742 1189.91 251 252 249
51.9465 238.776 1251.79 214 178 177
398.297 -61.8834 1611.1 152 127 111
393.019 78.1728 1449.23 129 109 83
524.933 -76.3756 1705.9 242 237 214
-3.18648 -26.433 1093.81 174 163 150
26.8596 298.77 1094.92 255 226 211
0.184995 86.9282 1116.91 199 193 200
349.516 -224.681 1668.55 197 168 162
42.9018 -63.5586 1406.71 133 165 165
552.216 -109.457 1699.28 158 160 130
515.38 -231.013 1586.38 173 181 177
-49.1997 24.3745 1024.63 164 137 109
40.8415 251.106 1195.05 156 86 81
422.541 324.839 1885.59 93 125 118
402.347 402.279 1899.19 89 107 102
15.4668 -12.4022 1318.27 189 161 141
404.186 -8.49573 1625.46 129 108 105
143.815 207.703 1326.87 254 235 233
515.094 318.676 1891.05 179 191 186
1.63689 -11.3598 1073.55 183 159 132
408.981 -124.586 1523.69 113 105 93
13.5592 97.5608 1178.67 254 225 204
572.38 -133.347 1925.08 240 222 199
406.01 362.69 2002.36 54 70 62
379.588 -79.6623 1780.73 25 7 2
56.6875 107.704 1300.33 199 175 165
730.244 -208.282 2195.04 197 201 185
49.6757 221.933 1194.91 212 184 176
27.2446 -52.2871 1223.4 54 63 70
379.342 -160.624 1368.07 71 60 57
299.563 -191.594 1666.4 129 132 120
69.5485 193.873 1279.07 103 88 76
322.592 219.521 1540.97 54 79 92
501.147 88.5637 1572.95 255 255 236
529.489 -174.419 1681.68 192 188 168
458.407 -40.7059 1717.1 208 182 166
305.009 -159.113 1672.94 40 38 18
531.282 366.539 2025.25 161 188 185
37.2569 278.208 1237.28 255 250 255
520.364 -25.9952 1717.95 134 117 104
13.8771 268.389 1269.01 197 141 128
496.051 -102.755 1508.18 213 214 189
514.228 63.6797 1739.01 255 254 220
559.483 -134.155 1868.87 231 205 185
-256.044 19.5595 1252.56 64 54 34
125.416 205.606 1283.36 255 244 217
356.978 100.973 1829.88 55 52 35
497.3 82.558 1646.06 201 197 176
33.0219 -57.7889 1277.96 98 118 125
150.639 214.558 1328.76 203 178 166
