-0.752966 -17.4674 1252.1 244 228 211
-67.7397 409.537 1130.32 216 215 212
-97.1624 -33.1109 1697.92 35 29 12
-54.2131 471.911 1087.91 218 217 210
177.379 -58.6913 1765.94 247 226 215
127.089 23.3771 1588.64 238 203 183
-79.0177 288.781 1014.49 234 219 214
-81.4118 320.903 1122.99 73 74 67
-56.648 458.721 1134.76 218 213 203
161.515 46.1695 1780.45 235 219 209
155.33 -22.6779 1666.07 199 183 178
-45.141 26.1125 1211.97 255 239 227
155.186 -30.8539 1664.8 59 47 36
-65.1114 446.671 1184.09 255 251 227
-15.7082 36.7029 1167.84 164 92 61
-93.2334 127.874 1063.67 119 36 18
-42.6633 408.634 1135.65 237 230 227
-159.487 92.4336 1046.86 159 140 128
47.8413 -115.759 1538.17 73 72 71
-48.2138 292.014 1128.7 255 239 232
-56.5652 322.517 1128.49 120 108 110
-90.457 97.894 1038.11 202 151 121
-44.4287 464.34 1166.29 95 85 67
-90.4365 87.5345 1037.7 237 174 150
-337.152 77.7344 1090.34 19 7 6
-55.1974 514.933 1276.79 199 189 177
-82.8456 100.645 1039.77 106 83 65
-56.2305 381.698 1328.16 121 94 99
-62.2361 483.858 1134.52 98 88 75
-49.9555 437.411 1242.79 75 67 67
-238.255 112.833 1073.22 47 6 3
-91.2566 77.0308 1051.7 254 227 212
-97.208 196.421 1024.19 94 80 75
-73.7801 419.194 1180.81 220 205 200
-44.6776 392.414 1186.01 186 155 144
167.944 37.3289 1685.27 133 114 101
129.332 2.34455 1765.61 113 97 89
-3.82057 4.05726 1253.07 172 144 114
-16.9848 29.2516 1062.4 154 78 46
-59.3307 40.7359 1243.52 255 249 233
-83.0204 222.215 1044.2 113 71 54
-107.04 157.924 1020.19 97 54 37
-138.926 131.677 1011.95 140 114 102
-202.433 84.0974 1056.54 161 131 122
-105.104 319.585 1168.11 198 193 192
-26.9098 498.241 1247 169 169 167
-107.242 300.82 1135.82 212 193 187
-14.5282 215.187 1257.04 149 128 110
-67.1156 436.861 1111.16 110 92 87
29.9897 320.003 1277.83 124 121 114
-2.79919 7.56862 1302.61 254 219 178
-194.489 458.914 1082.04 101 96 94
-44.6859 448.397 1188.68 239 236 219
-63.0556 178.18 1065.67 82 52 33
12.1656 -88.3598 1626.46 20 22 3
-90.9259 231.72 1069.9 199 156 133
-62.5957 333.948 1097.07 154 150 146
-215.523 478.179 1146.16 153 148 130
-51.0464 402.324 1133.59 203 195 196
-285.059 10.0631 1243.28 43 40 32
-22.6563 217.533 1201.83 244 224 206
-65.0011 455.199 1132.81 62 47 37
-67.3965 299.179 1078.38 169 161 151
-203.684 271.194 1041.01 83 24 14
213.358 -185.422 1857.32 169 184 186
-91.8253 174.843 1085.51 146 132 119
-83.0074 200.016 1069.92 252 254 254
-32.9691 365.547 1187 202 194 170
-50.6922 12.4962 1186.74 130 113 102
-341.577 652.959 1597.67 11 0 0
-75.2462 254.073 1074.35 230 224 211
-212.873 260.941 1064.41 55 16 4
-479.566 -463.243 2618.31 167 146 130
-1.2839 433.533 1164.7 142 141 141
-217.855 540.016 1267.14 48 47 42
-232.784 530.313 1263.13 16 20 8
-57.1119 135.264 1091.13 255 238 232
160.419 79.3142 1692.35 93 67 59
-34.521 486.881 1222.54 255 251 239
-82.8788 121.261 1040.58 232 187 163
-81.7933 33.9439 1129.23 178 153 150
-36.9479 315.452 1109.67 188 169 168
422.593 -263.023 1499.4 82 78 76
-99.6261 170.858 1022.42 195 177 171
-64.8912 341.921 1128.33 163 153 146
-30.0026 -187.402 2033.66 203 212 208
-138.518 345.35 1111.2 153 136 125
155.704 73.3515 1746.7 48 32 26
-68.3157 490.018 1241.73 248 240 234
-38.9888 142.632 1196.94 255 247 234
-33.1071 -10.9075 1188.96 84 70 50
198.626 4.86519 1867.9 232 200 170
-60.9451 107.009 1133.63 255 247 238
-42.6458 281.082 1129.27 118 73 64
-78.6231 240.357 1090.79 255 245 216
-64.9424 384.258 1129.78 231 232 234
64.781 74.1836 1504.03 40 24 7
-80.3176 110.996 1040.7 158 135 129
-106.39 -125.931 1764.41 63 61 46
-76.9104 331.98 1116.16 115 96 106
-480.282 -482.975 2585.2 140 115 101
-33.0886 80.4163 1194.66 255 238 221
-30.1526 5.04472 1162.33 131 106 84
-123.488 200.551 1079.66 97 58 35
-41.5359 399.769 1162.5 208 207 192
10.1878 -124.511 1714.13 154 155 132
-67.2078 400.643 1156.84 181 174 167
148.295 63.8889 1780.28 36 20 12
-94.1314 66.6263 995.173 121 85 57
-56.5676 80.8674 1068.49 252 251 229
-57.8024 79.3039 1015.54 251 251 241
-73.1021 94.3993 1086.01 216 204 191
-36.235 145.21 1244.31 208 184 173
-318.044 521.147 1303.49 95 80 63
-52.0432 477.896 1111.04 241 243 235
-31.5624 82.4219 1142.4 188 145 130
153.714 -112.1 1651.87 57 45 37
-65.4208 286.292 1144.37 234 203 178
-33.0774 348.3 1228.26 244 234 227
-97.2367 206.736 1024.65 180 132 114
