-55.1447 41.5225 915.579 232 230 222
-24.8697 -45.3145 1088.74 250 255 255
-52.8965 48.3491 916.26 30 43 32
-20.8666 -39.7702 1083.35 151 156 145
144.691 199.024 988.966 235 233 225
-35.3868 -40.8103 1039.44 246 254 246
162.588 450.106 1038.12 70 82 74
-260.081 277.448 1443.44 241 222 201
-357.08 203.454 1400.72 18 0 0
-381.588 78.4967 1452.01 218 207 203
-44.4979 51.0585 886.182 92 112 103
-373.05 206.101 1395.34 186 173 158
141.473 169.001 938.188 200 178 161
-154.312 46.5724 965.848 193 180 161
56.9648 278.743 965.164 101 107 106
-19.6156 79.3421 861.585 248 254 249
-324.656 68.3821 1394.56 216 214 207
-35.5097 -27.3342 1065.65 255 218 220
-389.678 37.8071 1347.9 170 152 138
29.8481 64.8852 868.7 230 231 219
-373.872 23.2772 1371.14 184 155 146
109.834 360.783 943.08 254 253 246
-483.484 71.4524 1266.13 247 239 221
-480.979 77.7971 1267.86 89 68 45
13.5293 19.8624 864.744 67 73 78
193.908 -66.5084 944.716 46 41 35
90.2788 146.97 911.031 205 193 186
-562.399 457.864 1710.53 94 96 95
81.4694 219.366 912.288 82 81 76
-388.694 286.512 1279.02 255 246 234
167.776 244.263 994.122 217 187 175
-48.6437 -11.5662 1064.17 219 204 204
-3.7696 -30.1184 1071.29 255 245 226
-396.191 46.7589 1366.01 23 2 0
34.39 81.0283 857.68 252 255 240
-349.921 250.523 1462.98 46 24 16
56.3984 81.8729 844.904 166 162 148
-468.929 -3.6909 1331.03 157 139 115
-22.5855 29.2536 888.968 70 85 75
-383.174 279.315 1342.1 225 216 216
-16.5949 32.6851 921.811 255 253 245
-32.8762 -22.0925 1066.49 89 44 40
75.1806 201.552 869.948 206 208 201
-478.465 84.1435 1269.6 219 205 179
-15.8765 121.991 893.675 241 242 229
-37.2414 -35.943 1134.6 22 0 0
-295.545 68.8632 1404.52 179 173 164
-381.637 74.254 1375.02 206 193 183
-36.2355 -19.024 964.958 252 255 251
-471.562 4.45427 1314.41 175 156 132
-42.4658 249.766 997.442 248 243 234
-338.364 79.3463 1468.12 63 60 52
-57.0367 2.88976 1084.91 254 239 228
-446.744 50.0074 1278.02 173 164 159
-393.341 53.5838 1367.98 187 158 146
-43.396 -14.2008 1065.01 81 84 84
-367.609 238.125 1401.37 206 179 169
-202.06 280.118 1210.34 162 163 150
142.185 230.097 941.848 159 148 142
-21.7724 49.4735 860.166 107 114 115
-16.1514 291.45 1026.96 151 144 140
-376.711 232.893 1477.07 221 203 181
108.9 364.397 977.395 234 232 231
-72.6221 264.093 1075.01 250 240 231
-82.2814 247.675 1029.31 254 247 249
50.2703 7.80608 931.09 232 218 209
-18.8571 53.2334 922.338 251 255 253
-110.328 56.6344 939.55 225 214 192
172.246 184.981 992.146 216 222 206
12.5677 161.806 887.714 243 235 215
-23.8913 62.2313 860.288 194 191 165
-77.327 -6.31811 1058.83 255 250 255
-345.308 86.4938 1466.7 73 67 54
-134.554 160.571 1056.13 142 131 129
-475.945 336.786 1569.69 122 105 94
-93.1453 52.4441 909.096 60 52 46
-365.49 196.271 1475.84 188 154 134
-488.659 5.34945 1194.22 122 101 70
-455.88 -9.85902 1267.7 136 125 108
-303.969 65.2963 1478.15 50 41 25
-342.388 101.208 1470 210 215 211
-345.011 189.852 1482.38 144 125 113
-46.1357 281.683 1081.37 255 248 238
-425.809 293.905 1387.04 241 236 232
174.971 196.179 1005.43 184 163 150
-496.107 98.3317 1333.55 93 60 43
-18.1912 20.5139 889.318 246 255 255
-21.1281 66.9213 922.544 194 196 176
-25.5699 73.2358 944.572 254 254 238
3.39816 -16.8145 972.938 121 107 98
210.226 257.826 1022.85 160 156 145
-433.635 416.149 1541.31 186 188 182
-323.343 98.4848 1456.51 162 158 156
-452.736 41.0014 1291.53 116 105 87
-363.491 241.194 1483.17 140 108 91
230.646 556.337 1150.85 165 203 220
-227.43 328.179 1401.48 5 6 0
75.6969 7.48839 902.683 133 148 162
-512.958 -3.56177 1245.53 143 139 118
96.2839 322.134 973.558 248 252 238
-304.66 186.778 1472.1 197 162 136
-350.149 212.896 1570.55 172 133 121
-8.95925 55.9679 862.436 91 109 114
-371.064 344.673 1290.01 254 254 243
-83.4658 35.4605 878.801 178 167 156
-305.133 61.7644 1400.35 71 42 24
119.534 338.901 931.009 234 227 222
-40.839 175.913 957.784 255 253 230
-339.189 257.725 1413.84 174 152 136
27.287 68.9747 817.288 197 200 176
-8.10345 285.748 989.977 174 159 153
-64.3302 -6.30197 1061.43 253 244 237
-295.055 47.9851 1401.92 69 59 55
-465.123 -3.52036 1202.45 69 65 50
-447.768 -23.4951 1336.89 159 142 126
-143.898 115.028 989.577 235 229 228
-59.6932 -7.73261 1083.85 114 50 49
73.8176 115.392 877.005 29 18 22
-22.8017 -7.36519 1005.79 147 137 121
-504.666 214.785 1489.54 239 218 205
18.2769 180.711 933.735 198 198 189
-70.8604 45.9236 912.945 179 141 113
-584.302 158.563 1447.95 160 144 127
39.4561 225.8 938.778 128 130 119
-335.825 54.9975 1447.48 160 122 114
207.785 475.058 1117.48 90 120 143
202.222 247.282 1021.09 159 167 165
237.882 474.39 1145.58 162 185 200
-11.7328 -27.4474 1070.04 255 183 175
-66.8503 164.668 989.168 255 251 239
96.9521 281.293 894.018 249 253 239
234.192 277.617 1084.64 137 121 122
-46.988 0.123418 1042.58 90 92 87
-418.848 251.899 1311.54 181 150 131
60.8075 160.89 876.745 198 193 180
-443.783 -6.54991 1222.68 146 123 90
-468.443 112.997 1276.89 211 176 159
-107.22 213.163 1022.53 244 242 246
89.5767 78.6094 865.698 57 66 62
-358.752 -14.5487 1446.17 155 192 183
227.622 580.882 1189.3 189 212 230
-491.071 55.5959 1261.26 228 196 140
25.0081 139.618 859.671 248 251 242
-328.946 -11.0017 1457.52 49 46 40
-124.614 253.398 1158.99 244 245 246
-300.043 180.719 1496.93 33 8 0
-389.71 229.819 1213.16 159 152 131
87.9199 375.194 1096.18 184 187 185
-572.089 128.918 1380.45 255 249 233
-486.42 2.62928 1257.05 184 169 152
120.682 207.091 917.501 189 159 136
-593.138 332.871 1676.36 152 156 149
-453.514 -21.5576 1318.81 130 112 95
-542.985 189.937 1403.29 157 164 158
4.21388 -58.7651 1115.44 178 150 130
78.7065 465.339 1141.51 107 103 92
-564.601 -18.6893 1056.4 80 79 69
-393.558 60.3845 1368.79 60 30 18
144.008 403.482 984.289 138 138 130
97.6936 148.522 899.813 39 27 24
17.6007 188.38 920.773 237 237 215
-529.081 136.738 1324.99 172 151 129
-71.2884 120.346 949.835 222 213 195
6.5808 -8.59312 993.801 129 102 94
-488.116 539.991 1670.63 136 136 133
106.341 301.85 951.443 175 174 165
23.5226 127.396 870.038 250 254 253
-35.3639 286.22 1063.69 129 95 87
-39.3343 107.654 921.08 83 74 63
-120.816 142.934 1033.27 239 236 219
-251.789 283.212 1617.28 128 121 91
-548.921 189.564 1400.62 140 141 134
-116.631 262.099 1111.51 184 180 178
-43.1762 22.1006 950.606 174 194 201
-14.8259 88.5597 958.712 243 253 247
-2.51452 66.7282 863.843 170 171 149
31.7296 198.209 879.168 169 170 153
-349.742 54.2039 1383.91 200 187 176
-606.341 322.604 1576.61 250 251 240
232.49 497.525 1146.72 65 95 97
-299.857 2.67888 1269.57 142 147 136
68.8944 246.536 900.443 254 255 243
-50.5051 37.92 964.465 51 89 83
165.064 526.39 1094.86 131 157 159
-477.105 46.4162 1265.77 146 116 99
-76.5213 154.477 986.818 238 235 223
-269.555 410.333 1731.6 158 158 149
-572.975 112.021 1361.33 253 243 229
8.78551 127.322 877.083 57 61 50
-456.965 396.56 1399.36 114 116 111
-56.922 174.299 1031.08 221 208 198
144.147 229.982 1028.85 59 31 12
101.469 361.503 976.108 248 255 254
-93.4674 206.967 1067.69 255 249 223
-620.315 96.1726 1422.86 163 156 148
-557.355 498.812 1742.7 87 90 82
18.9467 -13.4737 995.557 139 112 104
123.322 252.919 940.4 183 164 151
204.274 563.095 1147.27 122 147 162
34.4412 140.645 872.149 253 255 240
-91.7089 8.84821 1015.43 204 190 157
22.8674 -16.3318 1023.26 243 205 185
-301.535 322.869 1505.35 217 221 207
-12.7468 278.721 1004.14 228 221 206
-382.823 345.13 1334.54 255 247 218
32.5464 162.414 890.921 250 254 234
-494.645 168.659 1270.98 252 248 235
-467.504 187.106 1357.08 182 152 140
-109.131 232.774 1065.6 240 238 243
-399.767 257.586 1268.25 186 146 124
-615.104 24.7146 1270.57 224 217 205
-37.4351 229.978 981.418 169 168 155
-247.714 193.873 1444.08 120 112 101
90.7018 -25.1353 969.202 54 113 112
63.7133 110.415 863.925 61 67 47
-117.804 36.1775 920.45 42 48 43
33.5546 127.048 860.36 249 255 237
63.9714 113.554 811.162 62 53 44
63.7672 119.034 864.374 133 135 127
-341.315 -43.0495 1448.1 88 88 71
-592.719 94.9894 1291.05 255 254 243
75.8075 76.3266 875.722 59 61 54
-120.363 199.942 1000 255 252 235
-493.546 49.3388 1259.53 162 114 67
-92.2413 208.822 1025.48 255 251 231
-42.4647 192.684 995.108 252 244 220
229.982 248.365 1041.11 223 144 131
-391.565 416.618 1300.72 189 185 181
63.1486 252.58 943.423 252 254 244
-141.671 183.359 1074.56 237 231 231
-123.027 41.4666 988.371 136 141 135
23.5109 123.08 869.887 247 248 238
-621.23 1.36343 1326.54 242 234 220
-455.807 151.867 1286.3 255 248 224
-241.328 252.198 1527.04 85 65 54
137.085 495.276 1107.1 118 147 133
-392.707 -41.7939 1287.76 145 127 110
-470.989 106.535 1275.15 146 108 76
-31.3439 219.424 946.77 197 192 187
-412.125 222.711 1310.68 179 153 132
25.9822 193.308 891.359 193 182 164
-18.0373 -13.3805 989.344 216 137 124
73.8626 124.115 877.338 142 129 112
86.4595 321.607 971.972 250 253 245
78.5862 293.32 935.53 250 255 253
88.6828 141.454 851.411 155 148 143
-669.303 -5.57296 1475.28 231 225 212
-420.559 409.446 1351.08 157 160 155
-335.592 16.8343 1536.22 77 63 56
-282.701 166.654 1410.37 57 37 22
-597.776 209.581 1454.98 159 143 142
-90.6274 15.6128 977.49 203 169 138
80.797 69.9466 864.048 46 53 52
221.693 549.761 1149.04 87 123 145
63.8391 301.558 905.104 233 230 232
-15.5251 240.826 986.175 183 159 148
218.894 558.364 1149.22 178 204 232
-483.685 148.966 1345.49 253 229 210
2.87354 77.7151 956.84 144 164 142
-532.939 159.788 1326.54 173 160 147
-144.807 173.424 1054.46 164 169 158
-1.18932 194.648 902.911 150 150 134
-658.04 72.6296 1409.1 242 235 225
54.5027 384.921 1005.96 216 211 195
-456.303 -29.9834 1332.64 162 141 119
4.55548 372.358 1076.86 247 246 241
-37.7539 122.013 1020.14 229 227 214
4.73203 76.8802 975.548 253 254 237
172.165 177.567 991.779 189 157 147
-318.233 12.1888 1448.86 74 67 56
162.08 177.318 990.393 189 175 164
-228.463 249.554 1446.9 112 97 74
-505.154 70.7866 1257.35 255 249 236
2.09733 211.006 966.874 253 251 225
