494.728 -204.734 1442.58 216 215 201
-7.06656 359.34 1166.97 252 246 246
-59.2936 203.021 1121.05 255 250 213
-69.731 69.6345 1064.76 26 20 16
-72.5122 148.828 1069.01 67 26 14
13.6171 -27.91 1144.65 255 247 227
-50.1653 350.704 1156.95 245 242 240
536.457 71.2065 1496.3 212 206 191
-14.6607 349.276 1138.72 253 255 253
51.9587 -20.6631 1126.44 77 44 30
48.9703 103.473 1185.65 115 67 41
546.799 289.035 1607.68 219 244 255
534.554 -65.0591 1541.77 218 210 190
485.149 153.57 1757.08 216 215 216
-53.1881 64.3943 1161.98 86 44 41
26.0268 34.7876 1228.69 133 91 70
602.659 231.428 1693.25 195 234 255
68.6693 -17.6067 1192.83 117 30 13
-108.485 40.6544 1054.82 250 217 193
-46.1653 373.165 1178.38 226 210 199
-104.267 49.212 1014.65 232 165 135
-4.54195 341.925 1217.55 69 39 32
2.36205 365.06 1250.56 232 221 210
2.26554 -26.2232 1194.86 236 227 211
1.63378 388.682 1222.98 241 234 232
52.5705 82.3297 1134.82 59 19 15
567.792 297.48 1610.62 66 89 96
-31.5456 351.082 1135.29 238 225 208
-1.32622 333.185 1166.09 255 250 243
41.4733 135.596 1136.75 110 65 47
55.077 130.099 1188.98 245 236 200
-50.5199 262.401 1176.96 103 94 78
-14.7814 238.482 1132.55 252 248 236
553.459 227.296 1593.21 63 90 98
70.2634 166.02 1194.68 253 253 250
27.5226 93.9525 1061.35 236 212 208
20.9509 325.338 1251.86 239 240 226
415.552 125.041 1837.66 51 49 40
35.6884 112.929 1134.03 121 93 76
-78.0346 57.7849 1172.99 90 90 74
-11.7064 365.326 1149.45 47 35 30
55.0071 118.317 1188.01 251 235 199
48.9169 94.644 1184.9 251 237 220
128.39 381.305 1269.2 68 73 75
23.8246 98.9939 1149.5 124 77 68
-16.7747 -15.6421 1091.48 252 232 214
46.2728 153.621 1189.18 146 125 113
-55.6825 49.2455 1212.99 113 70 89
588.756 9.76503 1645.03 204 202 203
65.3626 -28.253 1154.12 143 63 35
34.2756 129.726 1184.98 255 247 228
65.9539 449.472 1316.38 112 118 140
-86.4592 155.167 1058.05 116 83 77
-98.4018 98.1659 1060.5 251 230 224
55.4008 -14.4854 1082.13 93 54 35
-35.8832 369.236 1161.52 150 132 115
530.291 -17.0921 1479.95 250 237 235
-84.6625 142.642 1023.79 253 251 251
556.331 -51.1814 1406.11 252 242 242
514.231 -31.574 1476.16 66 55 55
73.3998 167.655 1250.1 255 248 234
73.3087 172.027 1195.72 108 104 94
-33.0178 432.966 1190.57 239 221 197
563.561 207.11 1588.54 200 231 241
533.164 199.577 1517.49 40 77 104
444.756 -291.575 1669.05 210 214 203
497.39 -132.196 1388.51 240 227 223
482.049 144.944 1361.35 23 26 14
557.461 -6.27966 1483.75 212 195 186
-86.1012 93.4007 981.837 248 219 219
69.4834 415.418 1239.23 124 130 131
58.0963 136.085 1190.03 176 122 96
-108.463 35.4856 1054.5 151 96 70
-86.4216 72.1528 1081.91 187 124 122
-91.6695 56.1695 1080.04 173 186 174
558.956 289.106 1608.27 201 227 254
535.317 297.324 1609 52 74 93
-56.3133 265.089 1175.85 255 253 221
49.0214 112.307 1186.39 218 191 171
-37.0385 381.867 1114.22 180 166 154
-56.6012 43.4425 1065.74 139 107 101
49.4112 183.356 1192.08 129 113 105
60.5791 201.597 1310.1 86 64 60
46.3031 159.555 1189.65 247 225 211
-0.817716 249.932 1186.77 116 74 65
-16.1532 429.878 1250.48 226 217 214
540.799 239.649 1781.4 33 60 60
-7.02085 383.022 1168.78 229 229 222
480.906 -266.094 1576.28 226 196 175
-84.8812 196.661 1164.81 255 251 228
550.139 -53.4686 1474.45 251 252 241
-26.0852 256.392 1107.53 254 246 253
559.153 -248.464 1438.68 18 21 17
-6.73576 231.908 1184.32 249 244 239
117.17 36.6129 1191.78 255 246 226
62.2399 407.119 1265.71 124 129 106
502.963 -102.028 1394.07 253 255 255
67.1849 154.089 1193.17 161 124 107
-98.338 79.8455 1059.4 255 249 237
107.711 127.896 1252.88 159 123 85
569.962 -131.823 1460.44 250 241 219
593.183 -149.488 1530.75 225 204 188
-80.2973 264.754 1193.81 191 191 186
508.961 -106.678 1461.85 208 198 187
424.858 -211.667 1507.34 45 44 33
-56.3932 350.768 1181.07 189 189 184
98.4484 149.413 1253.19 187 160 138
585.25 -35.4465 1479.83 251 220 215
575.497 207.087 1588.89 179 211 219
519.237 1.50941 1557.73 171 153 146
4.16633 219.452 1157.38 255 248 241
493.295 -63.8762 1468.7 222 161 141
547.841 -255.148 1369.41 193 221 218
-62.0926 267.733 1174.74 120 124 109
-31.5598 323.754 1152.85 135 120 110
598.159 -48.5187 1552.45 236 232 223
31.3537 138.514 1185.11 208 173 160
618.834 -204.551 1519.74 207 195 180
-13.0004 256.507 1157.2 167 145 139
-28.9218 186.88 1053.55 255 224 197
-42.7281 268.241 1128.49 252 251 252
-48.5943 331.439 1149.57 180 170 165
-20.5716 12.6152 1115.82 196 132 111
-2.13985 409.745 1191.95 101 85 78
-91.9991 57.9055 1062.08 64 57 41
516.983 8.42903 1483.65 110 104 105
570.386 -260.44 1435.43 85 106 96
-6.64041 294.235 1188.45 154 130 131
5.86108 283.94 1213.31 170 146 137
-14.745 269.631 1134.41 143 142 146
717.966 -165.168 1607.23 241 250 227
11.0896 283.203 1191.43 145 103 97
567.899 -246.741 1438 164 159 157
49.3446 169.02 1237.1 159 130 115
556.925 -237.721 1299 169 194 200
610.048 -4.5392 1558.2 242 227 212
-92.2914 468.655 1362.99 171 170 165
714.013 -199.706 1598.72 236 247 230
-41.6068 354.195 1159.11 184 172 166
8.13643 288.999 1191.2 222 173 163
528.032 -99.8162 1464.35 138 132 131
-53.1352 118.2 1090.55 97 95 87
61.4515 195.581 1195.3 154 134 125
417.848 -29.8515 1222.63 187 174 174
51.5671 182.651 1247.14 226 205 193
519.063 -120.988 1459.8 251 248 246
75.2058 361.505 1183.58 210 205 182
509.463 -99.5965 1463.21 123 108 108
-75.7835 208.029 1117.78 255 248 242
-61.905 145.052 1166.26 136 98 73
53.2913 314.266 1226.94 233 229 211
-50.0904 280.81 1151.32 153 126 135
540.987 -124.702 1460.36 249 247 243
678.449 75.4233 1664.27 255 255 228
-97.1471 146.33 1041.07 84 66 56
459.722 -238.96 1590.16 51 47 48
552.776 -218.691 1514.43 156 141 139
664.48 -62.8796 1631.38 138 131 116
131.461 7.63932 1244.94 253 239 218
123.632 206.749 1322.92 253 241 211
-77.3109 217.96 1155.91 181 153 143
-55.2223 474.151 1273.69 125 113 102
664.146 245.067 1792.36 148 169 175
524.523 -69.5452 1391.61 227 213 184
682.613 -175.938 1527.2 238 248 226
593.468 -128.11 1335.71 168 176 148
77.5655 -73.9528 1227.28 87 63 41
-1.00657 84.5668 1124.99 255 238 234
22.7798 -7.48323 1223.97 178 110 90
-25.9781 101.455 1144.32 254 209 193
-51.017 208.929 1123.19 157 114 82
-121.979 448.964 1353.78 49 42 35
113.631 -74.577 1211.88 255 245 223
650.744 -211.071 1599.55 103 95 79
105.148 36.6072 1189.78 255 248 241
-73.1438 261.163 1121.53 109 101 102
470.152 -286.437 1650.28 140 132 125
522.406 -74.7808 1468.7 246 191 195
556.08 1.63699 1611.59 158 147 146
-128.689 500.297 1508.56 185 172 162
160.976 93.6172 1355.93 249 228 206
-47.5062 372.015 1284.71 171 157 156
420.791 -94.2737 1221.99 124 103 89
57.1069 424.031 1237.46 0 0 13
-42.6393 72.8732 1115.85 255 250 239
23.1025 322.65 1196.37 181 172 149
-26.005 198.654 1127.79 167 149 123
481.073 -9.31908 1323.61 143 145 150
-11.0323 103.431 1036.06 255 231 215
533.008 -31.6665 1477.45 245 235 236
130.123 190.355 1322.52 171 127 102
78.0722 15.98 1183.28 190 137 126
101.97 18.8993 1187.62 251 239 226
686.074 -142.755 1534.65 242 245 221
-23.6088 114.267 1066.71 252 232 203
-48.0032 361.334 1110.52 104 92 83
129.076 24.8749 1192.61 253 238 229
25.1668 71.042 1178.42 166 158 156
639.125 58.8362 1658.78 159 160 139
-11.6041 73.0031 1076.46 217 207 186
572.03 35.4868 1478.74 240 235 208
707.68 -10.6756 1564.43 152 152 143
-23.0018 321.346 1154.53 255 239 228
638.293 5.55172 1646.57 171 152 137
-99.605 69.3666 1078.98 245 142 122
-30.0925 448.159 1241.01 139 114 95
64.8914 311.837 1259.96 221 218 205
581.127 -54.7643 1456.66 249 238 231
532.484 -38.9082 1476.07 221 206 205
120.538 69.4748 1087.71 244 221 199
-93.3015 121.947 1063.01 252 244 232
-60.4655 226.289 1113.12 147 130 100
-67.6966 176.862 1167.29 233 209 183
58.8489 297.935 1240.85 253 254 248
-53.6548 94.7688 1115.11 154 159 141
508.685 -2.4491 1481.04 159 145 135
136.416 29.1776 1248.03 176 154 132
732.826 75.2521 1665.94 232 234 206
542.381 -6.19869 1482.78 231 232 233
-38.7179 266.904 1152.62 150 150 147
536.284 -81.9469 1399.59 212 186 167
724.787 -299.786 1652.7 186 188 183
593.087 286.395 1684.54 129 156 150
-75.5181 94.4438 1110.46 212 180 186
708.497 -3.26294 1566.14 222 222 215
-33.1588 305.817 1222.99 243 219 192
-75.9144 92.4126 1055.03 149 89 73
-56.8243 226.804 1076.67 211 178 158
117.373 54.3247 1193.45 228 200 179
435.217 -263.82 1498.39 99 97 90
-31.5489 300.38 1083.83 205 124 112
-110.718 113.07 1103.97 99 32 19
-35.989 298.578 1182.45 252 245 233
-103.78 155.903 1062.73 172 146 130
543.205 -129.872 1378.43 207 191 176
-56.2957 247.451 1174.69 139 65 37
597.56 -1.04206 1469.83 188 179 168
-62.0572 241.372 1173 255 243 220
89.1434 105.058 1083.45 165 136 108
-27.552 51.299 1092.9 251 250 239
681.796 -215.663 1529.73 203 212 192
82.763 158.467 1251.08 191 175 157
666.421 65.8723 1732.02 231 223 196
667.629 50.6016 1658.15 156 154 142
-30.2441 -16.5571 1066.87 217 191 175
143.704 210.611 1266.73 255 240 221
41.2004 79.3587 1132.54 252 203 183
-22.7252 210.086 1200.96 227 193 179
89.0378 155.474 1251.99 137 120 98
36.9252 408.441 1260.6 134 114 94
622.831 -101.186 1507.01 252 247 225
-59.2431 300.254 1177.44 223 216 215
-44.6143 90.4181 1165.85 253 220 206
93.352 294.213 1264.26 243 239 224
-58.9711 234.442 1227.63 246 221 203
468.983 -301.866 1646.46 91 107 92
50.9993 282.878 1172.33 194 190 180
-46.9546 405.658 1242.13 245 244 236
88.9166 21.7257 1107.11 197 164 144
575.839 -193.582 1410.3 96 83 70
125.318 358.6 1244.81 255 252 236
36.9001 402.086 1260.21 183 179 159
633.501 -86.5759 1624.81 244 232 222
541.629 -13.0448 1370.44 138 107 97
-35.5553 233.025 1081.37 180 114 87
-41.3173 306.48 1125.76 172 150 147
119.428 20.5199 1119.83 243 227 218
-24.2138 43.5216 1217.05 255 202 191
-24.4461 27.3565 1164.98 255 211 197
128.906 -78.4345 1327.21 192 172 156
570.356 280.781 1606.8 156 185 182
518.207 -235.364 1371.65 75 104 93
-44.6786 124.424 1063.64 193 139 119
553.306 205.3 1683.92 91 126 120
616.283 -149.61 1531.55 207 183 164
156.908 154.651 1281.82 242 223 198
-59.3076 214.218 1121.74 221 194 172
657.787 290.324 1758.97 134 163 167
521.7 -173.096 1191.29 116 125 109
-3.00104 112.469 1156.01 237 206 177
-59.293 93.5142 1068.4 248 218 201
86.9424 242.186 1456.26 244 214 202
