48.1744 3.49529 1153.48 251 242 227
304.137 -59.8306 1689.49 50 32 25
15.8548 396.925 1126.12 229 218 174
293.823 -78.4335 1597.51 214 190 179
29.6894 506.964 1238.01 227 226 219
-0.456906 289.02 1091.45 51 31 22
-5.88445 283.35 1090.11 232 222 222
280.842 384.949 1874.91 215 234 255
256.084 370.867 1765.37 13 36 41
10.1975 353.561 1052.07 197 175 168
7.159 355.459 1077.01 208 185 176
80.7508 15.6206 1213.21 125 39 11
-12.5554 54.2866 1023.44 255 227 201
-19.2826 190.149 1101.11 22 3 2
-74.9921 98.7214 1065.97 161 150 131
40.6249 -7.78539 1102.92 197 185 178
281.452 20.3729 1615.05 220 205 203
-8.50106 81.4853 1098.5 255 218 195
286.975 -47.1817 1602.76 222 201 191
94.4777 454.652 1274.73 53 50 51
-11.0157 103.53 1036.56 134 44 26
297.607 12.2853 1615.91 88 79 65
-2.71567 182.677 1058.64 152 100 79
-2.88306 185.283 1104.12 255 244 244
366.141 257.522 1976.68 149 145 131
22.4625 400.635 1148.53 86 59 45
74.6168 9.67818 1211.67 152 77 52
12.6296 264.792 1049.17 115 83 64
-62.5059 118.33 1089.42 180 168 156
-3.3304 196.922 1086.09 242 223 200
11.025 73.4362 1043.79 101 113 104
40.842 438.492 1170.14 107 85 62
44.5189 426.949 1206.34 228 217 218
40.4833 278.961 1165.71 244 223 202
-10.7309 67.56 1052.6 213 136 109
13.8146 371.318 1145.56 155 144 142
21.587 431.399 1129.3 187 159 142
16.8131 434.657 1148.77 72 31 26
-7.35388 117.576 975.034 255 230 224
16.0621 374.702 1098.26 52 41 32
49.2328 -65.6246 1734.45 63 60 42
-0.947877 107.32 1127.07 186 121 105
-15.2937 47.331 1009.53 145 113 91
32.186 247.216 1051.16 153 94 83
46.8845 270.658 1197.98 104 62 59
67.2407 -34.1482 1232.3 71 61 45
7.48211 410.486 1125.24 175 151 136
227.921 -171.273 1863.46 65 68 60
99.792 -19.0714 1237.32 131 112 89
-113.501 56.287 991.016 166 147 133
286.546 61.9891 1610.46 117 103 96
44.3867 390.672 1204.53 213 212 205
77.1125 217.499 1221.91 154 139 129
-26.6353 129.176 971.985 85 40 36
20.8634 215.979 1213.4 65 22 14
70.3307 172.945 1195.53 156 115 98
-0.770094 129.597 1082.62 231 201 193
-74.6903 66.4626 999.144 147 122 115
297.293 313.844 1863.1 77 102 118
35.5636 456.477 1205.89 228 195 187
258.329 283.964 1849.89 67 90 88
-30.1717 195.982 1080.75 209 180 165
315.342 277.004 1848.93 121 145 140
40.7586 394.893 1169.22 186 166 160
10.2848 235.345 1090.8 160 126 108
96.6094 -25.1258 1236.15 254 250 229
290.007 28.2653 1617.87 87 72 70
280.083 0.580212 1661.36 195 152 139
-5.70668 199.152 1042.65 89 60 39
26.2583 222.494 1266.68 91 46 24
124.622 289.238 1251.47 101 93 82
4.86345 237.768 1089.9 245 228 214
27.1387 79.2757 1105.11 255 252 251
15.1549 367.984 1143.99 236 231 234
18.3802 314.877 1121.2 167 125 126
59.7697 352.58 1231.93 235 234 209
-138.65 249.153 1156.07 54 20 9
30.1889 360.858 1282.46 255 242 233
16.994 257.394 1191.13 146 113 91
276.521 63.9996 1709.79 157 133 122
70.5081 160.716 1131.3 199 164 143
251.429 -25.034 1592.42 134 108 100
51.22 310.213 1174.91 143 118 111
21.7517 614.398 1266.77 45 64 53
312.822 27.2514 1777.51 78 61 58
-41.6998 169.588 1034.25 88 44 28
9.29461 89.8821 999.957 166 169 164
345.537 324.901 2078.92 199 219 247
70.4559 190.852 1196.91 237 223 205
335.2 -191.179 1650.89 191 205 207
280.671 -1.65968 1600.92 148 108 92
29.088 397.006 1167.05 203 193 185
55.0196 119.21 1188.44 255 244 234
-15.822 43.1464 974.06 239 217 187
32.66 79.3223 1106.13 255 255 247
23.6599 265.499 1013.08 174 164 156
26.193 113.993 1086.65 255 234 215
16.4696 229.977 1109.47 228 187 156
153.585 -115.661 1651.34 13 13 0
35.634 412.547 1130.99 185 173 170
-10.0504 -0.824935 1166 160 167 160
-153.496 87.343 1084.85 74 31 12
-17.7744 276.602 1111.1 237 225 219
62.2072 340.2 1286.87 196 170 161
74.2236 158.39 1241.8 144 97 76
4.3177 12.2468 1075.82 163 135 130
39.3967 325.688 1221.88 189 169 164
305.398 -22.387 1695.75 168 121 114
16.2809 157.75 1074.53 157 129 128
18.2072 157.051 1087.86 166 116 95
77.9352 153.794 1304.91 253 210 190
-21.1402 260.576 1042.58 64 34 29
66.8542 388.599 1327.99 205 203 180
73.2249 143.873 1248.24 201 140 120
32.3032 296.061 1122.49 246 236 226
108.607 213.973 1289.85 185 161 142
279.94 39.6324 1528.79 149 124 119
256.193 -18.1619 1475.18 160 109 98
111.443 147.559 1180.95 76 72 53
-11.5611 2.03391 1162.65 105 80 67
-17.6323 162.94 1127.53 221 210 206
