45.5894 253.403 832.609 222 218 210
32.1564 431.683 883.149 68 68 63
-50.5678 118.424 777.937 216 214 203
7.07545 -43.3419 1009.54 222 224 222
132.818 294.498 917.8 193 183 182
165.958 -13.5687 827.42 30 29 19
85.3972 230.597 879.923 234 204 197
56.349 -15.0449 911.448 248 250 248
-111.357 51.4241 874.33 196 190 184
70.6319 262.088 852.097 172 159 153
56.5315 210.607 875.833 250 239 227
160.571 -13.758 853.583 176 185 180
-181.268 -21.9018 1300.85 49 24 20
-5.44185 -35.743 1007.73 1 0 0
-18.8139 183.045 842.889 217 207 205
-20.401 -23.2266 1005.65 255 247 245
-52.9503 8.5542 963.09 72 83 84
123.986 280.762 906.37 206 227 225
88.0554 -43.2276 967.857 243 236 221
-46.2471 151.85 803.725 212 223 220
65.4893 -20.0941 945.93 101 109 103
-122.758 -24.1043 1441.14 183 169 165
68.3023 472.219 969.822 234 237 232
101.479 -37.3587 935.847 162 162 157
-281.361 -2.46284 1217.61 251 245 222
-52.0816 47.705 836.623 63 90 90
-35.4239 232.518 830.395 226 225 215
-342.585 5.18519 1533.1 255 236 208
62.3677 -21.8759 915.134 62 69 62
-156.447 -18.4299 1277.08 211 196 196
-0.97191 -43.7974 990.633 212 206 201
-311.337 0.963157 1371.3 116 89 61
193.174 163.971 872.144 153 170 163
63.0628 -31.7395 945.098 212 206 200
-80.8582 94.0105 756.169 218 227 219
75.1834 209.582 868.386 229 195 177
171.495 183.883 861.927 191 189 176
-205.101 -43.5309 1444.79 58 35 28
-8.85847 191.26 865.482 55 45 45
48.4002 480.346 970.425 218 217 209
-12.4656 174.814 800.096 204 192 192
-11.4802 40.0192 849.384 109 107 99
-64.0984 47.7685 853.203 200 232 236
41.495 435.971 893.232 123 121 115
152.601 309.215 943.972 190 192 198
238.091 408.41 1054.99 177 169 150
-314.255 -12.5276 1369.04 141 114 94
69.9959 232.397 909.28 85 78 83
210.795 119.38 894.251 60 26 19
-10.9705 43.3791 872.021 210 214 208
-24.8827 12.7973 888.031 123 106 97
-15.7683 38.7573 789.566 209 192 192
-13.669 174.115 789.273 112 105 106
-281.554 -60.1073 1375.04 171 156 139
-81.0165 102.815 772.936 139 147 134
-317.289 -19.2501 1367.4 228 205 182
-40.9535 148.691 779.284 53 66 63
162.714 483.991 1029.09 158 182 207
197.602 166.924 925.584 67 61 55
188.46 156.278 892.919 170 156 146
-246.671 -115.515 1327.61 145 128 111
-95.5293 -66.3339 1355.14 158 141 137
26.3949 437.331 925.524 102 102 90
-294.669 -106.371 1381.52 171 148 124
-68.7266 43.0988 862.509 56 105 92
-242.06 -114.597 1279.8 179 160 141
44.8305 249.881 863.375 190 164 152
-249.787 -21.9772 1316.8 123 128 123
-36.3119 150.174 805.337 37 41 47
158.679 230.057 965.987 32 33 28
172.492 180.675 900.143 82 50 27
119.966 28.458 833.204 184 166 143
-6.09255 115.631 784.77 53 73 70
210.669 284.744 928.673 81 43 31
88.4087 216.334 870.371 203 182 174
78.6917 221.922 879.05 198 204 206
-268.477 -91.1163 1260.81 174 161 134
100.37 -27.3599 904.255 89 103 102
95.4568 242.765 888.992 196 165 156
-267.174 -99.0564 1305.09 161 145 121
16.4402 136.642 840.337 124 123 122
7.3746 -16.4278 1051.96 84 52 56
-2.47364 243.394 825.527 201 176 158
51.4239 -49.795 1102.41 105 54 26
-141.324 -41.9417 1383.6 162 154 148
-117.575 -43.607 1505.08 149 101 104
30.8634 -60.711 1053.8 142 134 128
-62.7159 6.69974 902.867 254 173 156
-320.316 -25.9568 1365.75 144 129 103
54.8648 440.446 912.731 133 135 128
-214.442 -142.298 1434.01 117 99 82
243.952 258.156 941.369 175 144 129
-33.2537 126.393 780.672 83 85 81
41.5318 -63.3149 1076.81 180 174 167
29.3368 239.724 840.802 179 143 125
139.293 205.457 877.311 50 39 40
-101.508 57.9286 846.946 189 216 208
183.913 192.747 945.781 199 173 149
251.977 276.504 956.537 145 120 111
135.152 237.093 877.029 19 56 56
33.7101 -43.7295 926.105 190 137 114
-97.1198 71.4812 794.414 202 229 228
-32.2415 225.055 793.039 121 119 110
85.6612 214.96 857.599 190 170 161
100.771 463.317 1005.67 108 134 131
-13.7392 109.883 790.548 89 99 98
197.762 226.206 915.687 116 112 110
188.604 169.392 893.269 54 61 62
114.333 212.437 884.156 56 26 15
213.655 300.984 963.917 172 137 126
50.3862 441.583 911.153 83 84 77
171.402 176.255 910.496 70 48 35
171.837 301.456 958.263 217 143 133
-127.538 41.7578 914.98 146 138 118
-97.2635 35.9262 887.905 176 201 189
-248.156 146.155 1357.48 224 196 181
-109.769 -37.7604 1287.39 142 111 100
-318.776 -106.242 1358.5 51 39 27
78.2617 -52.6908 965.922 198 165 150
106.052 214.856 872.886 100 71 58
-120.041 -90.4242 1653.41 76 64 66
68.4762 -49.4075 898.94 71 47 37
-302.276 28.1078 1376.85 185 158 134
-320.187 -32.665 1365.15 199 182 153
-41.0462 134.027 786.261 40 38 34
-272.601 65.6472 1317.14 180 155 133
109.921 126.117 833.651 88 41 17
-93.1294 -70.7305 1376.42 71 60 54
-25.5295 111.448 781.818 34 58 53
-207.9 112.009 1097.89 203 176 160
-97.9791 -92.4182 1370.99 79 73 65
-147.421 57.392 911.466 171 174 166
287.027 350.803 1010.76 116 99 84
-5.86926 226.352 775.454 163 134 116
107.423 180.211 883.006 124 57 31
-0.739019 -16.0653 922.232 217 187 170
-278.51 -50.0108 1376.99 129 123 114
-186.275 -61.4776 1403.76 190 167 160
28.317 -60.8858 1009.97 127 123 115
149.971 278.848 894.812 169 144 137
126.13 448.906 962.887 127 178 178
104.416 427.404 960.937 203 210 202
-11.0585 2.02733 918.393 136 111 98
-146.586 -111.276 1544.46 82 101 94
-99.4866 76.6544 847.839 203 246 242
169.864 116.684 889.425 152 124 111
136.752 202.58 887.208 162 157 152
-121.049 65.9063 853.703 155 152 143
-10.6674 9.45129 886.345 173 120 107
112.604 125.678 843.459 111 67 51
-39.6556 4.70835 940.852 234 226 222
-6.37128 207.13 918.837 67 73 70
-94.3626 79.5254 739.377 187 193 173
-0.269044 3.3367 936.597 224 191 177
262.117 391.22 1057.16 86 46 35
163.799 190.533 890.616 123 97 89
193.291 200.911 902.676 139 146 137
98.5356 165.895 860.266 114 38 3
-141.313 -71.6327 1362.5 139 117 105
122.701 338.11 880.933 162 136 129
137.222 492.216 1039.77 48 90 125
109.291 397.944 918.807 175 188 180
-333.637 -100.115 1279.67 205 187 163
1.57611 -0.365841 891.66 165 138 128
172.331 245.426 912.95 33 56 63
120.091 194.658 949.455 164 120 104
-147.361 33.7297 966.884 79 84 71
-119.092 -101.319 1599.12 147 145 146
-9.18858 7.47935 902.201 147 124 110
-346.707 -108.731 1348.93 128 118 96
-4.78769 -13.6132 1033.8 134 102 98
48.896 214.558 816.583 104 96 94
186.004 221.37 914.081 14 39 49
