305.33 -51.1023 892.709 233 230 219
294.565 -31.3146 833.824 244 255 245
429.695 240.367 1007.3 244 244 237
365.316 6.62849 932.426 15 30 20
-485.42 327.349 1185.85 71 59 42
-330.405 119.136 1095.28 255 242 225
212.091 4.42704 951.533 229 214 192
443.194 232.028 1036.88 226 223 221
440.436 258.551 1025.24 234 234 232
236.689 20.9963 955.279 253 244 232
-353.727 139.128 1196.63 249 226 203
-354.329 75.7213 1112.41 255 253 239
-301.826 179.985 1078.43 79 65 54
312.152 -51.1496 893.205 239 241 224
193.132 171.728 1014.7 247 227 224
297.456 -77.841 936.538 237 242 240
-417.056 532.283 1311.21 31 33 30
-278.624 320.278 1176.83 255 247 244
257.106 -61.5782 918.653 163 175 175
182.525 -95.0785 1012.52 254 253 251
-453.933 349.676 1144.28 252 254 251
106.349 -30.3695 936.708 224 219 214
254.187 15.7329 923.868 243 243 229
-329.507 95.9195 1063.22 79 49 39
-254.559 376.731 1157.59 188 186 178
457.334 453.079 1165.15 55 80 85
-323.697 76.873 1020.19 147 114 90
226.364 179.446 1037.37 150 146 149
149.309 -53.1553 974.962 211 203 190
194.367 -107.524 1075.2 255 250 241
-327.999 124.64 1096.38 63 40 25
312.46 344.002 1041.13 32 54 68
240.837 15.3604 970.157 236 220 204
260.225 136.489 986.892 238 225 230
239.015 149.905 963.406 237 225 219
-479.309 70.7415 1092.65 72 53 47
-429.046 166 1118.04 249 239 210
226.541 58.566 970.495 232 227 224
213.802 -93.9349 1055.63 195 188 182
-451.627 439.979 1273.86 39 38 37
-362.555 90.9331 1165.36 190 178 145
-448.324 156.754 1110.63 220 208 189
178.854 -137.215 1135.22 59 48 42
166.575 -116.59 1061.42 59 63 66
135.576 36.1096 979.123 253 244 248
332.34 -57.5202 924.915 229 236 211
-388.566 185.858 1051.84 255 251 239
-431.214 154.69 1116.39 255 248 223
444.196 359.523 1175.79 215 237 231
-257.036 361.791 1155.62 240 235 209
246.976 -63.6331 950.117 193 172 156
175.946 -119.149 1049.12 192 190 191
433.574 548.072 1332.99 8 41 62
-280.016 295.577 1143.22 251 248 232
229.932 195.572 1021.12 101 74 57
215.475 58.812 955.46 237 231 220
418.529 227.457 1021.65 221 228 219
101.285 -31.9721 950.386 194 193 180
425.285 377.68 1234.95 242 249 241
-483.758 348.809 1189.17 224 219 214
-466.468 14.1678 1024.49 236 218 222
-268.644 229.91 1027.14 154 118 100
-446.057 12.645 1005.66 225 213 185
-503.651 374.595 1245.36 64 67 63
274.481 193.832 1005.55 68 41 32
209.778 105.765 942.303 251 243 225
250.413 187.785 1040.86 255 244 240
375.824 455.45 1138.95 229 251 255
253.269 188.392 1023.27 123 99 90
-472.264 70.8457 1095.22 129 108 95
286.271 185.183 1019.49 244 228 212
-419.05 160.86 1121.03 147 116 83
369.327 7.61588 915.144 102 109 108
131.275 99.3291 982.278 253 243 236
251.488 65.9723 973.698 226 224 213
-214.42 320.822 1275.56 38 37 28
-531.928 136.253 1078.39 110 93 84
162.919 157.422 1027.61 198 195 193
171.326 57.9098 1000.26 228 226 222
276.138 259.454 994.631 234 231 204
368.029 465.888 1161.42 54 88 107
140.322 37.161 945.115 220 220 219
342.891 50.5802 934.055 140 139 127
270.303 1.94761 893.658 43 33 23
233.054 14.6331 862.259 136 142 123
-445.209 174.553 1128.22 85 48 37
327.326 412.557 1198.65 88 126 138
302.507 10.8275 896.975 179 177 176
-423.619 195.105 1087.77 252 249 231
-375.973 182.459 1085.67 83 70 50
-277.469 301.55 1144.51 127 103 88
208.587 5.69868 965.956 212 205 178
376.651 127.591 939.75 242 253 233
186.293 20.1023 917.103 200 198 186
-569.061 60.5483 1057.32 236 226 216
-293.781 288.115 1026.3 110 95 81
-348.708 61.9972 914.81 125 90 73
-489.556 329.622 1138.05 95 89 71
311.59 -92.1481 953.251 159 181 176
274.371 -141.155 1057.39 64 63 58
214.161 58.4714 969.017 71 58 42
368.94 6.37652 901.542 240 248 239
284.76 -77.5708 919.737 180 178 179
-403.63 404.74 1224.72 40 44 39
-358.174 14.4622 1058.29 205 185 151
-417.738 30.2788 1015.96 109 73 58
-354.867 158.453 1060.43 232 195 184
392.736 64.5285 952.543 233 245 229
364.68 60.0273 920.124 241 244 228
-445.336 318.531 1143.92 223 219 202
126.305 99.2552 981.578 255 250 237
463.685 378.462 1212.83 52 80 84
226.241 -103.92 1037.4 101 61 32
410.522 -0.27055 1003.74 234 246 221
191.391 132.267 1030.03 255 252 241
-482.326 376.538 1193.12 255 253 251
138.685 97.1791 997.347 109 66 66
312.59 -86.7848 921.107 95 113 116
344.365 367.675 1129.41 210 239 252
-443.138 229.133 1234.44 140 135 129
296.236 -79.6438 904.313 178 192 188
-428.025 183.867 1085.14 232 215 206
-487.322 311.964 1183.21 237 224 208
-439.008 131.361 1061.52 245 229 209
-522.186 122.169 1060.28 123 107 96
-404.303 154.883 1010.18 204 164 156
-261.522 73.7963 1232.47 188 168 157
-307.237 213.459 1127.58 244 232 192
-391.198 58.3793 1026.03 201 154 128
-501.217 125.315 1012.34 218 202 194
430.137 176.527 1019.42 244 255 229
-257.127 367.667 1156.09 154 141 124
270.533 -154.473 1126.3 185 182 164
264.384 -55.2475 889.194 215 227 222
-364.72 383.303 1178.2 183 190 173
-253.796 190.535 1248.96 145 124 115
244.863 20.2774 923.264 192 189 175
268.336 -79.6663 918.247 84 106 106
196.964 243.514 1020.44 225 216 189
200.027 -93.3559 1034.93 212 174 149
314.021 -64.3336 892.323 173 210 205
-340.084 294.761 1156.8 102 90 85
198.733 85.4687 990.303 239 230 205
-385.053 176.932 1163.81 156 98 87
-319.865 321.118 1133.5 234 224 216
-449.789 303.5 1140.68 223 229 208
177.031 -143.669 1189.33 113 96 88
-408.74 27.8308 1018.72 85 30 17
-355.029 252.959 1149.05 98 83 63
147.063 136.56 1024.18 111 95 90
161.845 142.319 1002.23 201 198 210
-317.395 326.928 1134.83 102 76 57
222.778 179.318 974.26 195 167 151
153.909 -77.0493 973.829 188 190 177
-378.145 70.5402 1002.99 216 183 169
302.334 390.351 1194.23 218 243 246
140.685 95.1273 1001.74 222 203 201
249.233 4.33501 922.622 77 56 46
312.344 338.737 1040.79 83 110 135
154.791 44.2605 947.366 247 219 213
254.656 73.2948 944.226 255 232 216
291.977 -70.8958 920.828 223 237 233
-406.2 129.312 1025.6 118 70 52
301.598 152.49 1020.12 239 223 197
421.635 245.455 1022.92 210 222 203
249.279 -108.363 1018.42 129 105 90
204.037 -40.198 947.565 179 180 157
-530.345 271.625 1161.14 141 128 121
421.895 255.71 1023.5 198 209 194
223.119 169.842 948.494 187 152 130
417.384 136.659 996.714 206 222 201
220.985 142.027 927.717 230 201 188
-260.685 244.613 1196.68 161 144 135
205.565 -94.4131 978.255 195 130 104
298.414 -80.8152 988.067 83 90 84
-356.093 5.15913 1031.02 253 245 219
-473.433 278.097 1129.23 96 88 83
271.896 359.047 1119.93 110 128 139
-426.359 129.649 1080.57 245 226 197
206.083 257.254 1061.3 191 194 167
378.059 64.4471 951.326 216 225 219
-293.21 81.3044 1210.24 183 170 160
-357.066 150.42 1059.07 151 118 87
-391.513 209.597 1052.86 174 173 172
-342.61 288.77 1155.57 248 246 238
267.189 75.9046 962.099 210 185 165
-252.521 218.708 1176.91 163 131 114
241.587 138.317 1036.77 254 246 225
278.593 138.712 1002.85 228 189 178
356.622 480.427 1260.05 74 107 123
188.413 247.291 1058.43 69 66 61
167.321 -139.784 1133.5 207 186 176
-260.975 195.157 1229.71 205 170 149
240.834 -118.839 1080.16 214 187 190
-295.902 75.238 1208.88 96 78 65
189.011 -36.9332 895.916 165 161 146
-436.109 19.2551 967.185 167 141 128
156.844 156.333 988.863 116 111 111
-357.515 247.02 1147.82 219 211 186
274.853 -8.32291 938.248 194 180 170
-333.901 371.634 1133.69 93 86 64
367.819 107.783 919.491 225 244 235
349.124 83.161 949.634 187 186 161
-519.899 257.852 1163.53 172 176 177
-555.579 77.7116 1025.9 248 241 231
201.538 54.1811 937.335 206 190 160
150.882 70.2872 983.255 238 240 239
-494.694 267.544 1120.05 255 249 243
-357.274 99.2613 1085.76 242 217 189
145.639 69.672 1009.01 255 249 249
131.042 90.6903 1035.29 234 227 220
152.667 187.945 1048.84 90 81 74
-348.924 -2.41769 992.816 239 219 198
175.774 -148.236 1133.74 85 82 68
375.962 461.238 1139.32 156 191 201
188.792 54.3016 1100.29 202 185 178
176.285 -67.7432 977.09 198 152 129
-319.287 51.6445 1094.02 164 153 136
187.164 115.319 1004.73 117 66 43
-311.131 275.768 1132.13 191 155 130
-404.426 37.9679 1020.67 143 62 37
338.836 312.424 1017.97 239 244 233
-390.122 126.938 1104.4 211 169 160
187.206 118.188 1112.82 233 201 182
-371.26 551.91 1315.72 125 158 144
-336.807 -22.0204 1133.78 149 143 122
-347.587 273.838 1152.93 229 230 218
-393.291 48.1887 1024.78 126 48 18
383.848 98.2996 895.048 251 254 236
319.434 429.191 1148.4 108 150 157
363.785 39.431 918.051 170 178 164
-507.209 250.139 1167.58 216 200 186
-274.783 98.6761 1277.95 157 138 124
-393.232 82.2226 1073.24 188 169 162
-295.268 85.4705 1270.26 127 113 103
397.016 82.9217 908.949 244 251 237
357.249 79.0222 985.19 229 221 205
337.299 -130.868 1007.59 26 73 71
-378.185 99.5577 1032.53 239 200 173
-314.235 113.387 958.523 255 246 237
-257.139 88.4956 1185.68 32 18 6
170.622 242.813 1097.06 70 58 46
304.687 190.643 1021.76 169 154 139
317.218 102.822 968.742 237 223 205
378.729 60.0804 920.971 201 220 192
-425.148 92.9089 1171.93 147 88 78
156.139 -123.034 1133.66 44 40 31
375.335 20.5041 934.217 246 250 232
324.397 99.518 1020.41 230 218 193
-250.953 100.558 1224.49 142 132 131
-555.74 140.569 1080.87 248 253 255
430.704 209.756 970.12 69 63 46
296.879 80.9663 965.371 222 205 174
-258.72 -6.64446 1171.14 91 91 92
-243.802 242.666 1201.44 75 55 38
-276.044 3.87721 1268.03 60 51 39
152.459 206.325 1011.79 68 55 42
-475.476 277.03 1086.58 253 237 231
-586.554 85.1135 1086.42 253 246 244
-380.376 403.328 1244.15 211 212 192
-546.242 326.411 1344.35 147 151 150
412.251 294.98 1064.18 197 195 165
-227.076 179.213 1255.57 40 21 12
-515.035 306.178 1255.01 90 84 79
425.833 209.874 1004.33 173 186 175
126.134 -85.3384 1045.61 89 85 80
220.628 150.864 1034.95 221 202 210
238.933 -108.242 1017.42 148 112 95
-503.787 63.6638 1045.55 236 208 208
-359.872 107.266 1085.5 223 172 151
307.786 179.399 1008.39 183 169 150
367.571 475.094 1155.89 224 254 254
-343.166 1.6329 1111.65 125 120 95
-339.075 230.302 1083.05 107 88 63
206.383 90.4802 991.551 219 204 176
-341.907 223.516 1069.86 178 173 158
-364.091 21.3887 1077.4 176 154 107
-430.311 205.256 970.48 112 95 81
369.12 48.3274 935.898 214 220 197
186.021 97.7098 861.785 238 216 190
257.459 218.912 989.767 255 254 242
393.963 384.558 1109.1 101 129 138
-435.037 207.771 1119.37 137 131 126
370.087 39.9371 904.107 204 231 209
242.134 2.05503 921.782 164 145 132
-203.519 199.247 1264.75 93 81 66
286.429 200.425 1019.96 205 167 147
-396.35 185.226 1005.49 179 182 177
-280.959 21.5 1208.7 136 112 99
337.983 268.856 1055.36 244 242 211
381.617 77.7341 876.159 182 188 169
-341.61 210.018 1068.85 174 177 163
388.652 79.2027 973.116 236 243 229
-275.101 28.4656 1313.4 73 61 54
234.984 149.13 1077.61 195 178 178
-324.826 157.226 1125.68 195 173 154
401.482 424.804 1139.72 201 224 225
-377.205 551.051 1313.62 193 216 205
-335.691 -10.4713 1085.07 126 114 101
382.2 163.413 944.461 203 222 200
-357.798 63.4415 1008.91 186 118 98
-229.225 332.043 1127.29 129 128 118
-265.886 104.716 1255.75 102 90 88
-329.34 51.9211 1001.13 254 236 190
394.927 227.325 962.489 116 127 113
-517.626 115.396 1082.04 251 231 216
265.876 249.035 1150.72 248 245 212
286.897 2.04551 925.909 176 168 164
263.146 -4.78443 923.298 66 49 38
-342.001 369.803 1250.51 217 148 113
-259.27 82.1039 1220.44 87 79 75
-465.886 263.146 1079.46 241 220 216
399.034 187.541 947.961 199 208 192
-542.773 229.358 1150.46 132 131 103
-424.259 367.789 1156.63 186 193 166
-378.788 79.8754 1077.71 255 230 227
-475.094 389.732 1197.43 111 111 96
350.324 361.509 1106.09 119 151 155
241.105 108.528 945.82 245 224 215
239.912 52.2025 1114.56 201 156 126
-581.109 118.484 1110.53 248 243 235
-444.766 229.547 1036.64 173 153 148
379.992 128.523 921.23 174 189 168
245.853 -45.4637 1043.49 118 105 96
-455.188 291.637 1086.14 255 251 245
220.638 50.2168 1045.88 225 180 145
191.463 137.411 1030.36 254 251 251
-411.884 139.935 1048.12 204 171 145
302.088 -4.67708 895.856 44 39 43
252.381 268.75 1006.44 103 89 59
-338.852 126.462 1046.05 250 228 220
-348.125 137.404 1091.19 198 138 113
-504.792 298.284 1158.19 252 236 240
391.128 447.264 1157.74 232 247 246
215.989 194.749 1036.88 174 148 136
272.104 -58.1788 820.572 137 154 137
-335.465 189.428 1079.73 254 250 227
-414.011 480.431 1243.55 175 175 166
241.462 238.917 1055.98 233 229 221
-311.35 38.8301 1237.43 150 114 88
417.028 280.559 1035.65 173 195 165
219.981 125.471 958.963 162 123 112
-549.113 72.7875 1028.11 158 146 136
-243.234 199.878 1268.78 101 62 45
212.943 50.8849 862.683 119 100 79
-461.332 256.285 1270.13 255 244 235
299.456 204.309 972.779 244 245 232
-482.633 265.826 1124.4 172 164 158
166.774 -45.3106 910.864 137 133 115
-511.845 84.4765 1032.47 255 254 255
288.203 54.927 929.665 190 167 152
347.938 363.284 1103.13 111 142 153
-484.189 77.1641 973.132 252 248 238
-324.267 143.169 1035.56 230 200 177
-288.353 66.1176 1155.03 98 78 61
-265.969 215.063 1248.13 105 64 45
250.577 -157.867 1141.36 94 81 70
311.717 124.16 1005.37 181 177 168
259.855 178.844 1056.5 70 39 37
253.417 268.826 992.617 212 196 166
441.637 248.192 1050.52 168 176 162
416.199 24.4174 952.293 193 207 181
417.697 218.338 950.213 130 124 113
249.594 114.367 975.418 165 139 132
-340.982 154.114 1094.5 203 165 130
202.012 140.198 1031.91 255 248 236
245.159 238.371 1065.19 191 184 162
259.913 211.994 1106.38 164 162 145
