38.6014 173.977 1263.07 34 27 20
-51.305 424.782 1147.93 255 250 253
-50.2689 40.7489 1161.05 255 238 231
-73.5256 420.374 1099.44 247 227 202
242.233 -45.4119 1596.16 200 180 165
-46.5235 462.62 1217.37 255 247 245
-52.6423 30.6955 1212.3 234 223 213
-102.322 344.575 1169.83 68 55 52
-65.2047 50.2841 1181.69 248 239 229
215.539 35.2551 1589.06 250 220 193
-185.544 488.677 1154.88 177 174 167
-16.2829 257.941 1238.66 97 88 75
-166.612 154.504 1093.67 210 187 174
264.64 -12.9487 1792 217 205 202
-127.806 236.349 1129.58 234 209 196
-119.409 215.704 1062.58 48 38 33
211.212 -16.6849 1467.49 59 33 26
245.81 56.9762 1702.91 227 216 207
-66.6593 523.277 1187.65 213 207 198
-78.3788 351.614 1150.23 118 107 106
-17.0721 469.013 1159 136 144 148
251.68 421.18 1850.13 218 250 255
126.25 -101.347 1488.63 82 84 84
-67.7367 430.929 1130.64 118 111 88
-113.963 139.108 1059.72 165 76 55
-36.9139 463.734 1118.6 173 173 163
277.786 117.101 1816.65 68 54 50
-21.5243 46.6978 1167.47 130 86 58
-85.9551 287.08 1159.42 114 81 71
-19.4486 174.225 1231.6 146 114 92
310.078 101.114 1936.39 254 251 250
-67.7634 465.073 1131.96 196 182 169
-82.4497 434.838 1179.03 172 163 161
-103.961 237.685 1067.12 89 69 65
-48.9825 403.251 1180.31 124 95 89
27.4585 106.328 1293.98 138 115 99
296.183 287.245 1856.53 113 116 114
231.283 323.269 1852.18 96 115 115
-22.5033 168 1230.43 255 244 222
-4.00254 246.038 1240.45 154 156 157
-109.111 226.529 1102.18 119 88 79
-46.087 418.611 1182.53 255 253 249
281.921 91.3207 1715.99 250 249 247
299.971 121.535 1919.23 211 211 200
-78.6486 319.676 1123.23 128 124 112
-26.7434 525.982 1283.55 44 54 52
-77.7552 345.145 1102.55 139 135 131
-46.5376 493.636 1219.59 109 95 81
215.586 12.5946 1683.77 143 122 112
-110.064 140.404 1155.11 129 109 106
-52.535 483.763 1217.52 195 195 190
236.566 226.937 1507.11 99 91 73
-179.553 137.742 1089.51 167 147 140
-29.9551 490.224 1193.02 152 162 160
-103.63 134.106 1061.7 169 142 123
-96.8598 119.729 1148.72 137 132 138
-34.6027 394.223 1243.53 224 215 201
-15.5358 190.084 1179.44 244 214 195
-112.417 178.987 1040.25 119 81 87
291.716 380.826 1984.19 124 141 139
-108.887 160.438 1062 255 250 250
276.446 71.8779 1808.95 100 89 86
-118.902 91.5675 1055.97 255 248 225
-176.138 168.891 1193.89 180 158 151
-85.2773 477.504 1209.44 104 111 100
-9.76239 53.7941 1373.3 207 113 70
-49.2948 449.152 1304.47 225 200 194
230.041 103.689 1709.8 183 164 159
-236.763 293.815 1186.67 59 25 1
-34.6569 179.929 1228.72 255 241 226
-55.7001 312.392 1152.35 255 228 223
-83.2829 397.744 1104.66 200 185 181
368.186 -196.922 2000.69 177 189 185
-6.5792 230.98 1266.79 162 132 113
291.596 -30.6859 1794.06 227 221 214
-123.994 86.2365 1054.55 161 149 124
-90.6587 129.144 1064.22 136 136 131
-116.483 331.798 1165.8 188 169 165
-60.7357 385.55 1128.79 167 138 139
-61.2498 317.086 1202.25 153 113 104
324.525 82.4359 2062.07 207 195 196
-123.222 118.507 1124.26 216 157 135
135.114 -99.7415 1650.13 118 126 111
-56.3563 449.004 1185.5 246 242 234
-113.613 178.389 1107.54 140 56 36
-118.865 150.584 1104.67 254 232 214
-68.5799 372.959 1200.32 255 252 238
-15.7472 40.9827 1168.18 137 75 47
253.781 407.867 1763.66 123 151 155
204.083 395.284 1836.05 72 105 108
280.544 169.16 1731.65 245 236 211
-73.0678 52.0557 1157.02 228 199 187
-114.795 180.256 1181.63 188 140 136
280.034 44.3991 1705.81 251 245 228
-72.8221 439.304 1082.34 44 28 25
201.058 372.316 1964.83 84 112 109
-15.5438 184.189 1179.03 181 142 121
-122.113 325.54 1164.12 182 163 165
298.024 22.6179 1804.77 237 201 176
-118.959 104.696 1056.71 239 163 137
-20.7313 241.859 1258.31 246 242 225
-41.496 339.618 1157.57 166 151 144
-19.3617 248.481 1237.29 249 241 225
183.099 448.168 1978.13 46 65 63
219.29 299.568 1574.45 137 162 161
-127.961 227.243 1055.68 153 132 112
-102.967 109.904 998.276 135 108 93
-64.6635 163.403 1117.46 255 234 217
214.159 90.0415 1463.14 159 152 144
-104.233 124.998 1051.57 224 225 222
292.915 325.308 1864 152 171 171
-83.8739 196.176 1115.27 207 174 161
-54.9497 342.041 1260.83 139 118 98
-85.0524 326.239 1141.22 195 195 192
263.075 89.8304 1809.21 73 49 44
-82.9972 193.293 1069.36 161 136 125
-184.536 110.496 1086.64 131 117 107
-80.1168 398.331 1125.55 168 166 168
11.0054 13.6081 1281.17 255 248 238
-34.6593 167.643 1227.75 222 184 173
228.606 459.807 1770.49 125 141 136
-88.1446 228.463 1091.99 246 231 200
259.359 -116.28 1746.97 185 171 162
-27.2078 183.792 1176.55 182 136 109
-104.167 114.483 1050.59 230 210 201
270.657 330.031 1826.79 201 227 242
-44.3318 301.451 1153.99 228 179 174
-166.319 121.923 966.634 129 110 105
-78.7197 178.864 1062.27 140 123 114
244.248 13.811 1607.72 254 228 210
-56.1099 147.762 1167.79 254 251 252
-36.6488 440.528 1068.86 255 251 237
-7.19583 33.853 490.917 30 18 1
-44.9123 317.46 1203.49 156 138 122
-42.4986 317.245 1261.27 151 122 123
258.824 21.1995 1705.49 153 109 104
280.872 177.973 1733.43 200 195 176
277.053 416.272 1879.41 137 167 169
-62.0653 317.779 1177.49 246 219 211
-81.133 190.716 1115.54 254 213 209
223.373 14.6118 1507.52 220 171 155
-9.50965 29.3212 441.637 101 94 69
256.919 -113.494 1772.17 74 68 57
208.499 269.501 1494.92 133 160 163
-69.9457 558.865 1351.31 115 101 86
-87.1546 326.774 1073.94 236 240 242
-51.229 383.285 1142.8 255 245 227
260.697 358.812 1835.31 157 180 176
327.296 47.1712 1805.83 182 175 161
295.81 -39.5724 1514.73 186 185 162
-45.6746 348.835 1150.27 148 121 111
-79.7986 122.401 1085.57 169 156 150
3.02734 211.369 1217.8 190 177 163
-79.3499 310.792 1173.19 180 143 119
-12.8721 506.164 1254.27 33 36 47
-88.8325 125.392 1054.97 250 247 242
-76.7988 376.973 1080.45 226 230 232
-10.1154 270.696 1240.91 216 191 187
-220.573 292.442 1125.5 117 52 21
377.344 -43.6722 1882.42 253 253 232
-180.542 425.692 1369.37 139 115 108
-135.057 183.091 1102.87 119 55 51
-117.026 47.4501 1255.61 106 77 56
-46.3674 363.116 1099.08 224 206 185
3.83878 19.9427 1197.65 255 247 220
355.875 -39.7888 1804.06 195 188 163
-41.7103 304.911 1178.22 255 249 252
-58.3597 360.039 1206.59 171 161 157
