-56.5845 40.8184 1187.15 255 239 226
-84.2992 410.005 1126.08 232 220 220
-78.8074 427.48 1128.01 247 231 214
136.942 291.443 2043.1 216 217 200
-67.7845 494.212 1132.81 244 246 237
42.7168 187.49 1369.11 96 86 72
-53.0028 455.642 1242.72 232 215 217
261.303 -117.09 1772.25 168 163 157
-54.1476 433.732 1148.28 72 51 48
286.246 370.701 1980.67 73 99 106
294.023 67.9026 1926.54 67 66 68
-127.239 225.097 1107.07 16 16 9
-56.2886 30.5918 1243.43 236 219 206
-73.3756 457.328 1210.69 110 80 60
25.6805 81.949 1327.91 252 239 226
171.527 -126.492 1918.84 38 42 37
-189.659 524.396 1242.78 228 226 223
166.443 -127.374 1827.26 66 70 67
-53.7734 389.551 1066.04 81 73 68
24.1396 87.5705 1291.33 166 151 137
-109.079 216.466 1064.84 81 60 49
237.363 54.4448 1613.98 213 208 211
-41.6966 99.2122 1167.25 152 108 98
-22.4485 223.974 1234.69 122 107 93
-124.192 145.347 1103.05 142 54 31
17.9168 484.256 1290.13 58 60 58
269.085 -16.6725 1792.1 227 206 195
-99.9144 118.514 1106.87 107 115 116
-73.647 341 1176.1 110 98 104
-34.5629 510.729 1249.61 41 48 50
-90.7255 278.164 1168.54 255 238 217
252.123 -121.295 1769.69 30 20 18
-96.4515 286.638 1167.73 135 119 107
-46.8729 437.359 1243.13 217 203 193
-10.1789 233.777 1238.1 255 252 246
318.02 531.272 2303.47 70 87 100
-90.5282 208.108 1164.14 117 74 58
-85.9746 395.052 1103.8 202 185 175
349.092 -56.8663 2057.42 255 246 231
-118.992 113.08 1057.09 249 208 187
258.853 323.537 1742.1 119 151 165
318.193 295.351 1967.66 85 89 78
-96.6543 360.015 1171.89 100 97 99
-22.4275 245.657 1236.31 255 248 235
-7.09343 240.12 1239.23 129 116 104
-68.3244 47.3052 1101.87 252 240 225
302.547 377.471 2098.82 56 85 98
-54.4482 481.478 1238.07 236 229 230
-120.53 180.413 1180.21 210 146 137
-114.044 160.634 1060.8 255 252 250
-53.8122 407.351 1204.57 144 130 117
-89.6337 324.939 1120.96 142 145 144
-34.6047 388.217 1243.09 244 251 230
-72.3731 483.309 1182.61 237 230 223
-109.777 312.67 1093.04 231 223 217
274.746 106.154 1811.87 140 126 126
-53.3644 372.4 1109.58 200 162 156
-51.223 380.605 1142.36 238 226 211
-84.1412 319.658 1121.92 238 229 213
275.859 49.2732 1706.03 139 138 126
-56.0778 486.732 1243.61 115 105 105
-124.018 92.018 1054.8 255 244 223
-113.869 115.827 1058.37 117 85 66
-17.2752 209.208 1293.74 255 245 223
121.909 -91.7008 1835.18 14 14 1
222.53 7.04857 1688.35 200 173 163
-7.58901 235.617 1298.17 174 151 128
-28.3829 508.145 1250.87 135 145 150
-88.841 483.988 1324.18 137 123 124
-171.962 156.488 1114.51 176 158 153
-49.5401 490.492 1218.59 94 70 49
-17.5885 258.312 1260.65 110 84 70
254.636 78.7066 1621.27 226 210 203
253.542 32.2848 1698.86 220 192 181
-82.5425 315.52 1117.13 102 84 47
-62.2024 501.849 1242.95 254 250 239
-208.252 545.566 1300.1 67 67 58
-44.6544 345.93 1182.81 163 134 129
-100.427 276.605 1116.05 240 234 222
284.029 36.6006 1704.61 249 236 216
-52.3792 324.079 1204.78 115 63 63
-47.5853 408.195 1185.43 230 211 197
322.246 38.8658 1802.88 255 247 239
384.345 114.16 2218.13 119 99 95
-137.706 180.527 1102.04 97 62 47
351.603 -189.296 1882.56 181 199 199
291.232 -36.3444 1779.71 236 228 228
-225.565 275.156 1122.16 64 18 9
5.29086 223.068 1299.94 145 131 118
183.758 342.281 1818.01 36 64 71
178.485 274.669 1831.46 58 66 66
-19.4339 187.006 1232.51 254 235 215
215.456 80.2171 1438.89 88 90 84
-125.645 83.4567 1030.07 142 128 104
-100.574 329.829 1118.76 141 136 140
-106.202 131.846 1060.94 158 128 126
11.6002 114.341 1205.84 208 164 156
-23.7037 183.094 1289.99 191 154 127
-115.461 138.08 1078.69 228 181 155
-111.648 211.043 1064 211 215 215
-52.939 343.268 1236.17 165 154 154
-94.8609 232.229 1114.85 242 229 202
-38.9992 174.37 1198.34 255 240 229
-17.2841 202.716 1293.17 162 119 98
-59.1969 347.911 1179.72 170 150 155
-22.4396 233.25 1235.39 224 191 173
307.188 12.0601 1794.09 255 252 226
-23.7128 173.419 1289.12 255 245 222
-130.242 113.764 1140.96 192 106 80
277.538 431.217 1882.22 119 138 144
10.847 105.474 1143.45 218 201 197
14.6435 125.997 1293.1 255 244 235
-85.2962 414.1 1177.29 170 162 158
-11.307 271.357 1263.42 165 146 125
-102.466 125.788 1147.6 167 156 161
304.913 90.8086 1817.59 249 242 245
-86.3601 107.835 1109.17 162 159 164
-88.2905 391.954 1275.26 197 166 163
324.511 17.6458 1898.72 254 244 230
-87.5281 497.579 1259.48 118 107 100
-84.664 292.799 1104.37 240 224 197
396.813 181.768 1949.1 248 248 229
-97.2718 135.079 1108.5 162 154 161
-119.021 186.792 1106.74 213 191 176
252.193 32.093 1797.2 209 158 147
-126.672 106.882 1100.1 234 171 145
-148.514 213.04 1101.39 109 65 48
206.098 21.0495 1404.56 146 115 105
-67.7126 229.564 1170.7 118 85 75
-53.7722 313.109 1128.2 178 163 162
347.521 171.304 1838.48 255 255 224
-101.554 223.62 1133.7 164 120 105
-27.4 219.751 1100.18 176 166 154
-79.719 4.96533 909.684 115 152 154
-78.6144 300.312 1122.15 231 184 153
-124.425 184.008 1059.75 124 98 101
-23.8782 1.53552 1272.54 120 102 73
-111.474 43.3812 1174.96 90 63 39
-58.1026 315.471 1079.26 249 244 249
160.885 -158.076 1817.58 213 189 186
-72.1378 404.592 1175.05 161 129 130
-102.741 309.73 1068.79 172 172 171
305.449 6.92707 2119.27 102 68 60
-84.4838 99.1758 1021.74 232 232 232
-71.3278 170.341 1191.02 244 211 182
-53.3969 360.148 1181.68 170 145 142
-84.611 180.596 1102.15 156 133 129
-75.8408 411.296 1281.47 254 222 210
226.225 101.44 1698.61 81 57 50
221.291 408.531 2254.8 120 140 160
-79.0045 156.258 1163.23 243 213 190
-66.7776 536.308 1296.46 139 116 106
273.246 -29.9099 1790.55 149 139 129
200.502 87.2348 1528.39 141 117 108
-43.9542 272.456 1121.36 254 247 245
-68.3946 219.566 1106.35 156 120 102
-84.7813 187.999 1164.1 133 107 98
27.6941 155.29 1298.66 209 183 167
404.325 351.189 2355.01 224 231 227
397.417 191.92 2056.24 213 213 194
