323.74 -58.1458 1011.76 234 243 241
-526.326 447.292 1128.87 238 232 231
-566.608 458.482 1171.23 62 64 61
334.081 81.4351 968.797 50 56 43
361.916 136.828 1029.01 30 45 36
416.856 218.082 1075.1 248 255 249
-190.322 -447.978 1853.31 246 248 243
-534.513 416.775 1122.31 250 246 230
233.297 -76.9963 1001.16 248 210 199
231.624 9.02295 954.126 252 251 237
302.87 -61.3871 955.585 53 59 54
139.152 -99.2453 1046.61 254 241 236
-526.279 664.103 1343.59 45 49 44
391.97 201.59 1015.28 248 250 247
-391.335 290.972 1059.65 255 250 244
240.053 56.8063 1030.99 255 252 235
80.3621 -25.1351 983.812 31 34 28
-521.798 418.703 1088 241 239 236
-301.895 229.264 1094.51 214 185 173
154.231 -55.0476 975.782 209 199 182
-469.641 185.416 1008.35 220 200 187
274.492 451.62 1194.67 48 71 84
-521.885 128.959 1031.95 97 77 70
-352.781 110.062 946.441 255 236 212
340.002 460.031 1181.81 37 69 94
172.42 164.475 1011.28 254 242 240
231.457 145.268 1017.06 229 207 204
-282.333 418.566 1074.68 235 232 225
-478.969 210.093 1006.95 229 214 200
-438.47 205.829 992.99 73 43 24
295.465 -106.272 998.148 207 236 233
320.223 28.4198 963.889 225 225 213
397.083 180.489 1030.74 247 255 252
413.305 226.798 1060.21 242 248 234
214.632 8.99385 952.317 210 192 179
-506.337 678.27 1353.07 194 199 197
231.47 59.2461 1047.69 250 236 219
272.493 -16.9486 991.357 43 27 23
-625.364 129.856 974.374 230 239 230
401.296 194.641 1037.74 226 238 236
-452.506 244.879 991.416 247 237 218
208.169 44.1552 988.812 255 251 236
-105.276 -314.968 1266.75 237 236 225
-376.967 354.03 1097.07 227 213 197
-311.883 314.648 1055.98 244 214 204
204.667 101.66 1010.28 242 234 206
-326.017 228.876 1002.19 244 232 203
131.604 161.746 1063.65 250 242 236
184.029 -50.2895 979.591 206 201 182
346.582 4.55407 964.261 243 255 252
110.481 91.0652 1016.09 255 252 245
89.0372 -29.139 1005.58 170 170 173
397.411 165.788 1034.64 245 252 243
125.668 33.8534 977.745 247 246 245
413.343 175.06 1073.17 231 238 233
282.832 -99.1188 985.64 162 191 184
135.411 67.6475 1007.39 228 232 227
-300.657 353.814 1063.13 253 245 237
218.951 174.587 1032.91 249 234 224
-433.128 204.635 954.183 214 184 162
-431.191 209.615 955.174 120 86 64
-498.531 390.318 1080.8 201 201 184
-475.859 183.283 978.278 244 215 203
115.792 33.8233 976.388 238 230 226
-560.721 414.134 1149.12 134 127 123
-583.83 507.005 1232.06 111 107 99
-318.016 154.523 899.667 255 250 243
297.658 -72.9614 954.235 187 190 187
-369.729 295.43 1022.14 120 109 105
-325.994 280.322 914.03 240 238 231
-309.665 322.971 1057.46 121 89 68
-405.876 107.747 919.222 72 30 17
-352.912 310.218 1001.24 108 100 91
248.4 -74.6652 984.508 203 194 191
-468.965 241.433 1012.51 231 226 208
-521.353 68.6867 982.587 215 206 185
406.897 221.797 1080.07 210 221 211
-421.617 69.9748 863.916 82 45 32
327.924 54.7322 1001.98 255 255 233
-581.447 338.736 1094.56 115 114 108
179.096 247.447 1098.44 73 73 58
-335.942 355.668 1010.56 132 120 103
-439.754 252.963 1087.57 120 107 85
-381.673 342.565 1094.84 224 220 209
-348.689 320.742 1003.53 118 107 92
234.69 51.662 1030 107 79 67
81.5583 -78.2602 1040.26 61 55 47
-328.781 322.726 1109.17 98 69 49
148.473 53.2464 996.926 252 254 253
241.014 105.628 1034.46 146 92 93
-504.178 66.5243 969.754 212 203 181
247.269 376.368 1137.88 77 104 113
343.231 436.816 1155.65 235 251 255
271.346 -94.3612 1004.21 226 238 230
-375.839 264.122 1017.82 148 112 103
124.693 -54.9232 972.13 197 190 160
-512.267 457.522 1096.85 64 58 47
-363.977 133.318 1293.38 218 210 193
-523.62 311.812 1046.35 108 81 70
-447.661 74.7476 966.199 140 87 66
-544.679 310.744 1055.11 220 204 193
-435.321 119.732 994.379 187 137 111
376.471 108.64 1027.24 242 252 238
385.596 41.8229 1063.85 244 253 252
134.006 180.775 1045.36 236 236 238
310.729 338.337 1097.39 80 113 126
-377.079 414.533 1029.09 121 130 121
102.168 -111.502 1040.74 216 220 209
-288.851 316.239 992.502 248 239 217
-346.586 154.11 977.84 219 197 174
206.212 -53.667 947.22 197 187 183
-483.475 60.9003 927.356 201 193 173
267.089 397.589 1270.56 77 102 104
176.287 -99.5956 1051.2 223 217 205
293.649 415.09 1276 204 238 250
-460.232 58.1784 851.821 231 218 203
182.43 160.949 1005.39 206 175 154
-359.777 369.899 1076.27 195 177 156
181.338 36.9625 966.862 222 196 175
256.077 130.395 1056.85 93 64 60
171.207 11.2796 947.531 184 179 156
232.616 119.987 979.293 254 231 232
231.074 3.07619 1026.03 245 221 207
128.294 97.1228 1050.71 247 224 216
-392.049 253.918 1085.37 255 239 226
-507.57 328.688 957.097 131 114 110
294.665 -7.30908 959.047 208 194 186
80.8661 -35.6972 1021.93 93 87 70
199.084 -48.8011 946.791 31 31 24
-344.952 127.917 1117.95 173 172 161
343.249 -21.5067 961.94 203 205 195
173.951 -100.587 1032.73 139 98 80
360.311 25.0755 1002.44 247 255 234
-353.977 38.2823 953.545 186 170 145
290.335 406.031 1221.31 36 72 86
389.529 157.241 1053.48 223 238 231
270.403 -94.6041 1022.03 85 102 90
276.441 194.532 1106.47 74 59 52
217.822 51.7539 955.322 231 219 204
153.042 146.162 1065.96 166 163 165
-600.943 141.496 926.826 252 249 241
-355.066 123.391 1138.91 68 54 45
273.003 259.26 1070 230 230 207
144.224 39.8167 1077.18 185 170 169
-341.242 328.971 1278.72 183 166 156
359.888 480.06 1260.12 63 113 133
-316.974 242.632 992.303 246 239 207
211.089 51.5001 1027.19 255 253 243
-346.336 162.524 1261.19 140 140 133
296.45 191.691 1152.89 242 216 211
-389.433 137.65 966.562 255 235 245
-391.517 132.734 965.762 248 231 240
352.373 35.2679 982.019 200 211 190
-532.714 539.003 1256.25 213 213 212
-520.714 441.746 1091.56 128 127 123
-331.623 366.717 1012.8 136 125 99
217.615 125.906 1032.89 234 218 204
-609.392 161.446 955.865 241 243 236
-312.552 350.318 1088.81 137 108 88
360.51 -3.57525 981.285 246 249 243
165.735 -94.4492 1050.34 194 163 157
213.938 168.509 1049.87 78 47 52
350.133 -15.4925 976.475 246 252 249
399.506 174.861 1071.81 214 222 211
-335.926 358.635 1162.43 226 199 183
-290.932 410.926 1099.78 240 231 208
-312.906 240.492 1180.06 190 168 153
-432.421 77.4013 895.093 250 236 232
225.661 133.825 1034.38 180 154 147
248.633 -65.0608 985.288 188 170 170
280.543 237.147 1151.98 111 106 103
269.979 -16.6007 923.383 62 60 64
-331.178 314.103 1107.91 249 224 217
-340.587 194.706 1005.36 241 233 202
365.082 40.0993 983.367 244 251 228
-381.646 42.4283 945.704 144 120 86
89.121 -108.699 1039.13 215 205 194
-275.694 379.893 1219.74 45 47 29
-381.676 413.887 1027.69 229 229 220
191.895 102.712 986.854 254 248 229
-462.283 78.9921 961.614 64 36 26
312.324 -1.57544 942.292 140 136 130
-433.387 96.6946 971.97 99 38 26
293.887 -119.321 1004.86 144 136 142
-383.679 37.6926 944.912 211 194 169
-413.241 210.504 1051.63 70 44 28
205.052 167.036 1033.68 169 162 166
163.473 327.421 1102.03 98 87 79
202.73 155.031 970.792 60 15 15
123.838 144.768 1021.05 203 196 190
398.045 89.1058 1049 241 255 233
-393.252 164.342 1031.67 250 230 197
210.624 187.872 1035.56 120 91 73
255.852 4.29633 1112.35 136 116 105
251.236 383.23 1184.13 55 76 85
124.801 -45.5674 972.757 162 164 138
-596.108 194.531 1021.19 112 75 74
358.445 3.65265 979.062 244 254 254
143.725 97.4821 983.798 207 165 148
128.332 76.077 1017.82 134 92 85
410.129 232.843 1081.41 241 255 249
116.385 -81.0915 1005.86 71 71 70
125.705 70.9951 1017.14 251 238 236
84.3374 -110.819 1104.26 196 188 172
275.183 -103.802 984.586 150 176 171
144.641 153.896 1039.54 191 188 194
-514.091 386.67 1002.45 90 84 67
269.053 184.023 1042.66 152 139 123
-537.68 356.805 1096.27 105 108 110
190.217 -5.05473 948.722 184 166 149
358.979 338.372 1190.91 204 209 193
-565.493 640.096 1376.52 185 188 178
-346.872 249.602 1073 234 217 188
-380.122 201.301 1038.03 177 138 107
-435.99 268.982 998.938 164 163 155
186.926 160.928 1051.19 222 195 201
-540.428 121.983 873.985 226 225 222
369.461 -42.7056 962.06 103 112 98
-562.192 191.765 953.542 232 209 194
359.486 -47.3071 960.977 233 246 215
-601.76 507.045 1224.88 218 217 207
-471.818 519.418 1128.42 181 181 173
174.037 108.742 1007.14 238 207 189
321.946 -14.5328 1070.76 171 173 164
389.578 108.742 1028.18 223 238 226
-362.967 188.58 987.04 252 207 190
-511.781 69.0443 905.337 230 220 204
248.369 184.943 1098.45 155 123 115
191.066 -120.57 1119.34 201 172 161
-513.935 341.285 1033.87 119 119 118
-572.698 237.291 989.891 207 196 171
-583.536 311.454 1040.09 169 155 144
111.427 97.0504 979.235 240 223 215
-378.369 154.282 906.544 205 161 142
-362.149 47.1122 1221.99 62 61 50
-606.519 137.759 955.038 148 145 138
-502.679 378.672 1078.09 201 205 180
1255.97 -134.154 1800.53 82 85 83
115.256 53.18 1014.55 252 251 247
-520.389 69.9308 941.176 220 211 207
382.762 389.88 1204.23 132 155 154
-562.463 366.895 1105.58 250 240 230
364.861 35.2693 982.837 235 243 214
201.972 135.947 1031.49 125 89 85
120.366 111.104 1058.91 212 205 184
419.624 84.3003 1069.43 238 251 228
324.634 29.9093 999.799 194 195 179
249.158 163.589 999.259 194 163 156
-357.016 85.9517 1112.08 154 132 120
-581.673 135.115 946.737 119 128 121
186.888 102.601 986.298 185 171 145
-540.86 360.519 1044.65 255 221 211
407.651 340.319 1223.9 246 253 250
197.759 260.195 1123.36 203 204 178
-605.918 194.465 971.837 242 247 247
170.64 322.767 1060.71 96 82 72
-552.018 318.511 1006.49 173 165 169
-570.032 340.015 1048.74 164 132 120
-377.198 42.143 1029.46 152 138 113
-305.811 269.756 1132.9 203 175 157
120.809 96.2874 1017.92 162 132 131
-538.288 140.396 920.928 251 249 234
-523.587 123.805 916.804 255 248 234
387.475 94.2318 1048.53 234 252 244
287.529 76.8285 999.676 234 224 195
-367.161 79.161 1186.5 218 195 181
-635.449 265.332 1082.58 240 233 215
-610.999 181.96 968.336 240 241 236
-379.61 47.1208 946.498 219 198 159
260.278 125.344 982.64 246 209 189
-432.448 220.558 966.683 212 198 174
-181.615 -383.603 1226.34 79 81 77
-330.244 273.308 1214.93 98 69 52
-395.526 120.126 960.616 239 229 217
232.561 155.886 948.362 126 100 85
-550.683 345.217 1056.73 243 230 213
400.693 75.1896 1009.62 252 251 247
-476.274 303.682 1032.31 148 149 150
-602.589 204.741 974.316 251 246 246
329.114 -77.9983 956.257 145 143 133
-539.3 447.206 1085.26 145 144 138
-406.994 170.819 984.389 114 76 62
-338.505 169.73 963.884 247 219 182
130.663 53.2851 1016.76 238 230 236
192.509 127.499 989.482 209 187 190
139.086 -52.0428 907.736 163 150 132
-376.164 167.799 993.514 245 220 207
204.267 115.647 992.694 136 110 96
-157.089 -521.202 1631.04 72 83 79
-549.944 110.7 894.125 255 254 238
-369.747 183.068 996.264 255 247 225
337.313 264.674 1142.19 252 252 228
349.537 -23.6613 950.812 207 224 200
284.666 64.3164 1014.42 248 235 216
121.154 77.6398 979.589 225 185 180
-530.987 168.52 943.51 252 228 209
-553.336 123.607 974.394 236 207 191
402.221 -19.9053 1079.27 199 203 185
-357.64 135.791 1194.49 119 100 96
-460.893 386.824 1093.59 249 252 232
-393.288 106.13 964.163 184 129 105
-324.808 541.553 1120.41 16 43 28
-475.772 87.5137 999.883 111 88 90
402.027 125.742 1052.25 237 244 212
240.879 169.564 1079.51 70 54 48
-370.992 77.1789 1221.24 167 143 132
-592.404 132.2 933.516 241 248 242
266.519 67.3185 1052.42 138 120 94
195.869 -148.792 1136.54 159 148 131
268.421 364.088 1165.46 118 146 144
-505.262 127.525 860.959 242 225 214
218.939 -149.035 1139.21 51 57 53
-540.069 304.495 1180.08 126 124 112
121.014 62.9643 978.765 229 217 215
-567.521 255.535 993.851 240 212 185
466.641 478.497 1332.94 120 138 141
308.224 411.126 1307.89 206 232 233
117.324 46.0014 939.941 187 186 187
-485.157 305.243 1029.37 165 165 167
170.162 111.367 1109.75 228 197 183
295.547 -143.744 1084.79 43 97 99
-353.166 153.794 975.847 234 194 163
331.912 18.7927 929.559 213 219 195
-546.001 221.295 916.37 248 248 234
-281.088 395.184 1167.86 174 183 174
292.252 430.92 1194.77 132 159 162
-624.779 132.736 1040.62 150 155 154
-575.994 396.801 1086.38 254 253 247
-345.625 131.07 1258.35 156 149 137
217.082 223.583 1051.98 141 130 104
202.705 -112.607 1053.15 143 135 108
202.071 -16.8032 984.001 152 126 111
-377.334 167.054 969.348 241 239 241
405.439 146.825 1054.13 212 233 216
269.825 90.4037 1036.74 254 241 221
-491.416 273.809 980.532 231 227 220
277.725 -79.739 919.518 118 147 144
-489.484 154.41 979.094 170 166 167
216.937 -145.62 1169.7 155 142 132
103.752 65.2512 976.445 227 216 215
304.05 -76.9391 942.26 52 61 55
-526.267 166.913 987.415 220 196 187
395.361 373.518 1223.32 113 147 156
-492.976 106.521 855.947 252 243 231
201.303 92.288 1028.7 204 192 157
315.451 67.0546 1001.73 236 238 210
-416.608 67.382 1064.57 110 81 39
-358.149 299.283 1070.89 189 150 135
-337.343 271.877 1076.75 243 232 202
-524.214 331.958 1028.72 171 149 149
305.162 87.3517 1019.34 225 218 189
-530.3 164.192 985.769 141 133 125
406.591 342.228 1204.26 132 160 161
-442.106 102.45 840.402 251 224 209
-480.066 368.023 992.897 253 254 242
-491.237 268.824 980.153 185 186 182
198.955 95.4061 1046.98 221 207 172
425.754 312.768 1240.22 150 149 128
145.651 180.292 1110.66 250 250 247
-326.772 141.693 1149.1 130 116 111
188.22 136.15 1070.37 255 252 255
-518.743 76.1368 984.659 222 191 180
180.838 125.25 1028.06 207 195 195
351.766 67.8572 1043.3 193 185 165
-372.404 129.682 952.325 181 151 129
169.383 -111.091 1091.56 94 46 31
190.509 106.796 1068.75 235 225 186
186.063 78.3635 988.256 189 165 138
362.074 -87.4332 1004.16 218 224 206
278.043 135.745 1021.29 191 165 149
260.447 7.49852 992.003 176 165 147
146.978 127.209 1023.48 185 171 159
290.356 340.993 1097.42 144 181 194
272.572 255.927 1011.09 229 208 177
198.6 -69.2506 979.822 102 108 99
186.653 -109.289 1032.63 168 136 115
112.565 -43.1099 971.319 152 132 108
-499.354 501.955 1144.59 168 172 166
207.337 102.519 975.094 236 161 139
-323.685 266.197 1159.35 118 94 80
198.824 -57.254 980.721 119 114 105
-410.105 -590.329 1710.07 101 105 100
186.486 236.243 1018.31 207 208 170
-405.54 281.836 1009.88 248 241 228
304.707 346.584 1141.66 126 165 174
-345.318 86.0552 973.984 163 154 141
-380.711 44.6985 985.743 147 134 108
286.432 248.895 907.33 211 209 207
-558.531 242.172 953.286 235 217 188
-383.338 58.0977 969.539 142 129 76
-443.445 171.299 972.997 180 131 100
181.704 75.895 1002.35 203 179 157
-423.461 62.6138 948.065 182 139 113
-377.672 58.8388 947.562 240 223 185
-291.977 230.709 1133.54 54 21 8
-473.094 306.857 949.028 255 250 253
