-238.406 349.563 1080.34 240 240 237
534.926 7.69701 1234.62 255 247 245
-172.363 137.531 1046.19 255 243 220
-182.124 106.197 1042.22 255 238 214
-228.784 332.608 1064.53 229 220 208
-159.735 173.686 1070.1 255 249 237
428.593 -102.21 1163.15 253 246 250
-224.901 -15.3851 1003.9 225 217 191
-268.718 350.438 1054.94 60 45 35
-310.458 55.539 945.639 33 8 11
-195.17 260.188 1068.42 71 59 59
407.89 -39.1425 1169.19 255 252 251
-56.3276 371.087 1181.33 52 43 40
473.575 -201.79 1064.04 185 172 164
402.781 -98.1163 1115.28 255 247 242
-301.36 198.715 1016.43 225 211 187
464.794 -86.2233 1202.04 252 252 245
-212.617 52.0855 991.057 77 30 29
-92.1457 182.385 1044.75 85 37 26
-194.174 106.472 997.994 240 205 191
-235.982 307.98 1061 219 211 199
-108.817 136.849 1060.61 73 25 15
-214.148 -10.1368 966.869 78 55 33
-307.504 135.451 1011.47 55 44 41
354.68 -154.231 1062.82 173 173 165
-239.306 374.488 1064.43 244 244 242
-200.178 40.6975 955.459 67 31 27
-76.3226 34.4836 981.225 251 244 216
-201.921 228.604 1022.08 123 106 112
-185.241 162.155 1063.72 56 39 22
-248.695 334.742 1105.55 68 60 51
-174.792 127.084 1045.07 251 217 185
-192.207 126.56 1040.87 69 34 17
-288.064 263.043 1023.29 116 120 122
-207.884 47.242 991.956 220 181 175
-74.4036 53.6618 1021.37 255 246 238
435.503 28.8763 1230.4 237 228 227
-197.057 -15.4487 918.703 213 191 168
-83.6412 28.9528 1080.74 255 254 231
-212.537 42.2916 990.618 33 3 3
-302.19 67.803 987.666 61 57 47
459.401 33.4252 1181.5 243 216 209
416.389 15.8572 1176.16 250 241 240
-231.19 324.366 1063.36 217 194 182
-240.866 351.542 1039.64 63 48 38
-114.392 415.706 1197.42 217 221 224
376.451 -211.305 1146.46 209 177 170
-266.491 251.664 1028.43 83 66 58
623.566 -213.282 1198.78 173 189 178
461.221 -84.1184 1076.96 254 252 234
522.841 332.355 1357.82 45 73 77
-213.337 301.724 1066.55 224 228 207
416.651 21.6864 1176.84 83 70 70
-172.323 130.655 927.548 245 213 196
-181.838 163.345 1022.9 215 196 176
542.862 266.441 1398.62 216 240 254
-158.514 1.89981 979.556 127 82 58
-169.848 288.695 1076.73 109 103 83
-77.4643 45.4178 1062.02 254 251 226
-251.835 373.518 1107.54 95 79 76
-93.0404 53.1645 1059.24 248 220 178
429.532 50.7831 1210.66 220 213 210
-339.111 57.4994 958.532 225 223 211
-182.527 143.966 1002.46 113 83 66
-124.317 154.719 1058.15 100 75 56
-237.604 241.557 1056.02 103 50 40
-269.379 290.034 1008.25 113 106 98
-161.025 0.621086 962.414 201 170 155
-294.271 277.083 1042.81 110 103 95
-212.577 47.1885 990.837 127 55 59
-316.177 146.39 968.883 118 100 110
591.959 324.559 1332.9 68 90 111
-191.265 132.561 1018.6 184 159 147
412.438 2.93084 1205.08 223 200 199
-160.934 152.192 1007.81 47 27 21
430.469 -65.0796 1167.79 230 227 229
-268.705 451.267 1177.43 26 30 25
-98.6709 200.661 1066.17 255 253 231
-345.551 100.525 974.749 254 250 239
446.842 -174.227 994.726 218 217 220
542.329 259.293 1397.34 200 234 242
-209.867 319.175 1085.41 189 181 162
410.886 -39.9946 1150.64 248 244 241
434.156 10.0499 1176.92 209 202 207
-240.103 226.878 987.78 211 166 156
-329.795 153.572 1023.63 101 82 77
445.525 -136.368 936.248 194 188 184
-327.168 143.538 965.744 230 234 230
-310.13 55.6596 929.039 120 83 92
-164.015 272.344 1012.25 252 248 227
481.704 -7.13548 1130.76 240 226 219
586.969 -136.785 1118.85 36 43 32
-287.607 269.62 1068.73 252 234 230
-247.711 80.7729 983.794 249 234 231
-252.655 289.268 973.018 68 37 41
-116.704 37.5939 1029.32 247 216 214
-296.073 368.711 1121.11 247 244 234
-233.331 217.768 1054.23 251 241 230
-270.844 268.22 1146.24 210 174 169
-180.15 178.762 1046.47 218 205 189
414.54 -26.8029 1202.78 140 135 105
-256.835 265.321 986.131 255 248 246
409.021 -88.6968 1082.99 234 213 217
395.132 -78.9251 1116.88 255 251 245
491.818 -33.4662 1175.62 255 239 233
-82.5985 21.7946 1059.53 255 252 220
634.819 192.496 1388.22 245 246 233
-260.441 323.682 1012.65 207 196 177
-309.34 194.888 991.235 251 254 234
-345.922 81.0108 957.656 251 231 214
767.364 22.9748 1391.88 225 233 218
640.914 190.07 1383.1 174 182 171
476.751 30.6753 1184.5 222 208 195
-273.69 253.772 1026.65 173 143 136
-12.43 396.828 1291.64 74 62 55
438.393 -9.94193 1127.63 255 249 231
532.965 -155.731 1102.74 70 59 56
424.805 -59.3263 1168.08 91 83 84
479.309 56.1896 1332.87 73 70 80
-61.8906 101.004 1068.53 235 226 194
-237.668 -9.04677 982.208 160 140 129
-67.795 82.6909 1086.49 248 241 220
426.134 -173.323 1011.5 43 40 31
-181.765 191.528 1066.97 87 64 48
-113.616 50.3212 1054.69 246 232 206
-240.149 273.971 1036.3 141 148 145
-64.4211 86.7098 1025.12 255 250 228
-255.866 339.766 1074.5 170 168 161
-247.482 264.264 1079.24 239 230 222
471.518 -87.5033 1120.74 215 213 196
-132.246 209.673 1059.17 254 249 222
712.576 5.18169 1296.35 211 218 211
-281.625 315.591 1022.55 240 230 226
713.795 18.0551 1298.44 214 222 201
320.562 -238.012 1284.37 182 186 168
552.433 35.2666 1239.26 249 225 212
-149.465 184.687 1072.86 150 140 124
688.679 80.83 1254.45 207 211 190
544.543 37.9889 1276.25 216 194 188
-286.287 77.8939 992.153 237 229 216
-317.011 346.513 1167.02 248 243 247
674.354 -45.3711 1229.81 213 235 207
-273.118 305.425 1074.64 255 235 219
-69.6712 56.0421 1064.26 233 228 226
-167.307 399.993 1156.76 65 61 40
-186.424 304.512 1090.3 148 141 124
680.858 -4.33134 1238.41 242 255 235
-246.867 -9.03339 979.953 192 180 158
-258.208 44.7942 941.852 255 225 213
-111.11 191.9 1129.68 192 194 190
-290.898 55.9438 934.055 251 246 232
631.721 -142.49 1165.88 215 225 212
407.542 105.112 1152.61 138 134 109
464.315 -37.2473 1155.64 255 228 193
-203.463 -12.4074 954.001 88 55 44
-297.254 253.04 1065.12 93 67 48
598.312 -88.6749 1160.08 243 244 221
-236.547 400.275 1113.63 51 37 28
-262.427 304.378 1027.09 98 42 44
-157.243 156.635 1028.35 217 194 178
-331.356 129.016 963.916 240 239 240
-222.625 524.997 1198.54 42 42 35
381.385 -67.8577 1117.06 206 182 173
549.46 -193.494 1062.97 177 195 188
-51.4058 151.786 1073.56 249 235 214
560.671 -41.924 1368.68 253 240 230
-295.638 96.4692 1033.36 254 245 217
-250.383 272.448 1054.71 144 130 123
-177.037 118.051 982.23 171 131 112
647.712 186.636 1382.99 239 248 235
-117.31 257.448 1022.03 254 254 251
-153.753 -10.2225 980.14 87 19 3
599.986 380.554 1600.5 137 162 187
683.883 66.5961 1248.86 211 215 200
-307.26 130.349 900.873 254 252 254
-92.9889 0.596572 976.332 249 227 182
489.719 -195.335 1142.77 186 187 174
-258.313 56.4424 942.286 255 248 227
-143.308 30.5425 1005.82 194 152 133
-166.423 310.351 1125.57 200 182 164
-302.486 167.862 930.11 230 233 207
-156.324 187.388 991.071 136 135 126
-54.0343 135.7 1072.13 246 240 216
-162.996 92.3184 1004.51 124 67 32
616.857 55.762 1129.23 114 114 104
-310.815 72.2733 966.969 132 138 133
-67.818 104.204 1087.42 233 221 205
503.097 247.232 1350.7 80 117 116
-120.187 272.947 1087.62 165 164 161
-290.767 48.7635 950.418 106 89 85
484.952 -99.6342 1166.85 229 197 169
-187.981 306.328 1073.36 154 138 118
325.036 -188.696 1145.21 76 81 70
-320.77 373.887 1194.39 193 192 188
381.757 108.966 1486.52 45 44 32
-153.581 349.013 1018.79 192 182 153
407.492 -47.763 1168.15 255 248 247
-93.1597 92.6049 1061.51 250 222 189
-233.805 516.594 1194.6 64 62 55
610.15 50.0924 1344.18 170 155 135
-314.598 267.69 1061.11 110 121 114
-300.763 69.2304 912.868 95 95 87
-50.9593 139.338 1050.36 200 186 168
-286.923 221.084 999.186 117 75 50
-86.5279 162.89 1112.56 239 225 216
696.539 -140.489 1266.11 208 222 194
-301.999 246.829 1018.72 226 238 224
449.907 -90.9281 1165.92 190 173 168
-122.499 420.458 1268.34 83 63 40
-111.349 292.141 1114.15 255 252 246
-344.814 67.0249 976.244 75 63 47
578.378 -133.9 1071.97 206 216 207
-82.8241 111.164 1064.77 148 86 55
-335.56 116.94 962.192 222 212 211
-341.441 77.7868 947.583 158 90 64
438.278 33.385 1179.89 194 185 189
521.346 99.3253 1255.61 252 255 248
406.825 -62.0914 1166.41 241 238 240
-228.226 520.463 1196.58 128 126 119
-37.2115 217.653 1147.23 242 218 195
-205.766 76.6531 993.849 177 155 149
-295.532 96.5576 972.162 157 105 85
-144.872 1.7139 946.76 199 101 73
-152.602 4.59034 1021.15 248 192 162
461.23 38.2216 1237.67 193 194 204
446.233 36.3682 1181.55 217 221 225
-304.646 255.2 1063.18 201 194 179
425.925 31.8956 1131.22 242 241 239
688.491 -118.773 1268.45 244 255 237
-259.275 101.311 960.953 242 178 159
-359.283 80.2703 1037.04 144 102 83
-249.658 258.781 1026.84 190 200 196
-69.1178 340.303 1216.14 190 88 51
-120.274 289.286 1088.71 245 243 228
410.254 0.947878 1059.91 241 246 246
567.411 175.639 1257.44 148 150 135
-158.05 128.294 1024.64 146 94 55
-270.379 -111.035 1200.37 30 29 27
-354.245 59.6265 954.348 91 58 50
-248.258 296.744 1014.29 183 118 89
-329.175 292.644 1131.28 142 137 140
-36.2154 240.747 1243.16 226 206 186
480.312 -128.101 1162.95 150 147 134
-91.8184 40.8851 1017.18 197 150 104
-59.2735 109.034 1069.53 244 236 225
617.63 4.24842 1138.2 234 244 242
404.879 -22.6373 1221.56 167 130 120
431.41 -247.717 1236.63 176 152 139
405.954 -16.0477 1171.69 90 87 60
397.764 30.4697 1084.76 249 251 250
-101.866 83.6353 1017.34 244 192 180
-309.301 238.919 1060.95 109 82 54
403.79 -76.2249 1117.81 249 248 247
-137.736 208.898 1036.3 236 230 209
-273.896 86.3108 939.587 246 192 171
446.208 114.015 1156.36 203 207 176
367.759 -77.6815 1041.6 166 149 136
390.478 -77.541 1076.58 161 163 169
-342.707 76.6958 977.184 218 176 158
431.973 27.5387 1178.74 123 119 119
402.185 -48.7365 1120.74 201 187 182
-328.958 275.746 1130.48 236 240 233
-39.8705 206.433 1125.15 230 213 199
-83.8099 152.178 1058.49 247 218 183
464.736 -248.965 1308.51 182 140 130
-254.742 630.081 1432.37 134 133 132
-191.092 365.41 1076.36 143 151 121
491.407 124.367 1258.35 212 216 182
-64.7433 211.104 1120.13 204 166 158
-286.431 55.856 951.733 180 168 150
