289.094 -49.627 1687.07 255 249 236
-4.05278 53.0158 1319.41 152 40 7
-34.499 30.3903 1159.07 94 73 59
-53.0133 452.495 1243.71 255 251 248
-44.8849 38.4748 1189.71 255 248 240
267.031 407.079 1765.43 42 74 88
294.571 56.244 1810.31 255 249 242
-68.3493 538.789 1244.65 203 204 200
59.1762 185.653 1388.32 67 56 43
-79.5906 444.126 1181.17 244 216 202
-108.409 223.288 1111.87 102 72 61
-47.1011 28.0765 1245.51 237 220 207
-86.4423 446.409 1235.65 249 255 255
-78.7099 348.125 1125.4 144 128 135
309.921 450.492 2005.08 222 248 253
282.046 335.35 1764.08 86 114 109
-46.8839 434.209 1244.08 247 249 247
-67.8868 338.481 1178.12 127 123 121
-88.196 416.71 1177.83 234 211 207
-49.6257 378.032 1131.52 212 188 170
-67.7351 414.019 1130.91 238 227 216
279.624 -14.307 1692.35 221 205 202
-51.9869 463.949 1186.81 141 136 136
-68.2687 454.253 1240.33 185 182 167
-16.4031 172.072 1232.5 146 109 82
-15.5131 211.489 1181.37 162 135 137
286.982 106.493 1720.45 145 128 135
-61.6962 47.5593 1159.28 150 128 106
329.288 119.406 1923.76 231 212 220
-140.768 243.904 1179.12 208 186 166
25.4058 505.811 1356.78 70 72 69
-108.73 113.555 1059.67 99 73 59
-10.8644 206.536 1295.57 255 247 223
-62.0412 321.008 1233.51 115 79 70
-49.9398 418.312 1242.47 124 108 99
-102.523 229.346 1046.36 96 63 53
-16.4115 165.937 1231.99 255 244 221
-40.7509 359.771 1240.91 128 100 103
-121.396 115.403 1102.18 226 170 147
244.144 8.83474 1692.83 157 132 121
266.162 77.682 1535.62 249 234 231
-81.787 127.613 1160.96 106 107 90
176.416 -117.966 1654.02 95 93 88
168.383 -105.793 1655.21 62 65 55
-195.87 543.403 1305.06 48 48 47
306.673 269.044 1756.09 112 113 106
-46.5484 487.673 1220.37 139 97 80
-1.14563 232.941 1300.06 164 129 126
-45.6309 395.868 1146.68 255 250 240
-13.2215 255.62 1239.75 159 150 148
-94.5565 211.569 1086.55 110 81 64
316.986 89.5292 1721.51 255 249 248
-83.7681 270.647 1143.34 226 209 177
-96.8682 117.719 1148.86 129 126 122
-118.908 89.7031 1056.05 255 244 225
325.258 -135.349 2009.38 159 146 136
262.508 38.1479 1702.11 221 196 173
-121.882 222.549 1108.76 47 27 23
-0.958 231.34 1240.54 253 243 234
154.281 -93.362 1863.89 31 26 2
-111.088 217.612 1110.92 238 240 240
259.647 321.386 1858.2 94 114 121
-16.6867 238.1 1205.42 240 226 214
-13.2794 487.708 1227.8 222 231 230
-118.953 100.144 1056.65 232 159 133
24.1032 -111.969 1624.5 69 64 46
269.76 -9.58747 1584.85 252 249 252
387.618 46.3272 1940.69 121 106 102
338.396 75.2483 2012.47 148 135 128
-107.27 156.272 1040.16 246 251 248
306.475 428.745 1888.56 108 128 135
-102.333 342.008 1170.45 81 80 81
-28.6415 171.352 1196.13 252 237 220
-135.05 177.949 1102.99 66 32 19
-65.5107 440.033 1025.07 122 107 90
-169.283 150.979 1115.32 162 134 122
-82.6983 190.933 1090.78 173 145 128
-8.19212 210.308 1360.79 134 95 65
-118.976 105.389 1056.95 133 56 28
-56.3071 345.177 1181.09 158 139 139
355.605 -176.707 1752.37 188 209 211
2.14826 240.803 1241.93 182 174 173
-112.461 172.596 1129.54 113 46 31
-29.9963 395.731 1272.73 247 247 238
-59.82 328.187 1147.36 255 253 249
-91.8671 132.756 1109.91 134 136 135
-99.7041 36.3961 1172.53 95 78 65
-81.7386 110.358 1159.69 122 121 116
314.876 -49.6816 1690.68 226 202 184
323.839 -32.8186 1799.96 243 243 240
315.149 36.3307 1623.05 255 243 239
-214.415 505.676 1255.56 170 160 136
-85.3077 411.04 1178.19 156 132 135
267.693 219.67 1495.4 117 107 89
-94.3255 532.19 1212.41 152 148 137
-102.935 40.3817 1201.94 96 61 48
350.614 132.276 2213.58 209 204 199
-41.5314 481.27 1168.47 150 158 156
357.708 46.1422 1935.22 252 246 230
330.175 89.5995 1723.47 188 171 166
-110.976 270.213 1006.94 180 157 147
260.752 -114.949 1668.37 61 47 31
-34.7823 105.713 1253.51 167 124 109
-87.3337 249.78 1028.95 235 234 216
-16.3258 230.676 1237.18 252 242 224
-80.4786 499.959 1239.96 76 41 30
-101.637 257.51 1135.66 255 247 228
281.57 -24.748 1691.46 164 142 135
-91.1502 28.4731 1203.65 175 179 187
-99.1422 310.72 1096.12 243 243 241
-29.9645 424.595 1308.47 246 250 220
164.614 88.4453 1788.61 43 47 17
-103.363 131.155 1097.24 174 147 136
-89.5315 271.735 1118.89 119 111 88
-49.3491 453.427 1121.26 133 100 94
12.0583 88.6508 1005.11 255 246 219
276.037 -117.151 1587.3 88 77 61
278.973 15.2622 1533.45 205 179 154
300.41 -166.525 1670.89 100 116 115
-22.4809 196.478 1233.16 199 155 134
-11.2547 -0.754852 1275.18 120 91 78
-461.777 -134.456 842.42 133 137 131
-89.4262 229.791 1116.51 241 226 201
30.753 253.005 1329.62 189 156 151
-101.684 40.8364 1610.18 67 41 49
-106.181 121.512 1060.69 142 117 105
-75.8692 292.099 1123.05 175 138 111
288.683 336.702 1866.65 137 165 180
186.617 -95.6787 2190.48 36 33 10
-231.107 285.251 1188.42 83 31 11
-85.2803 471.512 1210.2 154 141 122
-4.66203 259.979 1210.1 179 153 130
-67.9637 403.574 1181.71 176 185 186
11.7579 220.38 1301.79 168 157 142
-119.11 136.881 1058.74 150 45 30
-153.468 152.663 1097.07 79 45 32
-64.7508 165.755 1167.53 252 219 206
-85.6299 296.006 1249.74 123 92 72
-78.3978 183.048 1116.08 189 159 147
-449.169 -90.2974 857.155 145 153 146
-15.4503 0.631811 1193.47 83 73 81
-84.4123 316.954 1127.61 130 123 99
260.39 97.4253 1714.28 159 148 136
-87.8025 340.038 1198.87 253 253 238
-466.905 -138.91 844.292 17 17 11
-45.5474 352.904 1401.02 255 249 242
-123.962 76.565 1054.16 234 210 185
-127.84 158.081 1198.55 226 197 177
438.822 -206.282 2130.28 93 108 96
195.081 -162.21 1858.5 201 168 150
359.063 92.9805 1828.85 197 173 159
-86.0063 246.938 1027.66 248 238 214
192.382 99.1731 1997.67 130 133 102
-113.459 137.534 1105.41 226 150 131
202.865 4.79978 1326.95 185 165 155
-74.8496 7.75966 1204.62 38 58 66
401.585 394.973 2294.3 151 174 172
363.961 -143.192 2016.78 84 73 60
-8.89812 518.661 1309.45 103 113 113
237.615 59.9086 1615.53 118 97 87
-73.8293 5.11838 1262 101 130 127
431.932 184.211 1955.03 241 242 216
20.5823 428.665 1169.97 181 177 177
-24.2954 18.2421 1192.78 125 91 62
195.479 410.635 1840.65 40 62 56
39.3746 129.015 1440.4 175 164 149
-84.6127 44.7999 1129.3 161 132 114
-126.417 261.552 1130.32 173 132 106
20.6103 112.415 1207.65 200 143 119
-46.8563 340.664 1238.29 196 190 181
-32.8988 146.703 1110.65 205 182 163
-38.4332 270.136 1123.05 248 237 227
-15.2973 140.158 1091.78 206 160 138
0.287946 532.461 1356.76 75 71 77
379.764 -57.4971 1972.31 233 211 191
-73.3099 153.821 1164.78 252 215 196
20.2507 118.07 1235.51 254 237 206
-116.343 184.204 1107.69 174 164 147
-532.543 -42.504 727.048 3 8 2
-140.325 479.249 1145.85 173 162 146
-122.312 183.759 1081.31 132 124 119
347.21 -7.8844 1704.35 251 249 221
-211.756 272.789 1081.63 88 34 9
128.799 -164.802 1810.17 201 195 195
-0.0507764 605.702 1271.97 70 77 67
4.51519 701.56 1461.25 231 250 243
355.452 140.645 1833.24 255 252 219
-120.417 241.127 1059.33 103 73 49
-122.114 202.888 1201.47 239 233 231
376.36 500.522 2311.97 129 160 166
-77.9461 141.918 1209.43 247 244 236
