-220.216 118.779 932.466 254 251 240
-33.444 282.837 895.789 220 216 205
-24.6349 320.97 888.157 229 220 216
-91.958 239.299 862.543 178 177 168
-15.9651 14.7929 1049.06 252 254 249
-449.198 51.0849 1456.51 243 232 219
67.4068 25.8694 898.167 186 198 194
-446.789 87.257 1460.71 63 41 37
-21.0629 268.329 918.031 230 191 182
-535.926 4.25784 1417.49 204 189 180
-437.97 1.00165 1659.58 215 247 243
80.1063 27.32 949.777 6 8 5
4.7756 284.161 910.795 250 241 237
51.0962 360.342 980.351 187 175 176
-317.204 115.791 1028.48 244 237 221
-576.767 443.826 1703.38 102 102 101
-373.872 96.2235 1488.48 45 44 36
-36.7848 11.0116 1060.55 228 228 219
36.614 73.8316 932.223 228 207 188
-2.60796 23.3116 972.337 231 255 252
-249.747 121.853 911.649 235 240 230
-82.3494 242.297 861.635 44 43 43
-140.03 187.144 815.769 22 18 17
-143.751 104.662 901.128 42 57 64
-135.912 30.8966 1069.53 248 254 254
-138.077 191.283 816.245 158 149 149
-466.452 -31.1155 1442.16 189 180 163
-550.727 54.6626 1459.02 204 192 176
-114.367 206.609 821.027 195 201 196
-433.261 98.1676 1518.44 208 200 198
-540.097 -17.7296 1507.37 198 175 165
-468.777 -8.6692 1282.44 158 141 129
-57.4801 25.057 1103.37 254 254 245
-2.43656 273.996 933.552 198 193 177
-57.6544 39.6343 1057.34 244 247 247
-497.872 412.532 1546.6 247 247 237
-224.088 131.685 918.079 254 244 228
-477.577 56.9324 1267.07 204 198 192
-569.034 156.667 1455.1 141 119 99
-157.798 71.5445 930.417 62 64 64
-0.0639974 352.232 971.371 168 152 161
41.2578 349.976 978.437 186 189 184
-383.134 73.9402 1520.45 176 138 124
9.48617 282.565 970.971 236 197 183
-108.39 208.916 822.173 61 48 44
64.3536 354.575 955.069 184 183 181
-146.151 143.12 763.054 227 231 222
-147.179 23.9328 1114 250 251 247
-100.186 90.195 857.991 249 248 246
-134.15 19.4458 1092.75 196 192 204
-344.69 70.7857 1534.36 96 76 62
-401.488 76.6116 1616.8 171 140 130
-141.02 17.7045 1067.78 225 227 225
-566.262 164.089 1457.33 251 248 239
-514.655 339.514 1527.23 243 231 221
-47.8123 33.1061 1016.21 108 116 112
-104.385 202.959 822.751 48 47 45
-10.0559 300.281 954.872 178 175 173
-594.004 148.763 1502.54 255 248 222
-174.874 139.612 807.747 216 228 220
129.723 358.748 1042.47 103 55 44
-140.542 21.1506 1191.13 197 183 192
-374.647 59.5441 1192.1 71 51 46
-584.949 101.839 1440.45 218 208 176
-153.986 41.3066 1065.94 224 204 208
-182.062 61.9127 1107.64 69 67 74
100.346 204.235 951.174 177 141 126
-78.7571 172.958 854.521 62 80 83
-404.668 67.8868 1296.09 42 22 19
-51.6884 4.60427 1086.04 244 210 191
8.42603 267.261 891.854 238 234 226
-205.142 130.003 868.982 182 206 201
-94.1294 12.5647 1077.71 91 30 19
-553.058 -1.03599 1440.61 161 145 129
-285.859 350.562 1225.74 223 224 223
-207.534 63.9373 1071.38 242 236 230
-178.597 115.048 1001.28 164 200 197
-425.53 290.473 1328.82 39 36 36
-212.101 122.89 887.206 118 113 98
-87.6897 169.158 861.94 91 110 99
-29.0017 309.849 897.228 213 170 156
-402.831 43.6344 1508.97 177 156 143
82.2713 360.03 1010.03 229 164 152
58.4648 262.931 943.285 85 105 91
-539.983 7.14106 1302.72 69 59 51
-110.774 193.449 776.256 63 70 59
-371.08 86.916 1586.71 138 127 118
83.3025 381.909 1078.8 245 179 167
33.7481 281.346 975.119 42 12 0
-375.067 34.76 1614.49 97 98 90
59.2925 311.547 990.763 16 47 51
-94.303 166.699 823.586 74 88 81
-86.0601 13.5471 1050.86 145 96 80
19.2363 314.582 973.686 196 157 145
-478.469 51.4363 1578.64 217 194 174
-151.423 109.48 868.361 117 150 142
-576.043 555.411 1850.73 180 181 174
-582.246 109.103 1442.68 123 96 86
-578.157 11.0794 1400.31 173 170 156
-520.067 13.9578 1340.58 149 122 106
-401.934 41.7643 1740.33 80 75 70
-430.406 76.0563 1604.71 104 96 90
-555.846 101.914 1548.41 152 152 157
-53.2841 306.165 892.891 232 211 197
-279.849 131.849 995.922 142 143 129
-618.394 120.018 1537.2 191 168 157
-566.825 81.9906 1375.72 210 190 175
-439.115 192.52 1245.2 60 47 40
-70.5044 300.622 837.927 191 171 151
-169.933 56.7681 992.146 143 143 136
-1308.43 -507.078 3216.16 242 246 241
-107.59 302.414 882.991 97 93 91
-8.35878 246.584 840.064 167 156 146
-504.707 355.483 1608.61 175 166 170
-488.154 332.901 1449.29 202 186 170
-129.008 46.5041 1095.7 207 191 178
-528.519 121.315 1323.56 215 199 185
-244.376 134.215 927.436 79 71 65
-607.754 89.8215 1539.13 74 67 56
-430.68 273.31 1324.11 70 79 79
-90.2827 164.812 824.246 146 167 158
-493.211 303.076 1442.71 209 194 181
-46.6868 306.555 894.071 210 186 170
-165.314 99.7625 896.498 89 122 115
-84.904 97.6216 867.835 186 198 207
-137.164 200.432 824.887 83 76 67
-60.1389 193.981 898.329 119 116 114
-376.799 -30.5918 1509.08 87 84 77
96.2345 268.708 955.464 17 40 45
-387.614 16.4908 1573.15 53 43 34
-120.692 65.1254 989.691 164 119 106
-114.305 178.09 820.301 144 146 141
-103.137 294.208 843.742 205 204 196
156.17 320.379 1039.16 142 100 85
-129.971 203.171 791.904 173 172 163
-542.06 65.735 1465.14 223 216 211
-186.779 71.8543 998.061 232 183 171
-42.2795 304.589 894.799 82 46 24
28.0454 280.75 960.73 87 43 24
-267.118 346.318 1170.5 116 117 115
-66.3556 38.8256 913.402 217 201 195
87.0093 418.432 1127.03 62 36 29
-89.8487 88.5236 804.15 73 78 76
-481.354 403.165 1624.66 241 239 230
-79.7758 13.6886 1180.4 122 88 70
32.3185 184.912 936.314 114 53 27
-109.194 58.1581 953.991 242 220 220
-90.3103 181.105 824.691 90 117 118
-359.692 11.6492 1450.21 52 50 52
67.1947 414.343 1123.51 133 133 130
-102.344 180.65 822.529 96 93 91
-31.2306 291.866 896.41 138 109 87
-271.321 316.03 1149.04 250 246 251
-483.097 132.497 1273.85 170 156 139
-567.398 13.391 1291.38 174 139 102
-66.6726 41.7564 983.364 86 92 91
-197.3 64.3649 1056.86 247 239 234
-127.418 6.51999 1192.32 205 206 194
-134.597 71.7834 949.354 231 219 213
-367.322 17.889 1525.23 144 137 125
194.356 -544.225 2242.13 73 63 55
-111.643 60.5275 1014.08 158 132 133
-434.827 358.411 1444.15 215 214 203
-135.581 48.5835 1052.95 163 119 96
-534.827 81.7253 1459.92 133 129 120
-262.17 148.113 1015.47 143 137 132
55.7116 265.448 978.213 143 139 123
-435.32 261.08 1257.29 145 124 105
-108.349 188.519 821.655 72 70 65
-193.055 -363.535 2061.69 212 209 202
-400.473 227.345 1209.28 199 197 189
-107.219 4.58153 1074.55 211 213 204
-135.976 46.7373 1070.24 238 199 177
-78.961 -11.9106 1127.28 116 109 97
-20.3217 308.632 989.166 161 163 162
25.4303 233.523 936.943 113 63 33
66.9659 319.498 935.172 145 145 143
-161.168 51.2278 1081.8 114 78 67
-316.932 25.3465 1326.82 200 196 186
-96.2333 326.575 863.197 246 253 241
-144.517 52.7267 984.274 123 58 39
-125.466 57.8137 988.44 163 147 138
-419.194 247.798 1260.35 57 63 54
-272.733 112.28 996.964 142 147 131
112.368 288.108 1011.09 111 105 107
-322.928 102.29 1072.7 146 151 137
-399.559 33.5871 1473.59 169 142 124
-101.898 313.638 854.147 245 248 239
-88.2228 53.7181 957.916 237 214 197
-138.652 75.0225 1009.06 164 151 141
-199.589 119.38 902.272 206 237 232
-448.742 -25.5569 1339.84 100 91 74
