518.756 -140.527 1613.81 255 249 249
346.078 140.807 1831.88 25 21 13
-37.1195 158.053 1123.09 97 59 53
-32.8712 55.7411 1071.65 62 25 29
31.8578 370.74 1318.18 73 46 43
-16.1966 378.462 1247.26 228 230 229
16.4406 -13.8877 1143.39 255 234 218
36.4547 -22.9404 1172.79 255 239 235
25.7972 -19.1351 1054.99 116 95 81
53.7341 36.7681 1234.49 116 95 81
1.07041 430.214 1146.74 239 235 228
-10.4404 362.285 1137.96 237 221 199
39.393 32.4583 1083.32 116 69 58
-32.8085 71.3935 1048.89 47 39 36
74.8008 -17.1396 1180.06 142 98 80
485.703 -22.2719 1550.26 47 38 40
500.177 75.6681 1553 250 246 226
83.7542 -11.3344 1182.12 135 46 18
-51.34 56.0541 1004.99 104 74 50
535.637 248.15 1745.08 54 95 107
36.7859 369.412 1258 231 215 211
72.9446 109.145 1208.92 166 104 80
11.6 -11.8273 1091.68 120 91 70
-433.065 -10.474 585.901 209 211 204
33.4639 380.781 1196.06 216 207 207
538.322 178.574 1676.76 41 46 31
-21.3924 215.589 1180.21 255 240 199
-421.389 -11.5561 567.81 185 190 179
25.0194 363.571 1173.84 225 216 211
60.9006 108.769 1188.52 126 87 76
562.727 0.631044 1641.14 108 73 58
143.548 193.182 1325.23 94 67 51
-394.451 -6.01181 503.657 213 220 214
523.937 228.571 1664.59 209 237 247
548.689 248.216 1745.34 66 98 110
553.792 233.466 1780.76 81 112 123
-14.7379 254.693 1133.6 110 89 71
471.611 11.6468 1480.39 220 211 215
76.5052 163.729 1250.44 120 93 82
489.295 -203.372 1590.95 174 181 173
-56.0793 102.168 1046.74 255 246 243
432.276 169.457 1850.21 214 212 204
79.0239 132.852 1193.79 241 223 198
72.8532 100.13 1207.86 246 225 204
20.7685 264.767 1247.44 255 241 221
476.427 -101.341 1533.94 216 200 192
548.561 -149.264 1688.93 201 188 190
24.6204 401.57 1196.54 127 119 120
532.046 -122.451 1611.67 254 252 249
565.614 334.403 1803.02 135 155 165
80.2548 -21.9291 1131.52 86 17 12
-15.0334 284.167 1112 156 129 111
569.46 13.8857 1821.91 106 97 97
81.7291 145.09 1222.95 172 124 85
-46.7889 150.452 1032.14 128 99 90
141.957 412.166 1325.03 47 49 47
479.738 -72.1622 1515.42 255 251 254
504.203 -29.5556 1630.13 160 148 146
550.769 -141.998 1608.31 253 243 225
509.143 2.60288 1534.89 225 210 203
521.977 -95.032 1617.18 121 108 105
-36.143 283.603 1222.71 84 79 87
48.2164 305.764 1173.72 231 227 205
426.375 -252.449 1655.49 225 195 180
73.6431 178.893 1216.88 255 243 227
470.715 -2.95141 1477.78 224 213 210
505.325 12.6739 1639.56 203 194 190
535 -46.1554 1522.73 246 239 236
-18.9239 341.46 1134.14 195 181 180
53.1263 326.555 1202.51 243 235 209
-24.4255 266.759 1155.76 135 136 124
63.7778 138.514 1245.8 245 213 198
549.083 -244.228 1472.66 149 162 162
70.1127 144.523 1193.09 138 112 84
30.3979 340.617 1254.8 255 240 237
363.361 -255.262 1649.06 211 210 199
546.334 -47.6223 1629.37 253 251 243
-66.8494 32.9648 1021.77 241 215 187
98.7571 183.144 1256.29 150 142 135
74.7938 306.979 1195.38 251 255 238
70.4708 166.614 1214.95 255 253 241
-63.9169 157.686 1091.94 88 80 79
95.4756 170.505 1254.59 241 229 215
635.181 -276.676 1691.55 53 65 59
-63.7259 78.2664 1004.16 132 43 15
82.4789 126.518 1248.26 248 220 194
39.2612 278.711 1169.68 138 110 108
63.9636 120.666 1190.05 166 130 113
-102.523 87.2484 1104.46 164 133 123
82.179 92.4385 1245.05 164 119 90
373.7 -203.334 1505.16 98 100 104
19.3446 84.5454 1178.68 252 245 231
-66.3419 57.5691 1083.09 226 147 126
-16.9545 45.318 1074.01 158 142 144
388.98 -198.412 1583.87 59 62 53
47.355 92.4523 1081.53 251 205 187
435.386 -46.3252 1464.3 229 198 176
82.3601 196.195 1281.45 110 81 64
123.527 127.314 1255.76 141 118 92
-56.6135 73.9315 1068.11 254 215 195
76.7474 195.001 1253.15 161 154 145
9.04858 322.265 1375.3 249 241 240
11.414 227.911 1085.47 123 84 72
-72.406 113.326 1067.26 105 53 47
85.2803 124.481 1212.84 161 115 88
-67.0321 39.5081 1063.86 187 127 100
83.1943 188.013 1348.03 148 128 110
460.63 238.788 1739.58 37 58 58
26.0265 298.051 1195.4 158 144 141
-37.1228 216.979 1126.77 207 181 164
-61.7806 86.0341 1162.15 253 230 212
16.9889 263.855 1090.11 173 156 164
518.244 -69.4614 1539.45 233 208 193
-47.2042 73.3095 1058.36 179 176 166
24.8499 247.976 1141.08 152 135 115
2.15402 300.285 1186.94 255 235 221
-36.988 252.383 1105.08 210 210 211
-66.2139 45.0845 1040.34 253 183 157
-48.2032 185.666 1122.53 114 104 84
-15.804 287.609 1159.32 151 129 126
531.298 -32.698 1592.32 252 248 245
-7.18822 279.31 1160.42 249 241 252
-23.2341 141.683 1124.85 139 116 108
76.153 120.171 1246.5 239 216 187
132.95 -73.1454 1293.99 249 230 207
6.67534 103.483 1147.01 249 213 192
-12.8543 340.453 1164.24 179 177 177
27.6603 410.997 1198.15 108 84 77
-361.735 -3.2348 474.341 174 195 189
497.238 379.637 1860.78 61 81 75
-47.0404 99.637 1046.93 204 161 170
15.7803 387.529 1125.45 254 251 249
533.386 316.479 1764.96 163 196 222
119.072 53.4032 1161.02 250 231 206
474.925 -68.5213 1407.86 228 216 194
-36.8158 204.171 1073.66 255 247 246
481.469 -91.792 1532.08 158 141 142
126.877 43.6608 1209.96 254 235 210
509.437 254.187 1670.7 147 166 163
476.188 207.088 1656.74 84 121 120
-43.4389 55.6149 1069.58 245 252 246
-17.4238 128.975 1147.69 176 150 132
34.1513 215.136 1131.07 254 246 237
-72.322 172.566 1137.2 202 171 153
606.78 -234.338 1589.28 85 105 89
114.293 152.156 1256.4 177 155 136
-153.811 30.6679 1136.99 142 118 106
87.8923 456.205 1325.02 131 141 140
605.45 47.7943 1741.32 255 252 230
459.313 147.584 1433.13 104 95 65
512.397 -24.494 1466.61 214 183 177
602.091 -241.869 1587.41 163 184 170
436.943 -63.655 1311.17 133 116 95
555.253 -39.5829 1631.71 225 212 212
-23.588 132.079 1068.98 252 240 230
3.61164 38.2054 1139.91 198 122 107
-71.2461 21.8593 1037.56 243 214 191
-18.7317 -22.8004 1162.37 102 77 56
120.832 38.0461 1221.84 238 229 214
154.334 26.0826 1309.17 239 221 200
389.671 -68.3148 1305.34 186 159 159
-4.74435 91.8769 1143.67 254 226 201
119.214 34.165 1245.93 173 132 117
38.8955 214.144 1163.8 176 156 149
-5.28515 326.728 1182.1 185 153 153
120.631 34.6447 1207.89 237 219 195
-12.0314 53.4751 1051.32 255 255 244
93.1045 209.89 1277.95 176 153 142
510.763 -89.8246 1596.14 255 250 240
3.61354 40.6396 1053.07 255 254 252
708.085 -322.241 2043.85 117 105 106
438.314 -217.567 1770.31 114 113 102
-16.9351 63.9084 1075.23 213 180 178
490.346 -79.2117 1618.42 98 63 64
-51.4414 514.711 1450.08 135 129 117
141.941 81.3053 1313.28 255 242 224
-28.8642 164.055 1071.23 234 200 170
-568.037 -25.701 852.5 67 49 28
-49.6444 174.944 1049.27 198 146 128
549.437 -90.3655 1511.28 239 234 208
155.562 89.8709 1273.01 245 224 199
-3.98531 284.762 1114.28 251 252 249
-55.3608 233.074 1072.62 124 87 76
-44.2333 105.273 1137.03 187 145 150
162.188 153.313 1264.8 255 240 217
98.12 26.1388 1037.81 243 219 198
369.361 192.046 1422.44 71 86 94
495.178 62.7703 1392.1 247 245 223
652.074 82.1432 1691.1 215 217 190
121.408 312.342 1331.9 255 255 247
130.314 115.308 1352.05 118 83 62
94.6311 321.035 1327.39 168 164 147
-45.7569 97.1895 1048.4 253 235 245
4.52362 55.7269 1124.26 253 247 240
130.325 61.9534 1248.64 255 239 209
673.793 87.2174 1846.96 232 223 207
544.239 -256.223 1590.33 190 208 203
-21.1852 223.687 1040.76 205 185 168
-123.582 45.0364 1145.2 112 81 70
86.8211 373.573 1182.05 134 114 101
21.7022 266.097 1165.15 255 253 251
549.223 276.056 1678.05 174 197 203
-1204.18 -9.25565 1672.63 138 158 153
80.5543 285.947 1193.84 248 244 229
