-7.10172 271.645 932.009 215 208 199
2.28622 325.984 970.224 203 201 197
-127.946 -59.7036 1685.28 213 194 184
-18.4607 513.451 1036.13 37 34 30
89.0763 349.859 973.171 201 200 194
13.8573 -11.5356 1188.04 249 255 247
-70.7453 214.587 886.745 198 191 187
4.37811 0.166974 1119.89 255 243 239
28.1898 329.211 962.145 232 221 221
142.679 37.3244 945.262 217 222 221
92.6828 -2.50883 1046.97 243 243 234
83.1258 342.891 984.216 212 223 216
8.58616 251.59 921.873 201 180 168
-97.3904 -19.0178 1432.4 243 223 213
44.0234 22.3216 1001.62 239 237 231
-97.3734 185.933 891.079 209 217 212
43.5198 289.417 976.271 216 191 177
84.7852 -2.50246 1045.77 241 239 227
257.364 424.602 1060.31 30 24 19
56.4894 7.49105 1002.71 220 205 201
139.816 36.9666 882.062 33 33 28
-137.356 133.834 903.233 200 200 193
242.019 501.957 1194.25 255 230 216
145.916 205.674 895.598 246 230 218
-111.147 -58.6981 1600.02 246 237 227
-2.43177 297.46 933.495 196 188 177
-64.3355 37.983 1022.34 55 58 58
51.5361 19.8672 1002.67 84 97 88
52.2111 299.161 964.934 238 218 215
51.9907 -10.9847 1127.55 84 28 12
-202.483 -105.684 1484.26 178 159 142
125.421 374.538 1056.13 250 219 214
-48.3972 77.1005 918.084 223 218 213
-189.201 47.6313 1129.14 88 94 89
-72.5825 22.0368 1106.25 248 253 242
-31.5888 16.68 1114.2 255 231 243
-249.148 4.44994 1569.32 255 248 234
0.706299 307.038 924.221 210 206 195
-56.5882 296.216 929.701 192 174 154
48.385 279.915 976.791 220 200 192
-177.326 -120.755 1489.33 194 181 163
125.702 355.634 999.478 246 181 175
-143.543 79.7656 1008.05 179 173 171
54.5062 542.225 1119.11 86 104 101
171.176 356.907 985.877 198 171 161
-137.39 124.014 858.669 107 108 94
142.486 237.213 989.941 72 44 29
-184.467 -120.583 1487.26 179 166 143
18.5749 326.213 960.338 55 52 52
43.6229 -22.7965 1030.97 168 160 156
42.6765 494.24 1030.76 140 144 142
225.636 347.985 1013.06 133 112 108
-214.109 -65.2035 1567.93 194 174 157
-78.0417 38.4176 1106.2 197 176 160
-88.2046 -12.6286 1516.66 210 203 194
20.1577 272.954 924.763 205 208 205
4.50642 17.5247 1170.04 216 202 193
-64.3054 222.74 920.324 64 56 54
-219.994 -112.066 1521.73 170 142 118
-20.349 7.23517 1140.39 251 224 222
91.8226 5.02699 1007.89 199 206 199
46.333 -13.7504 1126.35 177 160 151
-84.7161 176.275 816.227 108 112 118
-96.6486 79.2262 943.032 193 224 224
88.5708 14.4134 971.186 64 73 71
104.395 265.25 937.839 24 36 30
71.9627 8.52573 1132.48 249 239 238
-86.5369 78.7788 911.199 90 117 126
160.969 267.432 1016.39 146 132 132
-189.954 -48.6484 1421.66 195 185 169
-110.411 83.6585 940.498 82 97 88
-6.70349 16.7424 1119.03 238 207 204
-102.291 88.606 956.164 100 131 120
33.6845 -24.6401 1056.01 136 130 115
118.169 480.656 1059.68 161 168 165
-62.0681 -31.4841 1522.06 168 167 166
233.286 307.744 1064.32 67 37 25
-105.85 88.4032 941.594 231 249 242
-51.0849 157.973 888.593 50 65 67
32.7764 266.811 960.13 200 169 162
82.6452 -46.9321 1156.24 77 81 61
114.822 381.627 1036.44 179 181 183
-17.7764 38.6917 1008.48 238 225 208
0.0810299 19.434 1114.54 86 71 69
-90.7843 212.598 961.694 178 166 155
-12.4362 307.529 953.977 53 31 17
38.1416 -22.05 1202.41 51 56 43
-190.646 40.4699 1353.55 194 181 158
147.603 257.196 977.59 185 171 161
185.429 179.796 957.905 69 23 15
-116.971 81.9515 975.171 104 119 111
-77.9653 8.3738 1104.2 167 148 138
-66.98 231.026 930.747 110 110 109
-57.6683 219.589 889.244 157 150 151
101.779 -13.3541 1089.94 161 149 145
23.2148 275.952 958.919 106 109 109
71.915 2.52408 996.162 133 129 119
171.884 217.889 933.502 157 152 147
-81.5271 167.958 883.412 103 103 98
-29.1304 170.722 880.846 124 119 115
-271.447 -33.7877 1641.96 131 113 97
165.177 237.996 993.194 54 58 58
-43.873 86.2738 919.245 194 200 198
-72.8535 152.882 884.535 52 83 79
-137.237 102.501 902.186 162 190 184
-52.3789 328.794 947.354 174 150 138
-30.2096 44.6489 1092.16 139 109 102
-95.7317 179.16 869.053 16 21 11
-275.12 -41.8224 1639.4 225 217 220
127.999 245.03 940.294 159 135 115
26.5295 22.265 998.784 213 190 175
-229.785 26.3739 1496.7 154 130 113
-17.9618 56.4652 992.999 253 237 226
-80.5223 85.686 924.921 153 176 169
-9.95382 43.4945 1169.28 145 117 99
-267.76 -25.7274 1644.52 187 168 142
-141.674 124.752 902.049 155 162 145
167.362 370.337 1022.91 212 149 135
95.5233 -46.1578 1211.26 57 56 38
154.065 92.5305 903.461 42 27 14
-19.3778 300.566 965.647 151 123 101
-221.964 -104.795 1553.01 152 119 89
120.322 506.335 1104.16 80 94 87
92.5871 269.427 936.254 43 61 66
78.8082 273.821 968.08 49 47 31
243.034 410.926 1016.77 157 145 130
-90.1583 172.032 881.937 74 69 64
143.212 121.207 935.122 66 24 12
144.511 180.558 987.849 169 131 114
64.3233 265.805 931.702 103 72 54
127.928 11.0484 992.093 85 89 78
-9.67764 282.907 920.001 76 48 25
-125.522 166.699 918.351 57 56 50
-32.7229 41.0784 1005.85 255 226 225
-230.694 -100.546 1364.45 76 60 44
-49.5649 24.6065 1043.08 90 62 60
120.76 375.353 1016 51 37 21
72.1771 270.166 951.081 79 45 24
8.8969 282.405 956.707 86 88 86
96.5187 257.689 948.358 146 140 130
-173.415 -116.009 1348.34 64 37 18
104.317 311.621 997 42 68 79
-79.3543 159.256 883.546 165 165 161
-184.351 -127.822 1486.12 160 138 116
139.769 315.775 1002.32 21 39 50
147.792 109.633 934.93 60 17 9
-134.648 88.0114 949.685 184 213 209
209.601 334.595 1041.49 63 21 10
-61.9844 145.881 856.393 59 77 80
64.0631 233.431 989.461 164 90 66
63.3411 -5.43519 1129.92 179 148 133
101.046 301.661 972.937 30 64 77
94.3283 569.057 1128.31 86 128 150
36.2065 -13.6938 1014.74 73 52 42
-46.5323 321.967 1022.14 180 148 131
61.8805 264.387 918.759 133 117 95
