60.1545 -6.12851 1178.38 251 236 229
98.204 -84.3596 1852.21 39 38 23
29.2539 401.712 1229.69 253 243 245
-9.1642 186.525 1130.52 19 12 9
-69.9314 65.4105 1109.88 176 146 139
9.93586 284.938 1117.01 41 23 18
33.9972 390.486 1177.61 46 39 39
-68.0323 96.3327 1135.38 196 183 179
-56.6349 118.666 1191.71 216 207 200
351.038 -99.6327 1683.85 255 238 224
339.199 4.37116 1705.98 255 245 240
37.0709 432.431 1261.76 255 249 219
40.2609 471.691 1184.52 254 254 247
1.88286 90.2702 1080.36 248 224 192
-3.01685 68.8049 1098.72 123 39 19
-1.61214 98.6456 1099.28 161 74 55
-118.504 545.347 1434.6 176 175 165
304.716 -15.8066 1611.31 235 194 169
293.585 -152.119 710.57 70 69 67
66.4583 472.932 1300.21 101 78 55
11.5601 96.2923 1204.83 79 45 36
59.5628 -18.4541 1230.04 164 169 174
26.3496 384.739 1200.39 220 195 192
-3.00848 74.2413 1098.98 241 173 155
4.77002 179.212 1086.4 87 66 51
126.063 475.256 1371.63 71 70 67
122.659 455.05 1327.61 89 87 91
374.2 61.1077 1825.82 57 33 24
41.4456 406.875 1204.58 105 64 47
339.906 -66.655 1690.05 233 215 208
96.7247 178.134 1314.98 142 123 111
56.2354 544.332 1366.66 141 140 137
63.3815 426.047 1238.64 255 248 239
87.8223 -44.7105 1289.47 83 61 42
37.1787 464.204 1263.51 97 71 49
-127.686 519.28 1388.7 134 134 117
-115.242 56.3433 1147.8 205 162 141
33.6657 319.213 1171.96 137 122 123
-3.558 50.17 1076.7 255 249 226
289.707 -200.91 1989.34 21 19 16
5.19169 74.3664 1100.55 129 79 61
241.813 -166.945 1759.18 81 91 90
309.081 -43.7103 1692.9 184 162 154
714.859 -337.955 1631.37 79 79 76
-130.694 282.517 1272.9 94 27 11
-8.50141 44.3324 1096.45 169 153 136
104.696 6.15071 1298.26 156 63 36
65.4251 399.459 1265.63 233 230 230
-21.355 203.277 1179.3 217 197 177
348.116 8.59198 1708.11 149 133 125
39.1086 535.809 1362.15 108 96 76
-20.4008 141.189 1125.3 95 48 36
373.827 52.0417 1824.15 164 144 134
-169.377 -25.8093 1295.42 46 49 39
35.12 319.047 1198.45 128 109 115
31.5297 166.573 1187.41 129 86 71
18.6536 74.8605 1128.22 122 119 121
43.5153 467.891 1265.01 214 205 198
62.105 370.602 1263.18 255 243 234
-101.038 554.782 1439.88 189 187 179
-127.448 251.132 1212.51 83 24 11
79.093 497.698 1336.46 88 91 93
351.218 39.4196 1675.11 247 245 241
29.0509 294.693 1195.75 156 155 156
-163.273 522.379 1420.5 25 23 19
-146.782 442.423 1211.52 171 154 138
356.159 -4.05419 1706.31 161 138 121
133.083 71.4806 1319.5 223 207 197
39.4023 482.452 1304.38 142 125 107
-47.4413 117.746 1167.52 138 120 114
65.7639 326.028 1230.35 120 95 88
55.2432 7.86742 1328.22 254 250 234
-49.4755 374.559 1210.24 28 16 10
41.6353 464.391 1207.34 94 79 57
-148.657 84.2031 1141.95 79 36 21
54.2467 456.829 1239.24 255 240 222
62.1374 376.953 1263.59 180 138 125
120.504 -35.3902 1296.24 253 241 222
94.0974 1.33777 1272.27 160 100 93
332.152 49.3181 1807.52 166 147 135
103.797 221.211 1320.45 165 161 153
431.487 -234.751 1884.87 181 187 188
77.8633 349.281 1264.94 221 219 203
368.053 -81.9492 1798.36 170 151 133
-124.974 -20.452 1258.43 28 3 5
44.3445 7.09707 1205.6 203 179 160
13.4447 215.585 1136.85 252 241 214
59.0152 287.121 1201.2 147 145 142
-47.4618 131.947 1276.93 86 52 42
138.314 77.9689 1375.84 169 145 124
171.325 315.272 1428.24 135 129 122
-135.161 -21.571 1441.22 214 186 183
26.5712 356.711 1345.84 150 151 155
70.331 311.788 1352.92 169 152 132
219.176 -149.446 1866.37 46 41 20
-6.59261 277.958 1187.38 237 230 227
397.636 45.8893 1942.39 108 92 85
-102.194 469.89 1360.05 178 134 114
-74.9217 91.6849 1065.3 144 137 139
-244.725 45.828 1165.84 79 61 39
29.61 486.259 1236.38 174 162 143
32.2785 470.461 1324.91 165 149 133
82.0749 132.323 1194.23 215 176 168
386.139 -90.8927 1799.6 249 247 239
88.393 373.905 1330.16 133 131 118
59.3054 449.979 1267.3 199 188 185
18.3974 510.335 1261.86 130 131 125
281.447 44.6919 1798.83 160 140 126
96.8544 191.3 1316.28 176 160 142
114.118 215.543 1356.07 180 180 175
52.904 268.803 1198.82 160 122 113
248.275 -19.8125 1222.26 255 245 223
-8.04866 202.15 1189.46 180 153 130
315.274 10.6738 1702.66 132 109 108
426.859 16.9459 2211.68 63 37 37
327.756 281.977 1967.06 103 131 127
293.871 59.7791 1925.54 38 25 11
116.053 61.0355 1181.62 133 120 105
-68.5977 53.8582 913.552 191 125 119
368.724 -181.531 1752.44 88 81 74
342.618 40.34 1712.07 170 149 143
328.992 -7.70458 1568.87 231 217 197
323.387 45.9759 1614.68 159 144 132
30.5173 224.775 1140.73 250 237 212
-242.798 27.402 1179.13 215 205 184
17.1021 229.718 1123.52 255 247 228
403.577 -198.667 2015.23 68 55 48
110.539 195.145 1353.99 171 161 147
331.131 -35.4776 1698.07 164 112 102
291.749 -35.4431 1512.84 102 64 57
-4.17252 -48.1978 1499.58 114 147 147
-33.0669 187.67 1200.54 113 76 50
434.227 38.3171 1924.85 243 235 218
-8.92136 36.7932 1074.81 255 246 227
75.0505 328.589 1287.96 138 121 125
439.626 -11.6613 1937.24 154 133 129
95.4065 157.422 1253.37 233 215 193
-55.7118 311.168 1152.51 157 136 123
2.81396 224.976 1209.96 210 169 143
-43.803 342.142 1238.63 151 124 113
96.9186 197.887 1316.92 226 206 188
-589.733 -137.777 842.312 124 125 114
1.98456 153.935 1180.57 177 149 147
3.26882 163.126 1227.57 233 223 227
108.354 651.939 1451.94 188 200 191
50.9381 126.981 1214.47 255 226 205
