-488.165 176.574 1324.89 72 32 24
190.164 167.63 1006.74 42 45 43
-79.66 -26.332 908.427 254 248 246
-29.1102 -46.305 949.721 226 224 216
109.283 -28.2466 918.202 253 253 240
224.736 94.4021 981.881 253 253 245
-72.0834 -37.3686 995.497 208 195 176
42.0809 -61.2632 960.142 241 219 207
-413.112 386.101 1403.43 224 223 215
103.114 17.814 906.91 252 246 238
-374.567 43.7346 1353.89 184 178 170
224.761 99.2641 981.959 161 165 150
115.841 -84.4565 902.854 222 231 228
79.519 -75.4688 945.524 81 81 75
-578.292 435.798 1515.33 44 47 45
14.696 -40.8297 1010.88 251 255 255
-3.20805 -129.213 1044.29 220 224 217
-50.2023 33.2838 949.886 237 227 221
-486.194 48.1432 1150.79 129 89 56
177.493 1.96541 884.647 251 255 245
1.54076 233.691 1067.47 248 250 234
312.42 449.361 1177.7 47 67 59
235.084 381.645 1116.31 85 97 114
252.321 241.189 1057.25 255 254 255
-287.832 321.596 1439.25 141 138 126
-439.232 252.609 1304.36 117 86 63
157.408 -32.7732 825.456 244 248 226
-426.317 11.4531 1298.96 185 168 159
-17.8787 -67.4439 1004.09 183 184 172
30.8898 331.888 1146.3 75 71 62
-615.883 12.5009 1255.47 68 34 27
157.108 108.592 918.334 95 101 84
-669.95 100.764 1255.22 130 103 100
148.202 15.5051 902.477 239 247 241
260.686 270.257 1059.01 253 255 246
210.931 100.142 924.342 253 250 240
90.248 -40.3626 863.457 35 27 17
-564.234 182.113 1295.34 227 229 225
-572.57 114.151 1234.33 123 101 74
-461.907 -43.241 1214.27 162 147 134
-437.164 8.59906 1345.44 227 208 196
-59.5406 35.5673 948.296 244 237 235
11.6046 165.894 1024.23 255 245 229
-25.3272 56.8345 991.847 255 253 243
29.1906 62.2992 1001.6 255 253 240
-361.834 35.8852 1436.3 47 37 29
157.27 -44.5287 838.498 57 56 47
18.8648 -38.9805 994.09 205 208 206
-399.323 191.304 1358.96 169 153 145
-390.939 172.766 1384.72 227 198 178
-600.045 135.299 1275.4 228 221 213
-377.91 52.8672 1373.72 49 53 47
94.2519 -27.8023 833.007 98 95 71
21.879 -95.7935 1029.69 235 199 195
-40.286 70.9308 1018.56 251 246 247
-541.853 184.239 1256.06 128 127 124
80.7109 -58.7622 1020.6 193 219 218
-420.235 297.125 1316.32 231 221 216
59.8373 152.477 1011.45 255 251 242
157.46 -28.7186 825.667 117 130 105
-327.333 295.449 1504.26 4 4 1
-573.851 141.846 1237.24 241 230 210
65.6285 162.195 1033.3 214 199 194
-403.698 240.683 1205.2 255 235 208
151.369 13.4311 912.707 138 142 130
-633.867 606.357 1831.56 25 28 23
-581.867 143.069 1303.03 171 135 115
133.034 54.2099 898.612 196 188 177
42.6658 62.3856 967.013 142 117 112
-717.111 111.672 1347.77 191 172 170
-395.174 -15.8408 1470.62 37 36 26
-411.664 52.3788 1361.08 158 136 132
-592.049 287.934 1319.35 119 117 107
-626.996 359.382 1456.28 216 217 206
-581.038 20.7663 1203.02 140 68 59
-391.474 190.132 1386.78 76 47 32
-355.373 215.089 1330.11 65 45 36
-379.672 45.1551 1179.35 37 20 12
70.1261 -115.914 1016 96 65 58
330.492 468.648 1255.8 17 43 68
-738.443 39.7583 1281.22 245 235 226
-313.148 38.9631 1212.36 159 154 158
-518.816 546.713 1570.65 179 186 181
-45.5233 37.9962 950.945 249 248 242
-601.822 253.141 1315.62 171 162 164
53.6406 -38.1913 943.368 76 63 63
-446.571 124.671 1163 236 218 196
-377.209 197.303 1331.99 224 190 174
265.865 343.418 1117.91 66 94 76
-565.153 288.221 1270.88 255 254 241
61.0508 -3.12763 912.472 237 217 209
-573.1 296.55 1328.73 230 231 207
215.601 430.346 1073.21 82 120 136
-476.495 105.735 1209.11 134 113 86
-333.254 150.813 1402.54 33 9 1
160.657 15.6841 913.933 141 153 145
70.1387 -54.521 945.103 57 95 94
-391.673 26.8062 1516.9 184 150 145
193.093 359.134 1127.6 106 133 143
48.0311 25.5875 931.681 224 214 206
-381.395 171.353 1443.9 195 170 157
225.007 235.385 937.672 100 102 101
159.726 15.0878 883.393 236 252 235
-398.088 352.691 1330.27 246 239 214
-367.17 204.413 1324.84 75 37 19
-761.701 384.896 1683.64 105 105 91
-655.967 110.742 1195.95 253 249 254
-505.677 -16.4946 1110.18 255 252 234
-672.228 68.6126 1182.5 249 255 252
-364.848 32.5754 1375.78 33 6 1
186.07 433.703 1313.27 141 163 160
-388.529 22.9752 1511.55 63 49 43
22.8495 170.739 1046.06 233 206 190
-560.989 142.491 1242.84 245 232 206
159.889 28.1673 884.103 250 255 248
-52.2059 95.645 988.802 255 246 247
-435.528 399.744 1478.93 87 84 69
7.27116 -127.629 981.789 91 72 54
61.5082 173.493 975.953 109 80 67
40.6452 -115.841 973.504 245 169 156
391.128 544.248 1423.68 95 122 119
-406.236 109.479 1046.66 156 120 96
143.142 -33.7656 850.545 239 255 224
-478.903 99.6418 1207.57 220 200 184
-59.3506 -35.6167 980.842 145 146 133
160.038 -5.44046 841.422 116 115 83
18.5547 59.8683 962.99 255 255 240
154.173 -12.8136 852.835 246 253 228
12.0476 -92.5364 1008.01 204 181 159
-601.889 -7.09481 1163.97 255 250 235
35.4438 69.5055 966.221 251 250 241
-457.721 32.558 1062.39 164 119 77
-373.921 350.586 1413.24 213 215 209
-97.4023 -31.1252 953.352 63 58 56
-392.13 78.0548 1429.93 128 131 124
145.923 28.6143 863.94 236 236 229
15.7558 237.632 1091.44 113 114 97
-425.935 -43.86 1113.08 156 135 121
-610.07 122.278 1287.17 135 110 88
-35.4836 157.326 1077.13 251 245 239
-0.469113 -92.3294 1005.93 197 165 164
-444.442 235.82 1300.5 121 87 55
79.4774 -82.4061 945.208 98 101 96
-339.863 157.561 1401.11 141 116 102
-327.136 287.834 1503.25 126 116 100
207.323 104.165 910.497 202 200 189
-533.445 -21.0592 1332.31 155 142 123
175.668 -2.36897 905.521 139 145 122
261.654 499.296 1247.18 96 105 120
-14.0725 193.081 1083.33 215 210 205
172.912 349.731 1124.05 105 133 137
29.6912 17.4008 866.731 246 212 193
45.8487 -107.256 994.028 206 154 143
44.0983 9.08715 898.341 57 50 38
-708.226 59.2977 1229.29 255 252 247
-477.393 30.8142 1244.86 165 158 152
227.373 140.983 946.759 172 176 160
30.304 112.446 1019.83 255 243 221
105.08 204.58 1061.89 163 148 130
107.509 -78.8171 864.796 112 122 122
244.683 471.746 1219.91 219 242 245
-364.526 206.66 1259.4 168 147 140
166.626 30.3841 947.995 248 250 244
-558.955 155.07 1245.27 250 244 224
-413.694 256.884 1247.44 172 138 113
172.502 -12.6179 926.846 241 243 231
203.075 223.069 897.934 240 246 239
161.169 56.3794 916.23 246 253 232
-493.611 -22.9708 1251.36 138 124 105
214.091 109.513 936.417 210 209 191
74.694 130.122 975.403 162 153 149
213.85 441.798 1139.5 143 168 179
192.681 137.352 969.106 218 232 221
-356.31 174.378 1397.48 148 109 93
94.3299 198.987 1059.84 128 117 107
-33.831 44.6723 967.707 253 245 241
153.615 -56.6747 850.43 190 192 185
58.5305 -56.9969 910.104 57 69 68
184.589 26.0214 886.75 173 169 149
-22.0015 159.26 1098.97 234 230 236
137.513 -34.7414 822.919 204 222 189
-0.552497 121.173 999.553 239 243 228
221.429 182.833 982.849 251 255 243
-18.1244 -91.6254 984.975 190 191 189
51.8103 -107.214 1054.68 196 190 177
-305.516 256.324 1570.55 111 90 70
11.8095 89.2728 1000.1 237 224 194
-21.2157 138.583 1036.24 236 237 233
-610.38 296.78 1390.6 221 218 207
-444.177 91.1953 1106.73 254 222 203
38.2343 -105.695 1027.28 132 104 94
189.181 424.956 1158.21 125 146 149
112.82 -89.8118 949.399 137 164 161
54.4153 187.351 1052.49 238 226 216
200.774 135.923 943.407 239 251 242
219.007 123.445 937.42 213 209 187
92.201 174.155 980.127 246 225 209
27.2533 235.891 1031.67 226 224 199
177.174 72.1353 975.385 245 253 247
146.06 84.9104 983.416 250 248 228
-62.3791 51.1574 1000.78 255 254 250
-637.68 121.868 1333.87 236 218 194
-474.279 117.898 1211.2 246 230 193
279.598 252.508 1060.99 142 132 123
-390.306 75.4083 1480.5 129 126 122
-675.75 266.705 1421.26 251 253 252
-585.866 340.267 1339.73 255 252 252
-405.853 276.349 1252.09 185 151 139
-374.451 449.845 1964.29 34 29 17
278.782 459.487 1247.91 94 130 136
149.393 -50.4345 850.328 115 124 104
-540.072 165.776 1190.4 250 243 230
155.405 -42.293 834.858 205 209 189
24.3646 111.862 1003.42 255 249 222
171.95 67.9084 950.839 230 244 224
-588.046 167.868 1283.96 252 245 233
-501.297 -32.1092 1247.19 126 111 98
147.064 -24.6312 824.792 218 236 201
154.975 93.5705 972.753 234 232 204
231.728 203.584 1013.18 243 248 232
54.6114 229.368 1054.59 163 156 148
-561.268 148.712 1243.49 151 130 112
257.525 527.022 1327.69 237 255 255
344.907 374.373 1217.11 71 92 89
-307.141 327.648 1515.8 33 29 19
231.637 254.54 1003.03 240 248 231
19.6577 106.621 1061.27 241 238 210
85.2226 137.966 1014.81 255 244 231
-641.908 255.082 1369.04 167 167 162
20.8289 -63.0714 1008.58 5 19 6
-587.085 191.949 1307.72 145 153 146
-530.575 169.136 1258.87 169 161 143
-289.452 252.613 1288.15 165 154 137
-43.417 42.8949 1068.7 176 164 156
1.76469 46.0969 925.426 232 196 178
-23.8387 -85.3906 1042.89 201 162 155
-427.438 175.146 1174.28 192 143 127
162.241 36.9258 884.826 226 243 232
147.183 -49.4555 870.46 127 143 120
1.90139 106.342 999.252 237 221 203
138.65 -50.3685 849.183 213 223 206
-365.857 66.7196 1379.94 140 140 137
199.151 30.1074 941.977 216 213 189
-301.185 169.698 1415.97 105 80 73
-327.237 146.042 1390.62 186 158 140
69.9359 140.157 1012.48 191 175 168
45.9389 11.6285 920.563 123 108 88
233.691 214.775 1001.56 214 219 213
220.096 157.29 997.006 230 240 207
-362.463 167.096 1394.34 31 15 9
55.7216 181.053 1068.73 190 149 139
-402.155 495.132 2137.59 136 130 118
-479.955 208.754 1218.46 255 255 230
-565.589 129.883 1239.3 234 214 196
203.493 74.9211 922.162 249 250 238
-615.295 265.69 1305.86 255 252 247
-610.464 226.547 1302.25 186 180 175
234.449 187.021 1038.67 249 255 229
-465.454 80.8383 1152.24 200 167 139
-391.187 170.925 1440.3 226 192 177
69.6491 92.5003 1009.88 253 250 241
119.873 270.445 1010.86 249 239 216
135.405 50.9641 744.552 248 255 234
-9.09271 235.648 1133.26 101 90 76
99.7191 204.417 1061.01 241 230 213
16.5629 -58.4556 972.311 96 90 83
-7.46147 21.0381 922.785 181 173 154
-583.009 329.995 1599.39 178 157 135
113.085 -37.6209 846.975 220 226 210
209.056 79.1053 944.09 231 233 214
38.5746 176.454 1049.16 163 143 129
32.8368 54.5778 1041.22 234 206 175
159.25 -21.8854 881.313 169 175 146
35.6492 122.161 968.797 156 135 125
-18.6227 -66.9427 943.471 202 137 120
64.1592 75.9499 1090.52 232 212 194
337.4 441.654 1212 151 176 187
-61.8864 66.1263 985.533 255 254 251
181.426 -34.965 882.924 152 143 120
213.319 284.261 1025.09 255 255 230
-352.506 -6.13106 1285.83 133 127 119
-58.9435 80.4535 968.455 254 251 242
270.321 242.297 1029.26 203 193 185
-3.05379 111.212 998.616 156 107 82
43.829 176.597 1050.09 125 103 94
243.577 376.388 1117.16 110 136 160
93.3759 19.2752 917.854 195 192 168
-466.634 69.5036 1129.55 247 223 193
113.611 268.548 1066.36 244 244 227
-498.11 78.2728 1177.21 243 229 209
-28.8893 161.524 1035.95 253 249 247
44.0265 20.2754 1001.63 249 235 207
-720.204 3.19221 1205.28 228 223 208
-505.836 83.9332 1174.78 186 133 109
-440.702 172.295 1204.74 255 238 233
-597.152 280.741 1316.08 245 241 222
-38.2816 134.28 1094.73 150 121 111
-331.242 -8.80271 1200.97 79 77 71
-525.645 -16.6735 1238.84 104 98 83
65.6017 86.2869 969.047 188 185 160
312.719 392.893 1276.7 102 127 110
-618.822 83.9995 1261.74 188 186 188
42.0316 132.101 1007.46 245 230 217
-648.534 271.853 1368.76 176 172 169
-631.556 54.7723 1200.24 253 248 237
-636.994 266.024 1373.2 255 250 250
157.074 -17.5217 881.316 245 249 224
-47.3142 49.2618 987.435 149 145 151
-45.0993 -57.2285 999.685 55 54 41
330.872 441.792 1200.29 151 178 190
-365.524 -41.4769 1299.41 84 88 77
-386.598 254.475 1450.6 139 111 99
183.721 291.651 1060.71 191 190 166
-395.396 -4.91676 1471.52 21 17 7
55.6089 149.261 1067.58 207 181 173
186.535 72.7624 952.89 222 239 216
49.6984 152.249 1009.75 231 204 188
219.536 412.58 1318.48 181 212 219
-583.129 68.4795 1111.76 169 156 150
62.2751 174.459 1053.17 87 63 57
-16.7411 206.52 1083.52 140 115 103
178.182 272.581 996.624 255 253 232
97.978 14.7658 918.328 159 147 132
130.008 -49.7531 876.486 253 255 244
-505.504 76.33 1238.08 222 194 167
7.09476 115.917 1040.29 254 247 222
-448.746 21.3234 1153.21 133 115 100
-678.451 84.1756 1309.94 234 222 224
96.9325 142.711 979.4 254 247 232
-742.834 97.321 1333.74 251 250 249
-276.572 275.283 1312.79 22 15 6
6.81169 8.5784 937.841 205 183 163
-460.285 198.978 1290.26 207 179 151
108.001 -100.837 932.771 105 99 96
56.9599 -77.3009 954.477 49 63 60
-797.364 70.8849 1394.02 180 181 176
-396.959 -39.3216 1338.04 93 119 115
248.289 367.069 1203.27 228 236 235
121.427 108.994 981.312 245 244 215
-428.096 250.746 1354.14 128 125 111
169.287 49.1714 949.428 241 244 221
-446.979 225.825 1298.41 184 154 121
262.506 387.485 1188.36 146 180 179
-539.577 48.4104 1159.27 214 159 140
161.829 44.9864 913.96 139 150 132
165.765 51.8832 916.542 157 159 131
64.6206 122.288 1050.66 183 144 127
-44.8078 -58.5111 1069.66 56 58 36
19.5813 46.7679 896.357 166 132 101
116.753 6.65248 908.081 168 163 160
118.975 181.642 1022.29 184 185 173
138.685 97.1981 997.259 251 250 229
-27.4819 173.741 1079.63 212 208 206
-473.859 112.017 1151.91 214 166 147
-510.15 374.177 1378.62 157 158 136
-286.175 159.736 1320.42 129 91 81
-599.868 369.635 1407 136 136 121
-669.329 50.8919 1248 249 233 219
100.181 273.281 1064.37 219 210 192
-420.827 329.582 1363.84 207 173 133
-542.178 102.327 1296.15 251 234 213
182.77 118.243 941.321 231 247 236
306.974 333.391 1098.56 191 201 196
70.9752 79.3494 986.474 219 202 177
-536.78 58.3784 1186.18 251 234 220
-642.761 42.5534 1374.85 191 138 116
94.3569 10.7602 951.276 205 191 171
89.445 272.886 1062.55 239 225 205
198.114 319.359 1175.14 237 236 222
114.029 113.847 980.493 190 190 167
-524.252 114.339 1270.6 255 243 219
182.178 15.0739 885.886 134 135 118
185.681 107.341 890.952 249 254 236
55.7219 82.5407 903.326 222 219 195
-473.192 337.507 1374.82 210 164 136
