-277.3 190.804 1042.14 33 28 32
-0.419167 331.457 923.487 228 235 228
-393.221 126.209 1539.47 249 234 227
-492.023 0.564182 1395.88 226 203 179
-118.273 23.3299 1096.72 254 252 252
-494.733 62.6869 1329.67 241 233 211
-293.924 304.622 1249.36 38 32 29
27.1547 284.833 926.594 248 240 234
-449.372 1.72175 1252.91 240 223 200
-484.156 12.6475 1259.37 189 172 164
2.29201 15.0163 1052.54 234 237 229
-457.378 112.673 1510.99 248 243 241
18.0305 332.518 926.749 241 248 239
-427.113 113.66 1523.67 178 181 183
-430.891 96.2228 1436.07 46 31 27
-491.71 -6.30996 1394.93 184 166 144
-114 31.3489 1012.13 252 241 253
-455.632 19.4082 1776.25 211 232 230
89.6812 27.2054 951.251 183 197 194
-93.582 170.082 813.682 216 214 210
-468.876 67.6649 1586.3 225 213 203
-7.02928 304.059 889.774 225 188 179
-18.7777 10.7826 1029.61 214 218 210
-0.468581 258.06 889.41 173 147 131
-513.614 76.407 1398.56 249 251 250
-35.1176 37.2319 989.114 255 254 250
-66.7723 247.362 897.637 173 168 171
-430.269 -19.524 1344.58 204 181 172
-78.9381 301.934 876.634 200 203 195
-27.7833 32.2983 990.191 135 143 137
-460.406 -17.149 1445.89 192 172 151
-362.008 83.6018 1460.55 179 153 141
-416.007 254.513 1440.16 191 163 150
-65.2508 220.077 809.628 165 162 161
-309.059 305.51 1234.37 240 244 237
97.3996 25.5862 938.814 11 7 6
-366.269 112.582 1463.43 46 31 26
64.6013 343.125 969.172 193 211 208
32.8752 286.148 961.358 206 188 188
11.6379 22.6852 996.538 137 146 142
-249.111 291.175 1101.19 253 252 248
-400.864 58.4757 1310.99 139 114 107
17.8577 268.218 924.349 244 238 222
189.174 352.295 1107.87 210 184 181
16.6116 25.2478 997.511 239 255 255
-495.551 13.4125 1322.68 198 182 174
-144.936 55.5878 1092.71 103 66 55
-555.359 465.29 1715.49 75 69 63
-556.692 109.844 1384.8 255 251 235
77.2425 367.252 1008.98 207 201 203
-245.594 325.858 1132.85 250 255 255
-36.5688 23.5308 1027.06 255 250 244
-521.153 417.667 1541.54 106 111 113
-545.274 484.422 1745.9 241 238 228
-484.494 21.9664 1260.3 147 141 121
-524.49 119.785 1325.88 223 203 190
-269.71 82.2964 1259.52 223 222 223
-87.3195 187.213 756.88 164 170 165
-311.209 38.0814 1330.86 231 238 232
-468.728 164.519 1291.69 23 10 7
-367.774 360.142 1416.93 133 140 133
-557.466 19.4726 1503.98 176 167 144
-351.762 46.6311 1541.09 84 87 77
-90.3576 205.902 824.815 125 133 135
-374.911 103.713 1542.56 244 239 236
-120.577 34.9051 1161.45 34 4 6
-421.113 268.212 1465.99 192 185 172
-373.225 17.2035 1615.31 211 199 192
131.826 221.443 999.859 162 167 166
-133.94 37.8245 1049.57 105 93 92
-35.4974 6.17413 1068.01 237 214 197
-385.999 377.57 1463.15 123 137 134
-561.765 95.7787 1380.23 255 254 229
-126.23 20.6224 1094.76 220 231 219
67.9562 341.618 955.173 43 50 50
-55.8823 227.876 831.201 215 205 205
-240.238 301.055 1083.43 220 223 222
-372.663 85.5244 1524.09 191 156 153
-121.807 161.832 796.735 138 134 124
-550.724 221.665 1489.99 130 104 92
-279.381 111.137 956.182 197 191 183
-139.596 44.8602 1093.27 234 207 194
-520.309 217.669 1417.93 246 241 227
-85.7042 207.523 831.315 64 69 68
-79.0224 16.9438 1128.97 107 61 44
-48.4609 309.288 870.466 225 196 188
127.111 226.064 1009.28 58 64 64
-69.8553 15.0562 1106.61 77 51 35
-459.663 100.598 1148.11 115 81 60
-123.367 17.5901 1077.33 116 118 113
-56.5258 19.4013 1064.75 255 237 225
150.696 177.554 1067.55 75 39 30
-255.961 328.838 1172.29 157 160 156
-543.647 141.787 1395.77 230 209 189
-441.947 310.537 1323.5 255 250 240
86.6961 356.572 973.325 216 212 227
-490.182 307.012 1444.26 153 128 109
-82.9921 206.918 854.303 44 51 45
-489.271 92.1017 1203.49 132 115 94
-402.093 87.6586 1529.04 129 114 111
-336.2 92.9506 1466.52 85 58 42
-537.729 236.258 1478.92 157 125 107
104.93 224.003 984.142 41 30 19
-505.75 364.502 1534.81 151 125 106
109.844 214.333 984.507 49 19 7
-81.2957 92.4917 898.386 217 216 212
-105.906 50.9375 1056.43 149 123 132
-91.4482 7.05126 1101.5 239 231 229
212.781 415.085 1115.34 68 40 37
115.037 246.347 986.533 185 164 155
-109.143 194.056 788.081 136 130 126
-121.204 140.093 758.816 238 245 231
-160.473 75.5504 1004.26 58 67 64
-77.6851 172.086 799.966 42 43 44
-489.522 303.072 1531.21 220 219 216
-104.192 43.8577 1014.82 246 230 213
-3.04672 12.2169 957.102 179 181 177
158.973 311.101 1019.14 214 164 152
55.6676 67.065 902.618 133 110 93
101.271 222.22 966.158 170 140 123
-44.1728 335.731 872.238 202 182 172
-95.5647 257.365 853.084 106 101 91
31.8906 60.2394 930.87 136 165 172
-481.269 86.1499 1338.4 147 142 137
-35.7049 187.486 892.287 128 129 128
-337.876 82.5299 1538.26 79 75 66
-465.017 313.474 1386.71 161 140 129
-459.627 474.449 1486.59 146 143 136
159.615 307.572 1015.85 55 8 3
111.688 243.25 1024.01 93 61 35
-424.133 37.3191 1792.57 146 144 146
37.333 301.795 940.381 186 144 133
79.014 300.565 969.719 23 50 55
-273.145 110.056 978.643 171 159 139
-173.013 76.1031 1060.67 254 240 218
-52.1601 39.6321 986.091 235 229 210
143.482 275.789 1071.54 128 134 130
178.834 327.134 1062.36 177 149 139
-532.146 16.413 1307.51 76 71 48
-515.807 155.131 1333.48 179 141 124
-493.011 299.412 1441.96 241 210 191
-518.071 141.609 1330.68 183 156 138
135.301 271.892 1013.36 139 169 174
-397.984 -18.0318 1225.87 151 131 120
-32.5123 64.1226 920.446 43 100 89
148.808 354.94 1040.5 102 65 55
52.15 279.933 964.34 157 156 145
97.5504 353.455 1011.73 209 136 129
-77.7825 303.395 836.438 255 255 249
-518.362 148.303 1331.47 255 244 227
100.634 243.429 970.266 143 118 110
-517.334 294.029 1494.77 250 239 225
-531.014 96.1321 1572.42 130 134 133
-115.535 45.8656 1030.76 249 206 186
124.6 260.452 962.403 103 120 137
-53.2712 168.77 847.838 58 73 70
-177.102 68.3307 1061.82 182 146 128
58.8606 181.673 960.232 152 103 92
-435.105 257.452 1256.58 171 137 120
76.3152 259.35 967.29 133 121 112
-18.7573 312.063 919.561 148 107 98
-355.453 -17.1837 1447.36 74 75 66
97.5846 358.464 1011.98 226 173 176
-105.07 68.4552 977.152 252 234 221
-585.749 97.0464 1500.2 110 98 82
-91.1834 9.20033 1049.75 172 166 167
-30.2231 63.9869 951.836 45 104 99
-370.765 -1.11752 1429.13 146 172 162
-90.2337 224.934 757.843 139 142 126
-100.297 63.8179 977.898 185 153 136
-520.303 286.204 1492.58 183 159 141
-88.34 56.729 979.95 155 147 135
149.596 368.32 1060.28 187 158 137
-178.513 347.195 1035.4 250 245 233
-176.421 327.988 1012.03 254 246 237
-61.9735 157.845 828.686 57 69 68
-93.1345 61.5196 979.224 237 202 188
-337.691 22.6595 1383.52 31 40 45
-73.6905 307.819 837.346 171 175 163
-360.377 32.9736 1453.34 125 130 133
-557.968 24.0936 1370.39 169 159 132
-84.2866 185.684 825.468 55 56 49
126.87 286.945 1040.43 18 34 42
129.978 287.697 1052.45 67 96 108
-474.253 10.9199 1405.04 158 142 126
-416.373 -4.60612 1330.98 220 207 194
-109.803 208.943 775.303 245 249 235
-135.043 63.3532 986.631 157 124 92
-106.238 58.75 992.407 161 143 134
-308.866 300.197 1282.57 137 131 113
-68.893 75.4926 948.321 88 131 122
-367.692 343.959 1340.11 205 188 176
-74.0317 165.94 844.028 51 73 66
-449.802 57.682 1114.41 158 139 116
-552.543 41.9916 1302.07 165 139 99
-46.9913 56.766 969.259 87 138 138
-189.346 65.7357 1082.71 250 250 249
-591.186 48.8309 1398.42 255 238 200
-460.432 76.7082 1345.53 126 120 125
-74.4518 162.922 813.477 151 151 137
