417.264 212.125 951.469 228 233 231
302.137 -40.1631 864.523 225 224 218
291.501 -85.7343 919.779 228 228 230
302.317 4.95106 896.553 242 238 229
204.922 -98.6631 996.385 215 209 207
178.259 -135.983 1048.12 46 43 42
-229.758 359.001 1162.66 213 212 205
-433.876 343.022 1206.35 253 251 242
361.039 146.072 927.419 38 46 40
-421.04 142.637 1118.61 242 223 207
252.854 -63.0689 887.806 214 202 195
-436.853 143.278 1168.01 97 69 60
-343.712 494.09 1269.47 58 64 59
468.151 547.205 1336.68 0 15 37
252.248 -12.3645 862.379 244 237 232
-413.969 197.221 1155.5 90 85 81
271.487 69.515 975.976 255 245 229
312.546 43.4266 850.237 169 163 155
195.259 163.935 1007.23 237 237 232
438.884 336.154 1111.17 241 254 246
168.101 51.9846 984.272 253 255 250
-443.408 314.377 1199.47 255 252 241
-411.883 173.805 1124.14 251 248 236
227.971 -67.2762 885.36 211 204 189
522.483 483.576 1253.46 30 54 61
453.507 254.234 1025.69 231 241 233
-498.796 340.693 1336.4 95 84 81
136.147 90.6344 982.317 85 77 66
-401.671 30.7246 1066.99 96 40 31
312.134 -50.2588 893.374 255 253 248
96.8408 -36.2146 935.197 216 219 217
444.823 344.76 1112.15 72 97 94
312.702 -41.8398 877.818 233 244 234
345.861 15.5305 871.447 230 234 233
-467.774 477.022 1476.6 53 52 52
255.737 151.731 1000.83 185 163 163
174.333 -141.22 1089.23 89 68 59
-231.755 179.259 1236.51 179 152 133
-349.792 478.88 1250.33 107 110 108
-253.563 302.406 1182.26 255 246 234
386.142 -23.9573 900.273 106 115 95
194.795 -98.5366 995.198 220 180 156
392.835 157.217 996.837 59 74 60
-411.667 198.75 1216.38 254 252 249
194.449 -112.414 1033.18 229 217 223
239.776 55.1812 957.801 124 100 93
89.9279 -34.4495 917.711 25 29 24
227.894 59.9374 940.407 254 249 235
-230.782 58.968 1239.84 160 146 133
-434.793 350.639 1187.22 250 248 232
409.731 127.695 961.044 230 242 226
-444.198 335.759 1201.75 100 96 101
262.18 -57.0166 860.341 173 172 164
-232.25 341.144 1160.45 255 245 219
152.824 130.064 1064.86 86 66 56
355.627 33.3524 859.496 230 248 222
-449.878 6.87381 1049.35 241 233 224
284.487 -85.6921 919.238 217 213 215
-428.831 131.952 1169.85 159 111 94
359.975 365.278 1150.28 51 93 100
-304.702 90.0135 1053.5 229 211 192
-439.98 4.31649 1053.86 228 220 208
156.214 -85.6442 973.616 228 218 211
-372.42 188.293 1104.19 127 121 118
222.607 50.346 955.637 254 253 231
-440.384 321.626 1244.22 231 229 209
-272.25 256.745 1173.73 136 100 75
-405.41 23.6014 1044.43 129 116 105
-464.397 344.82 1255.9 224 222 226
-324.603 71.942 1093.64 124 90 69
-413.094 120.674 1119.6 237 207 183
-464.555 321.322 1192.5 92 88 67
-337.124 77.9287 1140.2 255 249 232
-411.013 137.463 1121.6 127 92 76
-320.432 476.928 1217.77 174 180 174
302.787 -99.3279 919.558 170 189 190
326.991 67.3791 902.631 255 254 232
208.483 169.151 1054.54 115 80 75
114.05 -35.1189 905.428 223 214 205
256.284 -12.6984 891.482 219 199 187
-466.251 278.585 1230.58 56 46 51
290.691 -85.142 889.219 203 218 211
-404.664 185.434 1127.46 251 246 237
152.338 139.628 952.498 236 239 235
250.17 151.823 985.638 194 180 180
418.658 244.215 985.487 207 222 216
133.612 95.6693 996.419 252 249 231
130.208 74.4795 933.828 128 94 101
-290.526 206.028 1164.69 255 249 225
265.477 -8.31931 892.579 67 52 50
-309.421 60.8232 1023.13 254 246 217
-330.043 7.81846 1020.3 251 246 207
-269.504 24.1368 1188.8 211 180 169
409.259 457.101 1159.71 211 238 245
161.939 -98.7281 1009.98 236 235 237
307.61 -167.177 1129.53 37 34 29
-346.149 -8.63077 1035.98 246 232 209
369.163 13.9127 902.103 218 225 205
371.174 -28.9815 882.092 118 125 112
344.751 -7.97519 842.403 233 250 229
283.707 191.004 1019.09 132 106 96
-274.858 247.836 1172.32 243 220 203
-390.965 148.86 1094.34 255 241 222
140.967 76.049 982.154 243 222 208
213.69 100.213 957.575 255 246 241
-555.726 54.3267 1114.68 252 243 238
247.146 -117.93 993.105 112 81 66
-449.339 382.105 1266.6 69 63 46
251.479 120.067 929.744 113 86 80
-375.603 86.5881 1160.76 253 251 224
430.643 159.829 947.664 201 211 203
228.651 15.3371 861.886 225 210 206
246.829 52.555 953.48 240 210 192
95.7835 -39.5042 902.9 33 33 25
346.594 39.272 873.078 232 241 241
-453.894 1.87003 1096.6 255 247 234
-367.198 91.3883 1132.49 254 253 239
375.484 22.1 916.358 228 228 211
-434.771 160.884 1170.31 221 204 198
186.807 240.362 1076.13 242 243 239
-277.5 241.808 1171.12 174 131 111
366.237 -3.9236 900.582 135 148 131
208.376 -49.002 915.085 213 210 202
-337.979 460.111 1457.76 220 222 212
-498.883 261.942 1282.51 142 119 120
-295.635 188.325 1161.87 233 213 191
362.081 -1.69744 893.704 187 199 192
-357.659 57.4828 1008.41 94 30 6
102.665 -51.7579 969.198 29 29 16
-186.271 316.375 1345.09 47 38 36
169.093 -99.7212 1047.6 45 40 41
239.578 52.525 952.875 255 230 213
276.438 170.57 968.369 246 229 207
366.315 116.529 895.368 225 237 217
-270.368 65.2439 1215.49 41 24 13
-397.515 444.538 1293.32 123 123 118
229.135 188.212 1037.92 221 203 188
-474.856 140.215 1254.97 126 81 67
-298.418 128.387 1080.59 223 186 157
288.573 71.864 930.688 235 234 203
260.316 -120.844 1040.26 136 99 87
242.529 156.297 975.749 107 87 86
-410.361 22.0608 1091.97 151 70 52
201.55 48.6916 905.766 250 250 229
-416.816 167.609 1177.2 157 132 117
-250.412 65.6698 1196.73 168 154 150
222.751 166.04 997.684 171 154 154
-260.839 266.077 1145.8 164 131 108
200.252 157.888 970.594 220 179 171
-400.081 434.256 1291.13 172 171 170
-489.798 252.604 1174.35 128 108 106
362.756 317.116 1044.27 233 235 224
239.868 -2.76014 902.952 62 53 37
-297.676 108.584 1056.55 135 98 79
297.855 43.0776 884.414 243 236 216
-584.343 60.3163 1175.39 238 239 240
-380.63 74.9787 1158.45 255 242 235
-354.054 -0.904291 1079.39 255 246 212
288.334 -131.116 1130.41 248 218 209
-238.497 88.3266 1287.6 175 173 165
347.551 96.7147 857.919 227 250 240
152.912 -127.731 1044.1 88 84 75
-222.903 63.0051 1289.62 168 158 156
-248.225 320.637 1185.01 253 236 213
419.222 349.957 1156.14 237 250 244
-229.373 88.5194 1290.3 163 164 160
-243.567 223.7 1299.24 192 159 144
417.927 303.541 1064.77 237 237 209
-235.125 56.7393 1327.56 57 27 14
-496.043 529.93 1633.3 190 187 189
204.251 324.847 1082.49 91 88 86
372.012 445.689 1093.62 221 247 250
273.99 3.34414 825.796 92 80 73
135.941 71.1395 981.189 124 78 74
332.408 391.498 1251.68 97 123 124
204.302 330.234 1127.78 89 89 81
-330.861 -3.49478 997.944 156 134 102
-341.383 303.909 1272.85 255 247 230
163.411 -135.75 1088.38 181 171 161
-327.69 287.377 1216.75 141 120 105
309.765 203.174 1069.2 132 100 80
-334.156 47.4469 1089.2 222 170 134
135.485 29.95 978.676 247 244 238
164.984 -55.1368 924.015 162 150 129
-415.155 252.709 1105.55 148 137 143
283.651 -51.2782 835.354 21 15 13
341.477 398.646 1177.29 100 139 139
198.984 235.087 1058.61 111 114 102
300.19 -69.9186 891.044 64 84 78
430.289 204.973 984.392 165 169 163
438.894 432.181 1162.02 73 107 109
223.48 162.077 981.423 120 113 110
-459.97 315.482 1275.03 192 192 169
326.996 81.4012 934.725 242 243 221
-314.53 -111.245 1244.63 78 72 56
268.08 -87.7728 917.765 119 132 139
-303.657 -16.4071 1044.55 170 152 132
-255.772 283.809 1148.83 182 147 134
-315.01 99.3893 1098.28 124 86 68
-243.33 207.441 1297.78 74 42 24
242.635 181.325 1021.18 251 226 212
236.535 14.9427 954.816 212 193 180
-338.268 259.189 1211.08 151 110 102
168.084 153.439 1027.85 131 129 132
-347.02 96.8775 1115.57 226 193 178
-323.889 57.9879 1061.77 177 135 94
-337.32 87.9035 1090.87 247 218 200
275.82 129.584 1001.77 132 105 98
-308.182 40.5255 991.672 141 83 48
172.121 215.947 973.633 129 132 109
402.146 103 942.036 203 224 200
186.957 104.555 954.628 254 230 220
245.87 173.984 1000.89 240 216 206
149.603 -51.5774 861.453 181 173 147
233 15.1478 906.111 173 159 150
503.444 460.266 1220.65 104 137 148
-332.81 115.23 1094.03 255 236 216
332.002 -3.80317 841.85 173 202 181
150.807 34.2246 996.367 221 218 213
-297.557 326.13 1061.16 195 199 181
407.335 -13.2276 933.515 188 191 178
442.796 216.791 972.451 137 140 128
-511.302 116.311 1116.79 170 156 150
-396.812 171.768 1128.99 144 118 105
370.175 447.869 1184.38 85 117 121
-438.085 152.117 1359.57 202 157 141
-517.97 410.118 1381.3 212 207 198
-279.983 303.316 1264.35 215 192 188
134.384 -42.9211 931.86 19 25 19
279.684 322.77 1017.78 91 112 117
-405.521 115.361 1121.74 156 118 87
227.994 135.918 927.984 216 184 168
-311.739 225.069 1090.8 125 116 104
238.671 -113.519 1056.31 168 152 150
-359.037 63.2358 1082.61 255 254 228
343.983 186.801 826.08 186 200 191
-235.879 69.3989 1261.73 60 51 38
-313.211 -31.7532 1140.23 160 149 133
-527.749 254.566 1317.05 226 203 186
170.511 138.112 1027.33 210 205 217
-246.049 196.045 1409.86 132 109 95
230.151 -108.671 998.654 168 157 145
-287.917 211.968 1165.9 176 154 128
-163.599 262.807 1137.17 179 162 145
-232.716 248.996 1322.74 63 47 39
377.54 56.509 905.702 220 230 213
128.242 46.8481 978.719 250 245 242
-433.946 279.739 1143.33 250 239 225
-249.166 -18.7483 1214.37 108 133 129
-366.147 150.354 1167.72 136 104 86
215.995 13.7552 889.302 70 47 32
-319.375 196.42 1074.16 147 144 132
126.159 85.6452 980.655 152 150 135
220.041 254.933 1081.57 212 214 187
194.055 38.8825 935.227 224 193 178
-375.314 158.889 1062.73 255 237 229
201.478 247.45 1101.51 195 202 194
-447.726 246.857 1134.8 157 146 139
369.917 79.9767 986.278 184 177 148
278.006 240.571 943.543 255 255 235
-575.319 71.2707 1165.37 169 160 154
-441.89 221.589 1134.16 244 219 207
399.372 20.6621 904.534 201 207 183
-323.1 -12.0602 1140.38 136 116 97
-357.116 172.52 1107.75 174 157 131
389.239 133.388 911.385 241 255 232
-556.432 73.6767 1116.16 253 250 241
242.744 -116.205 999.558 154 112 100
-326.799 259.129 1177.39 232 191 185
-214.847 350.955 1278.3 151 155 148
360.623 34.0161 902.961 207 214 196
163.512 39.2263 998.313 237 226 224
144.405 46.391 883.172 249 255 254
173.323 -95.3797 974.868 236 210 204
290.635 -156.117 1100.04 183 177 175
-486.066 249.637 1260.21 189 162 153
208.945 94.0419 991.918 221 207 179
-273.054 56.1566 1213.91 125 104 93
-577.473 26.5217 1103.15 227 220 195
270.134 -3.9081 893.274 121 111 100
230.932 -116.804 1016.04 233 199 180
-484.917 104.355 1093.08 247 231 223
-569.884 91.5782 1150.71 218 216 208
-516.879 299.234 1279.88 186 161 151
-288.046 -7.12262 984.884 136 116 91
288.23 354.175 1058.64 96 113 140
386.814 369.183 1153.57 121 154 154
255.838 237.138 1085.4 168 170 158
-340.909 252.913 1209.73 198 170 161
-462.093 87.0086 1063.43 239 239 228
232.062 107.821 972.948 237 201 177
-237.535 230.55 1301.68 97 57 43
-468.477 232.78 1183.28 173 122 112
275.487 -54.6509 874.033 63 54 54
193.912 14.0097 964.566 154 147 127
189.768 121.403 1005.1 254 249 243
244.284 172.355 964.886 190 163 157
126.357 -93.3229 1006 122 118 116
126.111 80.7541 980.379 252 254 246
-542.413 71.2563 1121.62 163 157 160
235.083 160.989 974.992 129 99 93
211.907 -3.86689 950.951 77 61 45
335.241 253.961 1014.83 255 255 213
275.626 -95.5183 962.851 188 195 194
-328.873 362.933 1321.84 160 125 84
-523.836 203.698 1200.82 234 231 207
-252.867 -18.5153 1316.08 39 34 33
390.483 94.4835 894.941 242 253 228
-295.876 298.105 1138.29 236 227 202
305.495 169.625 983.245 186 171 148
-546.059 107.357 1123.51 255 249 247
196.238 -2.67544 898.274 181 168 149
301.863 144.934 1005.48 243 214 196
219.823 220.574 842.066 89 87 58
354.696 54.3162 889.209 191 213 178
-540.884 195.873 1234.9 216 210 183
-238.312 234.66 1239.23 133 112 97
-520.557 116.449 1144.81 161 124 111
346.064 21.994 871.898 149 172 158
-488.272 298.25 1224.5 164 118 115
253.038 206.877 954.012 252 253 246
-309.916 215.881 1078.58 183 161 146
-355.877 99.2648 1055.03 154 112 104
444.862 447.889 1176.74 227 252 248
-289.419 38.0873 1054.8 145 133 131
292.667 44.2662 929.293 230 205 181
188.226 -3.81139 915.862 100 88 67
-328.001 126.24 1096.2 217 157 127
217.662 -107.775 978.601 136 81 64
281.417 -8.33725 893.94 60 42 41
402.857 181.485 933.253 198 209 193
-369.372 95.1666 1081.48 223 181 174
381.226 505.792 1323.54 139 167 165
254.308 -85.6214 932.164 34 66 72
-455.514 13.7697 1076.73 179 144 126
186.83 -146.307 1211.51 89 79 75
308.916 -160.633 1084.62 88 92 85
239.846 193.628 1039.58 153 126 105
-237.537 194.396 1207.92 131 106 93
321.418 80.2056 1019.07 226 222 195
317.88 -29.5374 866.387 68 70 56
126.063 75.8976 980.1 252 246 235
-544.301 242.259 1261.94 167 170 156
267.857 83.386 831.239 197 182 157
163.473 203.499 1043.87 97 95 84
-409.259 368.861 1227.89 175 186 160
137.648 59.1029 963.2 238 232 234
136.684 -57.5338 906.84 135 124 104
262.841 92.0992 915.019 255 236 213
-258.262 272.05 1147.07 255 241 222
-285.092 160.703 1092.03 110 70 55
-509.882 51.9009 1041.95 209 216 213
-463.393 193.662 1073.05 178 155 135
205.909 -104.001 965.094 137 56 41
-215.44 192.484 1304.53 140 98 79
262.151 -158.91 1037.79 81 87 79
-340.665 57.0354 1022.09 186 150 115
-298.178 179.528 1160.46 117 69 60
220.229 -71.6523 947.067 15 28 16
373.289 0.534535 901.376 170 175 152
187.668 237.931 1048.27 115 121 123
252.246 142.103 1038.06 189 158 152
-549.532 247.167 1270.96 251 255 251
320.651 69.4045 872.989 149 142 121
427.18 185.296 983.014 172 180 163
-303.664 317.76 1190.61 132 116 96
263.546 181.75 1023.58 123 88 77
374.801 15.574 873.35 182 190 161
-504.668 226.072 1186.22 136 110 93
-234.351 15.0839 1281.47 84 59 54
109.66 -1.50068 1001.89 99 93 84
195.624 11.5547 887.082 173 161 142
341.534 -140.393 986.103 40 97 94
309.883 186.523 1021.94 185 160 146
295.273 91.7686 901.363 249 242 217
217.203 -123.21 996.31 196 145 144
-470.689 17.1108 1115.16 250 206 189
414.77 358.859 1092.44 121 156 163
-235.335 11.6409 1129.87 134 110 90
-533.486 239.891 1266.07 198 151 126
433.064 278.793 1036.74 184 204 175
290.805 98.4105 901.329 173 161 130
196.959 104.491 1009.45 228 208 173
260.385 87.8101 928.901 242 201 176
-478.232 247.436 1137.65 255 253 253
149.314 157.069 987.602 223 220 218
175.725 229.256 1073.94 117 107 96
-580.025 194.191 1283.66 254 250 233
272.303 -161.688 1073.85 140 147 133
-434.275 216.371 1136.37 193 136 130
-573.572 116.153 1183.45 237 230 233
-371.283 158.702 1278.9 204 162 139
110.518 0.872374 973.54 161 148 131
-282.702 166.295 1093.36 109 71 57
328.449 -52.0392 812.739 121 132 107
