312.767 -55.0259 956.448 252 253 252
401.118 229.064 1019.39 249 252 246
339.182 88.268 969.754 29 33 19
-583.619 159.989 1060.28 33 20 15
257.695 0.785499 1008.1 242 243 239
277.636 -53.9687 861.586 2 6 10
183.206 169.402 1071.94 242 224 219
299.569 -5.1879 959.371 225 214 210
120.61 23.7572 976.332 198 192 187
214.466 1.81843 951.598 250 241 227
-388.962 181.096 1034.34 91 67 49
402.313 176.962 1031.38 246 255 243
277.905 -95.4596 985.018 251 252 253
204.116 43.8325 967.162 255 255 237
154.893 -108.946 1047.39 236 230 221
336.56 133.305 956.589 58 62 60
-384.37 236.034 1086.88 88 69 65
-289.79 396.352 1149.14 214 210 206
214.553 6.53187 951.93 245 237 223
240.558 -70.8047 916.468 201 195 184
-314.489 312.348 1134.53 255 254 239
-433.887 167.221 1035 92 65 34
-507.906 354.134 1125.37 232 230 213
240.443 152.727 1057.26 212 188 183
-490.843 587.555 1347.65 79 83 77
139.353 143.899 1023.5 252 247 246
-439.877 136.801 956.534 237 206 182
-565.338 341.177 1156.51 103 67 56
-459.209 567.667 1287.64 81 93 88
-533.61 390.519 1175.64 33 32 29
188.522 158.808 1072.02 254 243 234
-479.547 160.236 1099.91 87 64 46
249.35 127.94 1037.03 236 224 227
367.389 143.648 1030.22 56 69 55
391.932 196.394 1000.69 199 206 197
225.921 51.0595 991.256 253 237 232
292.038 -68.948 920.951 171 178 172
419.135 241.307 1061.94 219 228 214
361.802 482.016 1237.11 12 65 92
86.0163 -34.6024 1022.53 28 25 21
-489.219 29.4113 991.739 225 208 193
339.115 4.51055 998.814 155 148 139
199.878 188.592 1075.44 219 203 195
258.323 182.624 1041.52 87 66 59
300.067 469.888 1270.6 73 102 107
220.46 136.546 979.357 225 209 200
-597.742 152.044 1087.36 88 73 64
-306.667 207.93 1217.05 208 187 168
-328.464 330.778 1190.43 127 111 96
-427.632 80.1787 1015.66 80 41 23
379.107 163.773 976.053 218 228 208
-481.575 25.6954 952.376 215 192 183
-560.01 377.761 1163.61 105 106 92
-497.387 332.255 1126.77 238 245 223
-498.204 324.763 1074.41 142 134 115
-375.953 244.789 1061.02 255 251 241
350.196 396.223 1291.46 69 91 94
407.155 119.395 1052.27 233 246 241
-493.054 344.406 1129.74 238 235 216
368.527 41.7743 1004.34 231 243 227
125.597 28.6289 977.31 229 231 230
274.086 380.899 1217.31 226 250 255
-508.025 471.072 1256.93 40 39 36
353.408 -10.0113 963.346 241 255 252
364.654 4.50742 1000.86 221 230 223
182.22 -51.7869 944.394 210 193 174
224.547 183.822 1078.5 252 232 226
-415.852 72.1094 976.316 252 225 217
153.786 47.5636 1019.53 237 231 226
-510.779 365.444 1125.57 243 241 230
328.431 -73.4652 935.509 103 110 86
229.786 208.111 1194.22 234 208 199
221.526 167.136 1017.84 252 234 221
-425.514 85.2 1016.67 211 160 148
-516.398 330.097 1119.35 251 237 220
-462.647 170.603 1071.46 255 243 226
379.812 -0.452479 1001.57 215 225 208
338.684 381.114 1252.45 54 85 94
-407.964 206.65 1003.47 103 98 89
367.478 11.9432 1001.73 237 255 251
238.766 60.6118 1071.59 198 188 181
-461.884 44.507 1002.1 97 85 69
-343.588 259.569 1007.43 94 72 62
365.359 -19.5474 963.409 233 241 221
-353.022 125.854 1041.79 222 205 176
-356.898 83.2887 994.817 255 248 234
138.902 129.219 998.545 217 213 220
267.505 253.365 1046.48 234 234 211
296.699 -108.563 1005.38 178 205 200
280.685 -92.2654 963.356 69 93 89
356.568 -39.5143 928.067 244 253 235
-296.388 266.801 1225.14 18 4 3
240.692 5.51741 969.631 82 68 56
-294.375 83.8525 1125.98 169 159 146
-324.703 97.3389 1262 59 51 44
-343.758 264.724 1007.98 228 215 198
-448.57 207.863 1033.47 251 238 225
302.139 -82.788 936.617 202 227 219
-357.769 260.689 1036.64 249 232 225
-394.214 278.241 1138.71 155 131 121
120.567 90.3477 1033.71 162 130 122
368.091 111.096 990.808 220 232 212
-382.125 310.96 1145.12 255 242 232
-368.145 310.241 1117.56 94 57 45
-396.082 399.827 1131.39 164 166 156
-622.649 84.6916 1037.09 239 241 236
222.652 -73.0417 947.047 168 155 144
419.908 500.098 1351.68 77 88 94
-329.703 221.213 1073.5 255 245 230
-327.044 306.962 1161.8 157 114 95
-341.895 205.93 1097.8 229 194 168
213.888 164.628 1049.98 40 23 15
-459.334 431.26 1151.28 40 38 39
430.971 464.19 1298.13 86 117 119
226.932 -63.3528 1040.09 166 172 148
-396.409 97.1257 1123.66 153 126 101
181.254 34.2534 966.469 226 209 187
258.281 370.907 1214.22 104 127 133
-322.81 268.024 1107.7 255 242 225
281.071 -90.3299 968.403 210 238 233
-344.289 200.299 1096.69 134 100 76
244.856 -10.2102 988.841 71 69 52
285.685 -68.9155 935.936 166 159 156
-371.41 253.128 1063.2 214 192 173
-339.548 128.446 1002.29 183 155 124
-340.618 96.5111 1232.42 165 155 146
-305.371 398.593 1198.5 224 213 208
-534.757 414.779 1178.31 247 242 232
395.589 398.419 1224.32 117 137 141
166.732 114.812 1001.94 255 249 241
352.31 444.488 1170.69 225 239 246
-348.781 131.931 1394.81 151 155 152
232.035 173.686 1034.38 115 90 79
-542.348 317.303 1162.51 97 85 85
114.765 85.8122 1056.53 255 253 243
218.534 -122.489 1053.57 104 79 67
128.001 126.943 1040.37 93 62 52
362.197 462.213 1205.46 129 173 205
-341.417 76.8988 947.621 255 249 222
-472.434 182.137 1053.89 253 241 216
-498.108 245.403 1019.25 240 232 220
-272.956 351.391 1302.48 46 47 32
-340.933 104.499 986.976 64 42 22
-545.562 304.293 1104.85 147 120 119
184.947 172.76 1137.02 222 186 184
130.877 60.1847 979.951 245 241 247
-453.195 435.577 1211.03 82 84 85
199.627 -121.039 1074.9 227 185 166
-383.074 114.389 1031.96 197 152 135
-414.423 275.821 1188.14 101 65 44
327.627 297.558 1055.59 171 172 161
271.656 374.919 1139.97 63 97 111
275.477 -98.9286 1021.67 26 33 27
-442.443 49.7453 1008.96 156 58 26
-325.253 262.295 1106.59 174 140 115
213.653 217.901 1037.81 118 115 90
173.413 242.711 1097.5 65 66 51
-339.227 319.169 1056.35 126 90 78
125.086 -60.4827 952.241 179 174 150
178.92 -101.582 1050.92 223 200 174
-420.162 176.957 1120.36 201 176 162
106.305 -35.2279 936.394 141 143 138
-338.536 85.8968 1172.42 49 35 21
104.715 86.2736 974.622 112 98 89
200.624 46.0181 987.97 242 240 223
-481.361 184.991 1269.28 46 11 9
-466.753 286.932 1081.8 150 137 138
408.107 187.484 1076.87 216 230 216
-322.27 119.46 1264.99 208 216 212
333.593 -83.8207 990.555 151 153 140
-385.182 104.069 1030.67 153 135 114
191.776 99.6227 986.498 253 247 242
-309.694 332.977 1137.83 255 249 243
-450.83 572.524 1291.14 202 212 207
-333.257 91.8678 1174.39 162 152 145
360.168 395.593 1110.73 77 105 109
106.197 -46.7417 935.675 162 133 105
-310.893 287.412 1098.46 210 186 165
-543.002 298.898 1105.21 255 248 246
311.83 -78.256 937.752 34 36 31
-446.659 42.2697 1007.11 103 46 30
-372.696 105.971 1012.56 232 209 189
179.996 9.29561 983.008 171 157 137
-534.327 405.648 1177.31 159 161 156
250.975 172.422 1125.48 66 38 43
352.305 30.5981 966.555 203 220 182
383.746 200.894 1017.11 181 193 174
-564.204 288.227 1101.15 135 123 128
316.724 250.826 1074.53 251 252 222
428.003 199.155 1040.32 53 52 38
347.454 39.1093 917.022 242 254 236
-408.513 131.274 1025.04 160 118 100
360.7 -12.4014 963.683 133 148 141
-335.843 280.108 1076.61 139 107 87
363.831 -34.947 928.93 80 89 77
-421.572 205.733 1089.59 136 111 93
-368.17 158.04 1112.9 184 146 106
326.558 58.9949 981.302 247 244 214
-599.458 86.3692 998.659 192 188 185
-278.056 189.463 1134.15 130 115 100
140.532 35.9595 979.765 245 228 228
328.259 351.202 1145.02 57 113 114
179.638 234.197 1047.38 199 198 171
418.063 136.3 1072.1 228 242 206
-579.461 444.463 1293.83 122 122 115
88.1403 -43.5672 967.642 33 31 25
-358.847 342.422 1123.53 230 223 208
382.377 91.3259 989.779 241 255 241
108.471 43.0192 975.824 229 222 213
-424.684 188.184 1121.39 173 129 114
-315.84 179.17 988.751 250 239 211
-389.651 140.945 1078.47 255 216 204
127.441 -50.5833 989.055 175 167 141
125.763 85.2821 1034.28 246 223 221
296.42 40.246 1027.86 179 157 144
-509.508 27.2538 966.11 104 96 77
-449.183 47.4522 986.751 252 253 245
-322.643 318.746 1021.12 109 78 63
-403.244 89.2773 981.191 137 88 71
320.722 73.9086 1002.72 255 254 221
-313.503 271.22 1082.54 187 151 137
-471.08 489.567 1210.87 250 250 243
-367.685 11.8562 1055.33 147 146 124
305.124 -107.759 986.191 200 221 212
-431.074 558.587 1249.37 125 133 127
-426.774 435.941 1085.4 130 132 127
-363.304 169.332 1115.02 174 169 131
-366.727 64.3367 1108.02 158 153 141
-317.053 233.526 1249.27 85 55 40
115.723 122.004 1000.42 240 230 215
330.696 -89.1552 1009.94 55 78 72
286.415 417.088 1147.33 111 129 148
-504.631 259.05 1064.94 163 122 113
-361.145 13.7592 937.192 75 59 19
-281.332 250.15 1142.85 100 97 95
249.046 105.081 1065.29 135 116 123
173.279 218.661 962.349 223 220 188
-638.123 123.009 1068.82 230 239 232
-326.522 324.588 1052.95 255 192 171
-349.178 37.7505 1247.98 185 164 145
345.17 370.774 1198.96 120 167 178
177.948 106.267 1026.63 240 198 181
380.28 11.9343 1002.7 193 227 204
-403.174 90.7169 1024.21 247 225 224
-518.625 496.064 1323.5 190 189 190
219.281 167.359 1050.81 111 73 56
-376.903 155.557 1059.86 255 248 236
-373.868 382.845 1210.65 156 86 62
-554.546 318.975 1157.76 253 248 239
88.5375 -86.9254 1001.26 86 85 75
-373.803 26.7757 986.887 213 197 152
165.856 -98.3614 1030.23 233 152 130
185.922 228.326 1010.17 162 153 125
313.443 419.38 1279.57 107 142 156
-496.111 113.215 965.55 245 234 226
-504.957 267.018 1065.7 159 147 151
-436.479 130.336 1089.91 200 149 131
-525.419 30.336 1023.61 73 61 57
-312.833 4.88934 1155.93 79 83 78
220.15 -77.6453 946.458 12 18 9
-310.503 265.811 1220.75 159 137 118
227.926 201.095 975.451 239 241 235
265.023 -23.3122 970.749 152 141 140
-310.641 225.15 1189.35 145 127 116
-451.963 481.974 1174.22 200 200 193
315.06 92.2975 1041.73 239 227 200
328.125 43.9287 1118.77 66 49 32
144.329 123.56 1023.05 211 184 173
-374.54 122.815 1093.87 161 127 100
259.386 121.815 1018.18 252 226 213
116.865 76.7089 975.285 235 206 196
258.777 -75.7266 950.218 124 128 130
359.071 11.4574 965.545 158 186 175
116.821 -51.0947 951.875 84 71 38
404.224 520.994 1376.16 71 112 134
131.758 178.85 1064.89 105 87 80
188.144 132.025 1070.24 253 250 253
-334.446 16.2407 1250.72 50 44 38
-567.602 246.307 1088.73 161 136 119
-578.642 197.736 1065.85 237 229 202
431.756 75.5439 1058.02 226 226 214
357.636 -16.2159 980.089 206 211 201
252.744 -24.1193 953.63 159 144 142
-393.046 105.139 960.596 196 149 125
388.957 61.6552 1045.94 236 246 238
-380.983 401.88 1136.72 163 160 136
223.197 196.238 1095.7 153 125 95
306.761 31.6827 998.178 85 63 41
-276.887 364.72 1203.89 186 193 182
-357.049 245.614 1176.85 183 161 144
236.695 3.22735 990.466 171 170 157
269.052 185.457 1042.98 155 134 121
-300.843 339.787 1118.72 254 218 177
-527.942 87.2181 981.389 255 251 239
207.717 161.909 1074.86 232 189 169
-431.03 582.554 1299.27 198 218 207
225.411 -90.468 999.055 157 191 178
-398.885 103.536 1026.36 246 230 225
174.382 339.141 1172.67 90 83 74
-377.546 63.4947 1030.58 241 207 163
178.555 -122.074 1049.13 239 205 187
-549.532 412.595 1172.32 123 120 115
-579.573 549.138 1449.95 70 70 66
355.094 469.066 1235.28 104 153 179
-596.319 272.444 1135.52 133 110 92
214.813 117.08 1032.1 155 132 120
-535.105 327.893 1111.92 192 150 130
-390.779 98.0186 960.865 113 65 42
405.6 68.946 1001 194 204 184
-591.111 131.789 1005.77 240 222 208
357.478 507.428 1385.73 114 140 149
-478.026 362.183 1201.48 190 190 166
120.828 45.5283 977.694 253 253 255
-397.115 7.64071 1021.27 186 171 144
108.962 40.3863 970.697 175 166 152
-394.9 80.2839 1004.89 255 236 216
-390.138 92.0906 1052.6 246 219 188
-398.35 75.6188 1024.82 196 158 135
-458.77 345.658 1142.29 243 246 219
-362.613 -10.4699 1076.84 138 124 108
297.779 168.973 1060.77 201 182 166
-576.382 141.247 1152.57 237 221 205
142.394 211.467 1090.3 64 52 40
149.049 222.481 1132.24 98 91 72
246.585 -9.66541 921.391 157 148 136
-510.541 124.604 961.09 251 213 190
293.006 93.6597 1001.43 158 158 125
-521.724 124.927 1031.84 156 149 142
223.146 143.068 1034.79 227 186 169
130.528 42.3653 1015.99 169 150 153
283.914 258.118 1071.47 247 240 213
-368.329 21.8424 1397.18 126 125 114
197.73 -72.7764 960.589 109 111 111
-594.883 226.382 1116.14 223 205 174
295.807 241.461 1135.96 255 253 227
-444.731 81.4901 905.293 188 155 143
-533.533 294.235 1108.38 169 159 158
-529.144 403.576 1123.17 148 145 137
172.198 98.9813 992.141 220 197 164
-346.015 50.9567 1167.92 145 121 107
217.54 103.49 1011.96 239 175 152
263.9 63.5932 1034.15 234 207 188
-506.422 387.343 1093.17 229 212 207
201.896 132.327 1031.41 130 98 92
335.812 33.967 993.272 125 121 113
-411.657 74.3772 1136.03 239 197 145
307.851 51.0998 1016.3 202 176 151
-550.068 315.57 1111.6 182 146 132
253.251 -70.4904 843.085 157 187 181
169.6 244.266 1242.35 163 158 141
-506.403 264.007 1048.68 192 178 178
-584.427 51.3377 926.208 221 218 197
-559.235 102.923 1015.94 249 233 227
-593.116 237.869 1118.09 233 223 195
-569.576 79.675 977.895 251 248 237
259.764 65.5252 1024.15 157 132 110
-589.876 101.494 1052.37 175 167 160
243.534 -121.599 1080.24 175 143 129
181.656 72.7374 1002.27 203 184 162
-448.632 340.929 1145.39 237 238 216
-293.919 245.173 1186.73 107 79 58
326.013 448.73 1229.98 118 149 161
150.515 163.271 1066.82 254 254 251
193.212 78.3381 1026.79 193 166 143
409.762 275.055 1107.69 182 194 187
311.868 154.894 1119.74 209 195 174
-593.188 79.0687 1000.63 250 235 218
-602.068 208.928 1090.54 245 242 218
181.525 337.008 1140.84 115 111 96
-518.275 81.7778 921.957 233 231 233
-587.992 299.027 1186.45 170 171 170
-337.994 19.4728 1258.91 124 122 118
270.668 -75.2923 888.209 117 145 136
358.365 87.6432 937.858 165 180 171
392.42 294.772 1119.91 182 175 144
-372.209 161.026 1061.54 203 147 115
-293.663 4.33748 1066.7 136 160 153
274.554 82.2876 930.116 220 219 192
265.555 388.2 1189.08 163 199 204
339.906 115.626 938.132 213 236 218
196.677 134.812 1030.88 218 198 196
-394.203 345.087 1293.71 202 163 144
-655.091 181.184 1143.22 255 254 254
119.688 53.9612 1045.53 232 230 235
282.127 66.2195 998.379 207 199 170
277.942 82.5247 1097.76 137 109 88
153.462 50.6779 1142.85 245 231 232
-380.685 1.60031 1100.24 118 100 79
