-154.917 165.809 1051.72 241 226 210
-189.157 52.921 1037.69 62 29 23
-224.28 338.084 1138.92 18 8 8
369.69 -166.875 1151.36 195 193 176
-164.79 131.346 1047.61 249 231 217
-190.909 -16.1085 993.036 226 206 194
-170.466 38.6092 962.064 61 23 17
-148.114 143.43 1097.28 243 229 200
-139.572 142.635 1054.03 77 32 11
-227.328 382.107 1165.3 215 210 208
-179.47 45.5526 998.528 229 218 194
-184.163 -12.4478 973.589 53 35 23
-186.921 40.1885 1014.87 44 0 0
-179.638 236.58 1070.73 110 99 98
-262.023 364.523 1104.25 249 239 229
-297.37 57.829 932.472 227 231 216
-169.193 148.212 1092.51 251 234 214
381.422 -223.294 1247.35 219 206 191
-282.614 146.248 977.832 54 31 28
-127.439 164.382 1035.73 245 233 218
-212.142 318.306 1091.35 232 225 205
-146.18 116.156 1009.4 79 38 23
-172.17 110.293 1044.76 252 229 213
-154.29 106.342 1068.63 234 214 187
-256.774 378.266 1132.62 93 75 69
-225.761 379.268 1115.27 58 47 44
-152.446 176.452 1052.84 254 243 229
502.82 -4.93606 1231.09 255 244 233
-169.989 266.175 1099.01 92 87 88
-272.284 293.691 1095.15 108 86 73
422.433 36.4805 1240.34 254 251 252
403.501 -53.0578 1217.77 229 213 204
-73.3941 199.292 1167.32 105 46 33
-254.549 376.559 1157.2 228 226 213
-125.145 378.189 1165.91 217 221 189
-147.481 317.526 1130.9 254 255 232
425.32 -112.55 1211.88 254 249 243
-276.996 254.336 1046.21 74 82 76
-218.198 362.887 1087.38 37 36 28
-141.336 121.342 1010.71 205 171 146
-129.299 127.117 1055.52 121 77 48
447.862 -94.9301 1215.73 254 250 251
-158.803 165.002 1096 99 45 24
385.546 -104.028 1113.54 255 247 242
-258.785 320.06 1101.74 97 69 61
-178.055 291.703 1032.03 210 224 206
512.737 -105.394 1272.49 255 250 235
-315.988 78.3195 1006.18 65 35 20
-214.108 374.738 1071.42 61 67 60
-4.351 421.06 1379.4 42 39 29
-72.498 182.131 1070.8 55 35 19
-199.864 266.839 1025.11 226 221 215
-44.6591 375.33 1184.14 249 253 248
-189.043 335.112 1138.38 220 211 190
481.576 23.7957 1288.75 239 216 217
-50.8139 32.1934 979.623 254 252 232
-316.132 102.127 985.255 231 227 214
-217.049 287.785 1088.48 107 92 94
-155.916 164.418 1118.57 220 179 162
-271.799 135.836 997.986 52 12 1
-217.093 358.751 1164.37 209 190 174
-299.702 70.2553 969.877 140 142 136
-146.334 146.446 1010.8 208 173 152
523.957 328.346 1472.24 184 223 242
-142.914 160.098 1099.49 94 71 52
388.521 -5.02793 1171.53 69 55 52
-202.663 381.452 1050.03 239 225 222
-179.035 -18.6104 995.612 251 236 214
-206.719 280.894 1082.75 78 67 64
-93.8382 394.101 1200.68 40 31 11
-137.698 190.818 1176.5 254 246 250
-249.536 460.24 1184.23 32 32 24
-258.059 407.735 1246.93 198 187 180
-250.697 295.587 1102.1 255 250 231
-307.727 151.714 1012.24 250 249 248
-124.759 187.871 1126.08 112 109 102
-133.464 296.643 1086.19 225 214 198
-209.637 -15.018 1045.07 206 188 175
-79.144 213.666 1166.97 249 244 225
-261.151 49.1774 978.995 145 118 123
-140.088 -8.96355 966.518 105 67 55
460.113 -41.2102 1223.57 238 226 199
-240.561 373.928 1128.11 109 82 70
484.341 2.29016 1188.4 249 238 231
-141.353 95.9357 1071.14 126 84 55
537.392 -198.286 1111.5 226 247 245
-56.5376 22.9225 1064.93 255 252 243
-289.892 68.3066 1006.12 98 65 66
398.834 -42.5129 1168.17 118 84 84
-249.518 56.357 944.458 252 237 231
-67.5108 49.0629 1040.72 245 238 224
-84.3759 51.6034 1019.29 255 231 238
401.161 -56.9301 1166.69 237 243 230
-57.4828 26.8805 1103.47 135 111 92
-128.429 -1.8242 969.241 107 36 25
-41.952 87.2437 1193 244 239 219
-202.714 -13.6303 990.427 83 64 53
-125.255 -14.9759 985.99 116 31 7
535.748 336.139 1474.42 30 69 82
494.364 17.4125 1288.83 250 234 232
476.603 19.9787 1190.91 221 202 196
572.511 -241.819 1200.67 173 201 205
-214.085 237.586 1019.67 240 216 204
-157.366 152.583 1050.46 236 203 183
-235.725 273.117 1155.78 164 124 115
-51.7566 36.8209 1024.92 255 249 223
-69.3836 54.3105 1022.43 182 130 113
-222.548 466.183 1246.41 23 24 23
-287.156 148.496 976.746 158 151 156
597.68 -56.1597 1180.29 239 254 237
-164.757 126.119 1047.34 180 127 109
-208.739 245.086 1078.75 159 90 86
719.518 -11.749 1418.82 245 255 242
-277.099 365.365 1149.13 126 113 103
-210.812 253.318 1037.05 236 230 228
-219.773 525.561 1199.72 50 50 41
-123.653 -6.33764 1008.22 157 60 32
419.18 -50.0951 1219.4 233 204 206
-161.308 221.657 1010.88 100 80 76
-207.689 420.911 1123.05 228 224 229
-253.17 323.541 1031.61 253 253 249
-189.493 204.682 984.331 255 251 235
-163.897 101.195 966.143 255 245 220
496.453 262.544 1394.84 88 116 110
581.796 21.0172 1489.8 251 245 244
495.499 248.279 1392.37 52 83 101
-292.895 60.7204 971.27 146 146 131
438.509 17.4302 1284.45 237 223 224
-275.612 348.172 1148.72 254 254 255
-253.38 345.077 1082.18 175 155 147
-274.528 389.866 1206.49 227 208 195
570.468 265.742 1530.52 190 226 242
-155.037 186.902 1052.78 139 127 118
484.694 -47.2994 1224.4 251 238 228
-168.286 317.068 1096.3 115 106 87
415.805 -248.826 1293.42 189 169 167
475.582 -23.8204 1281.83 255 250 243
-268.075 58.7755 977.649 255 209 213
465.192 201.985 1370.75 141 133 126
-87.8436 48.8917 1060.12 253 251 233
-127.865 -2.17136 1053.74 255 209 171
-72.2492 46.4352 1063.19 141 104 69
437.334 -93.5879 1083.36 237 222 204
535.724 253.559 1451.27 177 208 220
-289.68 203.522 1019.89 242 239 226
-250.328 270.561 1100.23 155 132 128
522.42 -89.3197 1220.81 245 225 201
559.273 299.583 1344.89 111 140 135
-278.602 51.0891 953.2 238 242 233
-262.116 -100.069 1203.8 40 36 26
-103.864 204.903 1065.25 255 250 223
-186.905 82.6073 1084.28 105 89 87
-272.196 125.186 1020.49 103 71 60
386.172 -59.7385 1165.17 119 96 94
505.58 233.764 1378.46 169 207 233
-67.0974 86.0667 1066.59 255 240 214
419.741 -102.57 1162.63 231 214 214
-270.002 236.697 980.53 115 120 107
562.01 -97.4356 1170.66 235 233 209
475.608 198.676 1371.39 69 54 37
480.505 -111.697 1218.21 235 194 167
-284.932 201.216 1021.05 225 221 194
-87.7988 33.161 1059.2 255 243 229
491.002 234.005 1389.63 62 100 119
-246.469 73.152 962.028 235 242 238
-268.028 196.253 1002.87 183 150 112
-315.396 84.3662 966.267 252 238 226
-291.398 220.071 1113.16 196 167 134
504.441 22.5035 1234.74 134 104 96
-279.411 291.079 1121.11 153 137 149
-309.542 122.058 987.738 246 242 234
-245.258 276.485 1102.11 235 237 236
511.11 17.2209 1205.24 222 194 176
-217.504 217.953 978.253 99 60 53
517.153 305.834 1403.47 86 123 126
-174.596 99.796 1043.64 247 191 177
-105.064 296.047 1189.78 169 167 169
546.705 -170.268 1264.3 99 98 85
406.441 -71.2216 1165.42 238 231 234
-282.476 193.675 1021.31 161 147 113
-31.5421 135.737 1122.49 253 245 218
-258.383 63.2165 942.548 178 158 151
421.221 -7.93157 1224.78 131 129 132
377.294 -77.0508 1144.43 182 164 157
-132.87 369.214 1066.37 122 104 76
-273.918 69.1689 1017.18 124 97 79
-39.8477 99.1195 1118.42 244 235 208
-268.001 51.4858 977.349 162 74 95
430.903 -1.89664 1226.31 214 206 211
397.913 -85.2246 1099.28 242 243 243
-82.6983 64.753 1062.12 255 242 226
-312.156 136.341 1010.21 248 254 253
-245.546 323.915 1083.09 126 88 81
-56.2543 294.128 1177.11 254 249 234
-260.469 311.86 1151.07 99 68 59
410.852 -74.3265 1169.38 215 212 215
-67.0888 80.8029 1066.28 233 212 175
-59.3059 150.292 1071.84 239 214 201
532.469 -52.3375 1281.35 255 239 223
-102.73 420.88 1200.62 130 135 139
-140.513 207.018 1102.78 140 122 117
-81.7998 16.3783 1017.94 173 98 72
414.026 -91.7615 1213.73 247 244 243
-187.811 290.119 1072.44 231 214 188
419.727 -178.718 1093.13 150 153 145
429.144 95.4753 1250.03 167 157 134
-252.24 240.233 1009.94 140 63 39
422.236 -229.832 1249.26 46 42 42
584.774 303.181 1407 86 114 134
-244.236 322.551 1069.93 255 241 242
507.529 -233.351 1150.7 85 107 109
-197.77 356.896 1201.11 237 247 217
-281.025 211.373 1057.82 63 33 23
285.088 -203.389 1149.55 132 127 114
-162.349 313.717 1103.37 205 196 176
-260.193 273.883 1076.47 251 245 244
601.291 167.788 1382.55 186 193 181
-94.998 295.101 1141.79 158 144 121
-263.899 95.483 980.354 147 104 78
520.179 22.4717 1235.74 255 235 223
-147.743 396.829 1161.47 216 203 173
-217.529 79.4654 991.155 231 211 192
560.08 264.605 1462.54 139 171 174
-335.614 35.8741 977.631 194 172 148
-103.153 278.496 1115.34 243 244 242
558.985 291.991 1403.75 116 151 158
619.784 -57.4484 1471.71 161 131 122
-42.8443 314.28 1149.47 173 89 67
634.019 30.6983 1245.32 181 193 175
-6.63681 252.425 1185.21 255 242 224
-112.756 13.3064 954.097 199 154 132
-282.413 176.747 972.357 208 203 180
-69.2074 -46.3052 1016.96 250 242 218
648.401 -181.257 1300.23 146 160 148
675.975 -195.205 1318.62 221 241 231
-111.347 -21.2213 1010 255 236 195
-266.129 226.669 1005.35 209 194 159
426.386 -91.8275 1214.64 235 236 237
620.175 170.232 1416.13 246 253 245
458.106 -20.6261 1137.72 233 205 192
532.781 -26.2961 1230.01 161 133 116
-64.5708 101.256 1113.42 248 232 221
-229.93 292.344 1085.42 253 247 226
-34.3211 107.649 1120.1 234 220 200
-108.108 355.09 1052.1 72 57 50
502.265 260.241 1268.72 113 152 159
309.586 -218.313 1227.61 74 66 61
513.883 68.8735 1297.13 242 236 210
491.823 22.8946 1191.97 145 109 102
662.242 24.2476 1298.25 99 111 93
-292.408 101.015 965.053 230 143 132
-246.534 382.283 1081.33 244 232 224
-7.8574 236.421 1124.95 158 136 120
-238.289 59.3484 985.173 255 238 227
615.327 -181.946 1205.42 203 225 209
-100.05 155.97 1109.09 173 144 115
-304.157 55.9892 1008.35 230 206 185
-105.003 155.923 1081.58 126 94 64
-150.888 88.3914 1007.02 245 204 181
356.976 -232.18 1289.27 181 164 162
553.938 -257.825 1243.33 152 185 194
-28.7571 152.659 1124.13 223 199 175
-41.724 215.191 1175.36 184 146 136
-114.231 209.779 1063.21 255 245 224
-227.826 419.139 1221.97 47 45 41
-264.313 95.6677 1041.5 255 234 221
354.347 -213.441 1291.07 38 39 39
-41.725 221.061 1175.75 186 137 113
-97.9272 323.246 1248.35 251 246 234
-59.2872 275.189 1124.86 219 223 213
-269.802 238.163 1071.85 125 82 59
-56.665 144.989 1072.09 255 238 208
-68.7343 33.6395 1039.02 251 221 182
-112.167 7.00196 989.8 138 57 18
-269.23 168.906 982.36 96 85 64
-259.431 127.457 887.835 179 183 179
-206.556 304.532 964.778 192 189 178
-141.877 -1.03191 1038.81 255 244 228
585.757 -46.1011 1522.68 152 96 83
369.787 111.119 1561.66 45 40 28
-111.355 -27.6589 1025.97 217 148 110
-84.301 21.3732 1017.71 253 248 225
512.353 43.1212 1293.57 251 233 216
392.348 -88.3409 1124.13 176 177 180
469.009 97.7385 1297.29 92 92 74
-234.057 103.749 988.228 238 166 143
456.742 -29.2557 1061.06 192 186 175
-255.255 100.214 1023.66 241 194 180
661.144 11.3531 1296.23 129 137 123
-233.573 49.6765 985.898 251 213 204
-275.058 318.21 1095.48 172 178 179
-338.724 135.627 1110.39 216 216 207
-51.7238 54.5369 1088.5 239 207 189
-174.321 386.72 1101.17 109 80 63
-74.9366 85.9381 1064.96 254 240 222
-220.925 276.245 1036.35 223 214 200
-77.3404 -3.38836 1059.16 237 206 161
-247.464 148.512 888.197 189 165 132
-4.31475 253.657 1158.28 233 221 203
-108.024 -62.786 1049.31 99 77 55
508.309 -14.8331 1364.71 212 210 208
-281.619 240.837 1043.94 104 105 88
672.497 -100.407 1409.54 170 171 150
-67.4232 -47.1491 970.335 154 141 115
450.564 -133.981 1160.72 152 160 139
-146.492 169.162 970.332 185 170 159
-305.525 104.408 1027.36 124 115 112
450.702 233.692 1449.67 49 62 57
-206.734 93.8553 1035.59 250 245 237
272.068 -244.744 1351.48 71 69 58
-315.586 105.147 1149.75 118 104 112
-16.5218 191.723 1101.18 248 246 238
415.395 -95.8808 1251.32 88 70 63
-92.3969 -33.5325 1005.92 247 207 169
413.375 -233.976 1272.7 194 136 126
-308.716 50.9015 1006.84 140 73 48
-289.171 162.717 1017.89 100 63 28
318.514 -262.604 1403.78 49 47 42
