230.915 -72.1783 1884.84 255 248 230
-18.708 19.5511 1165.74 255 253 240
-34.4857 508.85 1193.51 244 244 235
-43.8853 457.008 1244.71 255 243 217
-47.6642 417.768 1185.73 216 221 218
-59.5877 -42.7819 1705.66 8 2 0
201.335 363.661 2076.4 52 72 79
-62.1495 327.606 1177.83 92 84 73
-77.8548 202.466 1070.83 55 42 34
-50.5811 408.59 1184.65 209 194 182
221.996 -49.0056 1887.73 36 19 18
-84.1561 289.417 1120.27 203 194 178
-34.579 442.84 1218.33 105 83 66
25.7499 -5.33469 1293.08 205 190 170
-138.795 87.4458 1071.42 160 147 133
8.25578 235.42 1242.03 130 115 106
25.4248 492.374 1318.39 77 72 71
175.655 12.3558 1680.83 232 184 170
205.746 -34.9152 1766.09 160 145 141
-64.8016 211.914 1120.22 128 85 70
237.543 273.852 1947.98 136 129 114
-50.5088 269.294 1176.95 109 65 47
315.974 -184.718 1033.39 47 47 42
-70.0701 97.9787 1111.98 249 208 186
-67.9224 321.335 1176.18 241 236 231
-31.6243 29.6373 1115.22 255 237 222
-50.7588 423.684 1113.15 157 137 120
-69.1975 121.274 1087.56 160 63 52
-74.9336 64.8166 1063.66 122 105 78
-21.3255 312.44 1185.83 132 138 120
-124.205 135.018 1102.38 176 161 149
-22.5538 394.379 1217.21 177 146 129
-71.5686 30.5517 -181.298 67 67 62
203.872 44.0087 1784.65 205 194 191
233.98 30.5375 1906.35 109 97 84
-25.7084 8.38647 1215.94 188 182 173
211.43 478.289 2266.73 201 229 242
209.865 88.5842 1796.2 126 116 120
-224.675 109.494 1124.4 46 8 0
-71.1352 127.158 1103.62 236 178 154
-41.3798 477.938 1140.91 70 60 47
101.766 -147.831 1839.58 76 78 73
231.923 -177.686 1656.61 189 205 200
-44.721 316.94 1181.05 128 113 97
178.054 88.2641 1790.13 166 163 160
-45.5174 385.269 1133.23 151 131 129
-243.77 496.079 1244.17 140 123 102
198.988 22.3782 1654.03 123 101 81
1.70023 206.078 1171.29 255 250 228
-67.57 -129.473 1683.83 73 73 54
-5.00218 -16.3255 1274.64 107 89 66
-24.2695 300.374 1184.5 245 228 211
-44.3758 256.044 1150.05 237 220 184
18.2412 234.298 1303.57 159 152 143
15.4344 220.562 1270.76 229 234 232
222.927 70.8153 1794.4 247 233 222
-35.7392 452.268 1139.97 203 187 172
-62.8715 104.442 1015.05 221 146 132
-134.393 113.318 1053.67 146 137 134
66.0701 -115.654 1944.77 9 8 0
-264.203 1.76128 1271.37 42 51 38
8.37593 191.579 1297.69 252 223 200
-202.124 268.767 1140.8 50 13 4
-66.9594 80.1304 1024.22 218 131 110
-88.2024 156.857 1066.19 108 63 49
251.148 -21.9313 1776.87 255 254 219
-184.343 79.0817 1084.7 173 133 116
1.85588 145.545 1233.58 250 210 189
-23.3618 470.207 1338.81 187 178 178
-64.8319 231.492 1121.35 114 92 81
8.1251 188.934 1238.4 176 135 114
179.44 521.429 2113.6 99 118 112
209.595 456.65 2103.2 109 133 126
-62.0794 208.538 1074.45 175 153 138
-81.266 216.69 1116.94 182 154 139
59.5677 231.861 1394.16 34 41 46
8.17019 204.411 1239.62 145 115 93
170.808 -8.80234 1766.01 151 124 118
-23.7154 445.437 1277.32 99 83 84
-48.5201 90.6129 1139.14 255 251 240
-26.1727 271.636 1081.82 186 131 120
-36.1055 103.974 1195.18 254 246 233
7.43156 188.506 1169.52 254 241 223
-56.8162 230.253 1076.66 255 245 221
193.571 -133.211 1739.97 34 34 32
-80.6407 12.9765 1236.65 166 173 166
-124.287 -121.573 628.071 154 147 129
199.951 287.036 1804.38 139 162 161
4.69265 29.1645 1343.39 173 113 98
6.19731 241.406 1334.39 246 216 201
-48.7742 110.352 1071.68 160 156 158
-61.9349 107.347 1068.84 119 100 88
-12.0252 315.211 1326.74 227 194 185
217.609 48.5004 1788.18 136 119 114
252.427 -2.37934 1903.72 244 229 205
-31.7308 90.482 1252.85 253 248 237
-52.6858 249.069 1071.43 157 119 108
-126.237 391.248 1160.61 43 36 27
-37.4311 493.256 1191.41 67 53 47
206.91 -128.156 1759.24 39 35 26
-12.8933 321.953 1162.08 171 170 164
-42.6918 182.087 1123.11 130 95 65
30.6786 133.468 1261.5 240 193 171
-42.3659 105.72 1091.8 171 167 151
-41.5727 343.517 1157.6 166 136 128
214.043 429.502 2096.82 143 167 169
-66.5287 163.466 1048.88 163 152 142
-321.22 71.3923 1121.97 52 32 16
-46.1956 241.659 1079.37 146 117 88
-13.4474 138.955 1229.81 254 244 230
-18.5604 395.186 1166.32 232 229 223
-67.2477 144.366 1069.88 234 216 208
15.556 33.6293 1321.91 202 119 84
8.07127 170.409 1236.9 188 148 123
-35.9803 137.998 1171.25 252 233 213
1.88698 178.356 1295.11 163 126 104
-16.1549 415.397 1248.59 194 188 169
-38.7132 329.091 1157.12 227 217 218
-20.069 113.638 1028.47 252 255 250
-75.7107 178.012 1115.85 230 218 213
-16.2278 355.726 1245.05 139 115 104
-109.199 210.701 1184.36 97 62 41
-53.2538 198.106 1097.06 180 138 131
-34.692 320.214 1238.68 212 173 140
185.814 362.516 1959.04 124 151 144
-66.6227 276.254 1015.91 131 110 105
0.836187 158.678 1253.32 165 121 95
5.09074 172.028 1295.22 243 214 189
-89.4667 221.85 1115.44 133 109 90
-59.5437 543.22 1256.25 157 150 136
-9.46069 74.8113 1199.13 255 225 205
-48.5871 434.675 1149.46 140 122 104
16.0639 -170.143 1698.11 115 133 123
-255.55 14.7656 1192.24 66 42 26
-30.2025 100.339 1169.68 238 223 215
-50.7775 30.0437 1187.74 181 161 143
-6.198 355.092 1287.29 255 250 241
18.1426 -12.5294 1223.57 236 220 186
-185.487 475.032 1153.14 118 112 100
-30.2268 37.3754 1233.39 212 179 155
18.3574 266.997 1306.37 191 174 155
36.2552 267.631 1375.5 249 224 208
8.8417 227.559 1127.15 195 181 167
198.023 -18.5261 1863.21 188 175 162
38.1546 -224.353 2297.53 199 210 204
