327.17 -88.2276 1596.2 255 250 238
318.532 367.2 1877.88 233 251 255
35.5449 389.047 1129.18 252 226 209
116.873 443.285 1277.27 70 70 75
71.5243 -4.38061 1209.9 253 232 211
45.431 384.11 1151.97 254 248 244
91.7929 1.5593 1160.92 167 98 84
-3.3272 179.402 1084.8 20 15 9
6.45146 95.2409 1057.93 86 9 2
300.047 -141.247 1508.4 210 204 198
63.4189 363.498 1163.38 236 223 210
57.3727 364.135 1198.59 204 175 164
5.01902 66.3698 1055.21 92 21 1
334.805 204.865 1657.04 38 35 29
28.2387 420.601 1178.38 183 175 165
13.5369 87.2803 1072.19 243 221 202
71.7924 400.601 1266.75 207 202 200
15.3227 85.4602 1082.51 80 57 43
48.8476 419.602 1226.43 167 145 125
33.1419 -37.5179 1280.04 157 185 177
45.9376 495.77 1227.68 142 142 136
46.2166 483.723 1208.96 248 244 233
5.02851 71.5875 1055.44 154 105 76
97.3843 207.659 1227.64 106 79 55
47.2323 261.191 993.791 65 73 69
33.9747 385.256 1176.98 249 251 250
39.4259 314.499 1147.46 155 138 132
71.5995 -17.0011 1266.55 221 194 183
98.6835 170.479 1255.06 131 97 80
94.4773 174.774 1199.79 123 100 87
16.4921 293.174 1141.87 71 22 17
32.3532 385.867 1201.44 222 209 202
32.2262 267.936 1096.34 102 93 76
62.7783 445.477 1210.42 126 111 98
15.1433 184.934 1109.92 114 79 66
335.81 -62.0699 1690.51 150 129 127
72.268 381.605 1292.61 215 193 177
122.866 471.296 1343.43 77 75 77
341.726 55.6222 1717.59 113 101 102
348.544 17.4458 1710.07 147 140 132
17.7171 198.895 1046.71 244 234 204
94.3039 -44.3016 1290.64 86 59 51
15.6584 201.713 1089.7 105 71 60
293.618 -13.2549 1586.12 226 170 151
-115.599 517.918 1359.6 155 155 143
132.119 -34.3654 1339.4 229 213 196
56.4727 266.467 1148.05 245 210 196
93.7631 518.367 1389.42 104 108 110
162.808 307.397 1367.87 83 81 76
38.5187 423.51 1131.93 153 142 129
70.6329 610.759 1311.48 171 191 178
24.9356 5.8436 1173.02 226 204 184
36.2051 373.89 1117.22 136 125 124
312.267 53.2084 1708.62 175 171 169
299.895 49.8597 1542.24 194 185 185
32.8356 417.397 1130.44 29 6 4
113.539 -33.7927 1198.13 254 246 234
204.47 -147.006 1493.99 68 70 71
41.1198 319.942 1199.56 137 94 102
-108.753 456.386 1202.34 30 32 23
79.4421 341.753 1229.95 209 199 175
-13.7667 177.488 1020.44 194 170 149
33.8492 363.208 1148.77 153 132 129
67.9932 292.281 1258.88 145 85 76
110.148 192.205 1318.81 128 105 95
59.0484 7.94462 1266.06 214 193 173
400.271 -1.5669 1932.8 142 128 117
-160.81 480.012 1307.31 162 148 139
-109.002 525.782 1361.72 14 10 4
-176.18 552.381 1498.92 23 10 2
81.2839 652.46 1404.57 109 132 119
357.161 267.511 1862.78 110 137 143
24.2036 68.8603 1073.62 174 165 153
331.761 36.5407 1625.28 212 189 185
325.931 314.575 1868.07 105 130 120
-100.418 513.964 1326.14 143 141 133
49.3327 345.109 1258.77 247 217 215
337.713 -24.6234 1699.23 120 67 52
5.5539 100.426 1071.06 197 146 117
19.3717 304.81 1143.05 178 166 168
78.5111 117.8 1085.04 134 99 75
52.9039 269.374 1198.73 243 230 220
13.5163 74.0346 1071.83 120 125 108
-0.818622 292.012 1244.63 211 201 199
84.3986 127.077 1143.93 159 138 112
76.1304 465.553 1244.01 110 118 116
-13.5053 130.505 1037.32 116 68 57
-6.22855 266.391 1135.84 103 76 77
49.4626 344.283 1128.84 243 223 220
-37.0681 313.134 1131.96 145 123 114
103.45 186.432 1227.68 209 207 197
-44.3493 315.288 1155.21 50 30 21
388.815 -32.9193 1811.11 241 223 197
65.0494 287.991 1202.28 161 149 141
27.9452 308.128 1144.91 141 136 139
-44.6674 368.62 1184.34 31 16 9
71.2172 309.399 1204.81 177 137 124
-24.8071 167.917 1079.95 89 45 26
323.523 -41.5724 1798.18 141 116 107
399.573 48.1196 1919.03 213 195 196
306.686 269.512 1755.97 101 144 147
132.179 -28.0607 1354.38 216 183 155
48.2335 7.15727 1153.52 162 141 121
403.957 -52.5074 1790.26 253 246 212
411.256 -229.825 1829.93 174 182 178
383.009 215.678 1854.79 82 60 34
73.6757 110.988 1183.07 215 174 149
41.1441 58.6249 1131.11 252 250 242
101.726 158.005 1254.53 242 224 200
293.698 55.295 1924.56 139 106 88
8.70719 -8.57473 1166.11 103 84 68
322.112 -5.49435 1590.71 131 109 92
101.664 151.742 1253.96 188 148 117
27.2983 448.371 1131.21 170 145 126
36.2326 228.356 1141.95 233 201 170
49.808 216.048 1114.94 136 103 85
62.4397 307.05 1151.43 176 158 156
35.8749 127.84 1047.11 177 146 144
45.9194 53.6368 1061.24 253 236 205
28.7074 79.8095 1134.59 188 194 185
39.3517 71.995 1061.6 187 158 154
-0.596376 141.181 1040.3 147 123 127
358.823 401.323 2001.29 138 161 165
62.6747 262.015 1172.5 159 116 93
54.5751 78.6568 1202.01 255 248 235
11.8969 156.345 1172.6 199 189 188
2.24514 -44.3981 1454.73 107 126 141
-37.0625 347.192 1133.68 118 106 103
31.2293 99.2155 1182.02 189 195 186
