-37.0262 413.583 1137.47 255 237 219
-7.14806 465.448 1316.61 247 228 231
-0.585346 479.259 1318.96 247 241 237
5.03986 491.929 1232.24 95 97 91
11.7454 442.419 1125.21 244 247 247
-9.9343 24.3381 1253.51 255 252 229
21.4122 28.6193 1226.46 130 68 46
-59.3321 112.733 1027.87 118 109 113
-64.827 315.297 1126.76 61 53 51
18.4028 479.14 1222.79 99 105 112
-1.03708 79.3964 1174.45 141 115 104
-9.04568 310.579 1211.69 135 92 90
-9.41737 11.4967 1195.59 245 211 193
-25.6425 488.473 1158.93 200 197 188
158.668 220.279 1882.75 90 86 74
11.387 361.392 1196.53 227 224 207
-89.179 206.339 1087.71 60 35 24
44.2346 233.158 1278.38 147 143 132
0.0196618 338.333 1214.66 143 120 118
-62.4807 199.386 1093 150 121 105
-86.1294 123.367 1054.42 139 63 49
-22.1718 527.133 1254.67 247 247 240
-42.9173 409.959 1167.16 177 173 166
-3.39882 402.275 1195.72 244 232 227
-6.45054 342.266 1191.75 228 219 215
-92.9489 105.633 1130.84 248 204 179
356.148 219.99 1651.71 64 59 53
29.9267 191.59 1243.92 149 113 88
345.731 0.187987 1706.81 216 200 178
27.8741 180.871 1233.62 245 221 195
245.459 -160.779 1740.59 77 79 75
-77.0909 96.1172 999.995 100 76 51
33.1054 35.4525 1311.66 162 131 106
21.683 156.223 1231.56 160 123 103
343.852 -50.0869 1698.31 188 180 172
-44.6263 345.722 1183.78 145 115 118
-52.1866 254.251 1121.11 109 88 56
490.992 34.7779 2352.76 120 112 108
-16.4165 23.1485 1111.94 158 124 114
-25.685 410.717 1157.09 206 194 178
337.637 5.8468 1540.24 255 245 233
-93.0324 79.5289 1061.1 255 242 228
72.9997 468.331 1301.9 87 86 83
358.979 24.3995 1787.15 187 175 168
-31.3801 456.309 1157.09 172 159 147
-42.6184 336.44 1132.6 158 141 138
322.858 18.2136 1621.05 235 217 215
-82.8413 148.593 1067.33 255 244 240
31.4648 249.938 1308.76 163 129 113
-3.30922 465.347 1198.84 95 80 62
-30.0967 34.9721 1192.78 210 185 164
-36.6979 -12.0854 1339.45 185 190 202
14.4554 197.279 1241.19 252 242 222
393.701 72.2839 1831.82 220 209 212
8.17737 159.907 1236.78 253 224 201
20.7768 146.052 1209.94 249 233 208
19.1191 163.316 1205.09 230 211 196
45.2036 41.8441 1485.43 255 240 205
-73.3725 217.453 1169.33 228 213 213
-77.1864 240.836 1157.07 118 97 91
378.98 317.914 1868.01 108 127 144
382.864 50.8782 1794.83 218 211 210
24.8349 205.301 1233.73 173 160 151
309.883 -24.8545 1696.56 160 134 128
-15.6006 329.199 1291.08 251 237 226
20.0746 214.475 1159.41 240 232 216
396.298 -203.015 1664.93 221 243 242
316.368 63.2191 1547.4 132 122 124
256.791 262.42 2088.15 182 186 171
-67.2631 231.955 1075.25 255 251 235
381.332 53.032 1722.99 255 249 242
-147.406 518.753 1285.97 164 161 154
326.096 67.8497 1713.91 194 176 164
24.6568 158.223 1135.61 245 219 192
-136.836 140.818 1122.68 151 130 115
-49.2856 91.3268 1107.62 143 138 141
369.213 -71.0784 1698.92 245 244 239
-89.8583 317.979 1212.41 173 154 152
79.4431 463.954 1321.4 155 153 156
-31.4288 337.142 1134.99 252 249 235
-94.7652 218.167 1114.75 189 155 139
-47.8451 416.564 1207.33 216 212 206
42.2791 216.273 1300.14 181 160 143
-5.95232 383.339 1215.06 238 212 197
14.1959 159.565 1155.78 168 140 123
312.962 337.012 1980.2 65 87 94
-36.9478 -9.07946 1382.71 157 160 160
-85.8259 166.677 1188.17 175 140 141
-46.7185 163.035 1121.47 139 102 102
326.264 2.31498 1704.36 220 179 156
73.1377 231.029 1284.13 174 151 135
-65.5967 101.927 1104.61 140 134 134
-59.9814 13.1289 1208.46 185 174 175
-219.252 111.923 1126.45 76 22 11
-86.7847 291.289 1120.7 141 115 110
-39.8278 444.65 1138.25 47 31 20
-62.0091 251.053 1077.33 255 249 241
354.263 -43.8154 1697.62 245 241 241
-194.133 272.177 1197.61 69 23 5
-50.5319 509.141 1190.72 111 107 102
314.266 71.7027 1932.76 163 127 110
60.4978 92.9675 1241.28 255 243 209
-21.0102 133.781 1221.85 255 250 245
-41.7239 450.13 1189.96 177 173 169
411.752 336.848 1994.8 151 160 183
-151.586 91.8987 1069.18 143 113 102
-50.8634 183.889 1122.11 185 134 124
36.4053 251.141 1249.99 183 170 172
-12.2372 449.588 1196.24 246 243 243
12.7356 400.487 1279.57 201 199 169
-51.5745 193.1 1161.2 199 155 132
229.084 -139.13 1662.96 54 56 47
-215.681 570.88 1490.67 122 106 91
-56.6723 210.948 1076.33 235 207 178
169.187 -182.171 1644.02 201 199 188
315.31 428.827 2082.86 63 76 71
472.271 -82.5066 1863.01 255 255 232
357.814 -19.5027 1781.85 208 181 170
23.7626 134.147 1209.87 172 129 107
-48.1817 573.797 1346.32 182 175 165
2.30023 283.859 1245.26 205 167 159
519.729 146.992 1983.78 239 240 215
268.144 58.0584 1673.75 139 109 97
408.432 -17.8663 1817.77 253 236 217
22.3271 -17.7875 1285.49 118 94 75
377.907 -171.327 1782.74 73 61 54
-31.4971 149.644 1146.1 255 228 196
-95.6791 94.3552 1129.67 231 151 127
-75.7577 120.411 1086.95 187 135 123
423.492 -91.2029 1852.1 232 210 181
-44.6456 399.241 1186.73 180 171 166
71.605 105.971 1370.42 210 152 129
-48.9977 107.532 1091.86 171 161 149
10.9301 176.629 1184.39 255 247 230
-34.048 30.9445 1046.75 170 146 117
439.863 -44.7519 1817.52 255 253 225
286.105 76.1153 1812.61 66 44 31
-102.541 228.091 1151.29 120 91 75
-44.6155 319.039 1182.21 163 159 134
-24.4634 359.664 1118.06 166 137 126
331.363 -148.939 1679.37 133 133 125
-104.133 169.956 1131.49 117 63 56
-76.138 27.3665 1332.36 114 82 62
442.41 4.44216 1827.35 174 164 158
-171.8 511.875 1306.46 88 86 74
73.4731 685.819 1492.82 172 185 176
49.3163 610.475 1307.52 208 235 227
-62.0716 323.952 1127.81 157 146 145
-192.706 84.0418 1106.58 146 117 102
238.192 53.0596 1527.1 53 31 14
514.604 152.481 2096.36 248 244 222
-42.9629 291.518 1165.3 174 122 104
207.418 -121.436 1761.31 61 55 35
-24.6282 236.442 1101.98 113 87 64
317.105 43.6874 1603.51 159 132 130
-26.0865 233.814 1077.16 186 157 136
-25.2808 511.076 1253.21 133 110 93
57.7503 82.732 1203.37 255 235 213
-42.6282 376.18 1134.56 238 239 240
421.709 104.808 1808.04 246 239 221
-25.8232 61.379 1162.28 255 232 207
358.148 -160.571 1715.56 168 160 151
-72.9285 219.284 1119.59 218 189 172
473.897 57.7645 1958.33 190 177 155
61.6448 214.829 1373.23 199 179 163
-63.2758 -14.5676 1169.1 69 88 101
398.573 0.0243607 1715.42 244 220 208
67.7492 242.994 1255.66 251 227 209
77.6678 257.494 1339.84 176 150 120
-56.7236 343.861 1202.83 250 255 251
374.116 47.6007 1609.27 181 156 134
303.817 -54.3059 1525.06 38 9 3
-85.4433 178.053 1120.82 197 190 184
-42.9994 118.536 1160.74 255 246 235
-39.0433 314.964 1223.28 228 118 102
35.502 25.8486 1325.97 220 131 92
260.483 354.274 1752.33 54 70 68
-45.5965 103.836 1140.88 254 255 242
-38.7802 301.609 1182.43 254 191 156
374.444 268.053 1767.4 173 191 188
340.45 -142.221 1673.2 75 62 52
-39.9712 137.992 1143.77 255 228 219
343.056 386.359 1996.9 99 128 123
-73.7677 22.917 1263.88 142 117 104
1226.9 -516.65 2216.93 119 118 115
-28.3709 394.402 1270.48 253 207 184
268.198 290.274 1854.21 67 86 88
515.771 311.39 2297.43 234 242 241
