-48.7009 55.819 1068.5 8 9 11
8.57744 332.41 1248.45 82 77 69
478.164 -153.847 1522.54 255 248 242
10.7521 -37.2879 1143.96 83 67 51
-87.3672 41.0662 1128.4 254 215 204
1.54385 -31.1297 1072.24 255 248 236
-32.9737 340.852 1183.87 245 253 246
34.98 15.3711 1172.32 86 63 48
-13.8096 383.867 1307.67 212 200 183
8.65782 363.519 1250.23 234 227 222
-16.0566 442.653 1248.55 250 248 244
56.6466 -34.7 1152.57 150 100 90
428.721 -204.177 1438.69 182 179 176
-32.8724 29.5867 1069.94 57 54 56
17.3223 -42.293 1166.47 230 209 195
537.589 -5.74952 1706.15 234 227 225
63.4655 -23.4287 1083.3 169 118 113
-87.7638 18.7831 1058.32 255 242 215
586.508 331.869 1984.65 174 215 230
464.015 -51.1138 1542.65 255 250 247
-4.03279 -29.5317 1116.25 81 62 38
313.351 109.25 1724.51 45 39 36
-33.0103 244.12 1178.88 91 49 32
14.841 345.245 1250.54 255 243 236
42.3593 98.261 1332.77 243 225 204
489.477 294.993 1692.82 58 92 95
52.0934 126.696 1188.13 96 63 41
57.8015 176.135 1247.56 112 101 96
-21.2158 359.286 1187.2 174 147 137
56.8157 89.1739 1213.3 144 97 72
-16.1948 330.908 1242.97 126 88 80
-28.4719 373.473 1242.58 229 211 187
-67.2905 38.516 999.4 91 84 59
65.9771 109.52 1274.69 252 237 219
-27.1077 344.163 1185.29 55 40 38
135.587 407.278 1408.58 68 67 64
14.9304 376.447 1252.27 234 220 217
-39.8649 185.669 1123.76 251 232 205
63.0467 116.299 1216.08 246 227 215
74.7294 -41.4752 1230.58 130 65 21
-70.1247 145.96 1115.03 104 64 59
33.5003 318.269 1252.87 220 205 187
22.0561 244.384 1109.82 111 79 72
-44.6423 249.407 1176.66 95 96 75
5.7986 414.801 1314.03 119 113 108
-64.4415 55.6474 1065.33 60 14 14
-76.3693 60.7513 982.502 138 69 49
-20.191 370.808 1135.41 192 180 166
-16.0676 433.361 1248.18 255 249 231
54.7689 79.7348 1184.89 247 228 208
66.8332 126.817 1245.14 169 116 102
518.597 205.771 1679.59 232 255 255
-57.3094 40.6529 1154.59 116 78 94
-32.9984 276.343 1180.7 126 90 81
-11.89 353.24 1330.96 253 233 224
-95.4993 452.604 1359.13 207 196 184
130.946 179.047 1385.49 103 81 72
11.6538 320.118 1248.38 225 216 201
512.623 -27.747 1631.23 235 220 224
55.3706 435.042 1326.06 204 207 208
30.5105 28.3018 1227.95 126 104 100
69.4491 78.1244 1299.5 161 110 82
57.7194 163.743 1246.53 254 245 229
82.3788 166.872 1281.53 135 116 106
-33.0459 274.462 1203.73 141 98 99
-20.1691 392.955 1135.66 117 97 78
494.866 -80.7965 1691.25 228 188 176
-42.8353 274.721 1293.22 247 239 233
106.679 142.688 1349.27 172 156 140
611.383 -76.1057 1728.7 144 129 122
433.574 -99.7565 1530.58 168 148 134
464.997 228.797 1810.23 47 76 72
-118.558 433.515 1351.81 169 147 143
-78.398 60.6174 1083.33 207 111 96
66.841 103.394 1189.04 164 126 101
52.2005 144.387 1189.5 252 248 229
-56.1172 144.421 1167.45 150 112 87
487.73 -141.692 1454.16 227 215 194
-85.8664 151.207 1186.74 52 50 48
386.43 -233.996 1582.19 40 42 45
77.4272 -24.3705 1209.7 255 239 219
-116.537 514.278 1558.18 101 87 74
-66.9944 129.008 1026.67 169 172 173
-37.0679 316.685 1130.39 229 212 209
-41.2591 120.722 1121.4 116 88 70
499.152 -43.739 1627.12 86 73 73
505.444 -20.7567 1551.94 255 251 237
579.123 330.97 2008.81 58 102 110
-54.9081 45.8175 1177.09 173 132 139
7.80215 226.609 1135.7 125 83 71
-4.03199 235.696 1239.41 102 67 62
-53.739 243.36 1123.82 113 114 111
-0.578824 409.68 1250.55 235 230 219
490.402 -126.916 1612.78 163 141 126
-0.72852 263.253 1186.84 144 144 141
123.423 27.0543 1307.99 255 244 226
61.6052 161.553 1301.53 133 103 92
76.4286 151.802 1249.13 236 222 216
-39.6369 220.136 1289.56 98 60 27
-8.88967 106.814 1148.12 251 190 154
-56.1795 202.32 1171.28 252 249 233
556.914 -17.7186 1636.39 251 219 215
548.878 -155.896 1690.29 253 245 247
121.44 36.6188 1304.66 185 120 95
-91.7002 97.7645 1082.12 73 32 12
553.985 -49.0928 1606.29 254 223 224
81.2096 149.154 1305.07 151 116 101
-78.18 88.066 1109.69 251 239 228
-125.859 74.5893 1173.42 165 136 119
3.10516 67.3954 1223.96 249 255 249
116.81 27.0249 1306.71 255 236 219
-40.7453 440.5 1242.87 132 127 111
33.4494 305.802 1252.08 228 229 211
20.1141 412.038 1226.47 127 127 119
-32.9158 47.7151 1091.96 192 155 143
-47.5517 269.668 1177.16 131 126 125
14.6445 139.277 1207.77 120 81 71
48.0149 107.963 1239.85 171 131 116
479.414 -308.849 1873.46 216 180 160
516.647 150.512 1642.64 73 66 46
504.193 -41.0819 1600.07 207 197 196
3.02305 269.926 1406.48 136 57 44
-42.2831 214.869 1233.4 233 206 187
-75.4805 96.3536 1110.8 133 47 19
-12.1485 83.6674 1122.96 250 242 223
-64.6862 93.7471 1215 175 99 86
13.9477 399.307 1224.28 97 70 50
70.5012 389.481 1289.09 124 113 100
-146.61 492.011 1548.12 28 21 20
505.353 -86.8596 1535.43 231 212 183
-45.7807 143.836 1051.59 252 227 199
45.7373 402.037 1223.34 27 29 33
483.305 271.034 1601.78 163 201 216
-67.6039 158.513 1165.88 248 228 209
574.435 267.891 1789.18 129 147 144
564.936 -69.7128 1625.27 251 243 237
17.5482 221.177 1242.93 197 189 178
567.805 -130.544 1803.97 172 159 154
-11.6572 24.4199 1073.61 253 245 251
77.6025 -87.5266 1282.94 60 43 19
-75.8377 93.9575 1055.15 102 39 8
-5.06664 108.272 1193.97 169 142 117
-173.312 13.622 1158.5 154 121 100
64.6702 316.3 1320.07 247 248 233
536.813 -130.94 1691.66 241 235 237
108.366 10.6715 1273.92 146 133 116
20.8595 208.195 1212.4 244 234 224
-5.97519 213.646 1085.48 255 248 243
-22.2095 298.403 1266.22 244 240 238
-88.2873 494.095 1476.14 123 117 105
495.157 -9.97939 1719.21 163 141 133
484.424 146.979 1563.48 80 86 75
-12.5177 256.787 1183.99 225 222 219
-4.25617 -1.9868 1166.93 191 128 102
-161.952 186.613 1198.72 62 5 2
-79.18 224.522 1167.49 208 191 179
88.5119 390.754 1330.23 85 76 59
521.169 59.3962 1650.43 177 174 147
66.1394 628.711 1520.17 23 42 31
-18.3873 256.506 1182.73 151 147 145
504.221 -63.2791 1469.56 244 235 229
-24.4108 61.299 1168.01 255 250 253
119.231 -91.9041 1300.35 253 248 227
610.876 -118.92 1699.09 255 254 235
565.226 -56.4753 1712.78 255 248 255
-68.136 167.258 1138.49 119 97 87
56.406 567.928 1366.44 164 190 178
545.04 -61.7817 1625.87 219 201 207
-36.6411 -45.3353 1304 92 68 47
68.343 288.324 1243.02 231 231 212
5.63085 400.724 1251.48 181 168 163
119.533 59.5162 1248.46 255 241 213
105.208 20.2206 1203.71 254 243 220
-11.8803 2.22018 1141.93 184 121 97
596.457 213.031 1847.79 135 164 172
384.166 -256.608 1530.47 106 92 81
127.664 196.994 1357.17 255 251 240
72.8557 191.987 1281.09 198 176 169
-48.0421 233.06 1032.73 145 135 128
111.101 113.462 1283.69 166 133 109
608.067 -147.924 1602.58 238 239 218
-79.9998 119.161 1186.42 255 248 243
511.561 287.341 1886.37 89 122 112
612.482 286.741 1796.37 161 172 170
-140.326 -78.1323 1237.98 74 67 56
107.397 99.6455 1250.17 213 185 160
537.927 -171.801 1682.57 95 77 75
540.842 -139.269 1691.22 167 164 167
119.454 53.3618 1247.83 222 170 129
161.618 147.213 1360.17 248 234 212
554.99 228.824 2003.23 88 114 121
596.136 26.5188 1745.52 255 254 238
-62.7987 450.257 1328.05 78 72 56
484.369 -5.70969 1697.8 46 34 25
657.853 -160.396 1716.75 164 171 152
-11.8289 38.8489 1144 255 250 245
52.1609 58.8435 1331.78 196 182 175
70.2862 178.654 1309.57 108 84 70
137.246 69.5866 1381.6 212 156 132
20.5 75.9421 1171.74 217 156 146
-12.4663 128.858 1024.73 171 128 98
529.874 211.02 1869.8 123 148 147
-56.6028 49.1908 1187.69 169 128 125
-33.4635 -49.6029 1332.77 61 44 27
-33.0555 104.495 1169.52 145 128 138
46.9032 526.383 1264.92 108 136 122
656.997 -222.288 1704.31 236 243 225
-27.2635 116.24 1171.59 195 153 115
568.035 -197.518 1483.77 182 187 164
-91.1247 21.7034 1202.92 215 179 154
583.863 55.755 1654.18 239 236 212
-15.7847 3.21052 1064.37 255 198 180
682.575 -320.708 1784.42 197 216 203
617.498 322.838 1989.28 157 187 186
-44.9181 176.105 1197.06 251 212 190
604.069 75.9259 1898.42 102 100 75
636.447 399.886 2031.67 145 169 170
703.52 66.9091 1841.17 212 220 180
695.191 321.859 2013.36 183 190 189
102.165 96.1415 1244.69 158 141 122
-23.1784 7.81892 1140 207 135 114
