1.59427 16.8059 1169.42 249 225 214
9.81948 16.9901 1293.17 101 75 59
5.69354 497.113 1258.18 42 43 46
-7.01611 408.877 1170.18 254 248 244
-33.0046 413.056 1137.47 255 246 220
302.65 19.6857 1805.5 251 232 227
317.33 337.096 1871.79 83 98 105
334.895 -70.673 1777.55 255 249 228
0.369999 7.17184 1235.06 219 203 197
-0.625299 452.226 1254.55 251 237 237
-36.8225 368.633 1061.53 230 221 217
301.604 37.4966 1708.04 249 244 234
344.267 468.962 2144.98 73 109 119
226.809 329.775 1853.51 4 26 28
85.8442 96.5709 1379.22 222 206 198
-22.5838 429.442 1220.48 255 249 240
-67.171 91.7468 1066.75 228 174 151
-23.0099 486.818 1161.49 255 255 245
32.1126 26.9244 1229.21 137 85 62
302.755 -33.9631 1692.49 217 200 191
-67.1488 81.1484 1066.11 252 183 156
-4.472 390.377 1221.35 75 42 34
61.5334 -27.0899 1348.4 194 161 147
-76.3761 213.069 1167.76 68 42 30
-6.82696 278.713 1112.98 249 236 231
69.4337 486.47 1363.66 71 70 69
-33.0071 442.339 1140 31 15 7
78.8779 85.6645 1316 133 107 100
-30.0411 512.328 1313.1 186 168 153
202.707 -129.305 1742.98 75 70 60
-52.9066 295.528 1078.63 79 69 63
-40.6475 412.509 1215.1 250 236 231
-67.224 118.291 1068.33 130 52 28
-0.684704 417.417 1252.63 251 246 247
11.9622 494.492 1259.4 134 138 151
388.778 -168.933 872.836 64 68 60
-31.6985 92.9987 1222.14 104 103 100
211.079 -142.064 1741.19 86 87 83
302.377 -42.2678 1690.59 66 43 34
-70.031 73.5105 1110.29 255 243 224
300.319 -127.663 686.961 88 95 86
-4.31023 474.581 1227.9 122 106 90
23.2126 160.926 1167.3 123 96 76
-0.872221 313.537 1246.08 112 102 96
-42.383 111.476 1092.27 123 121 120
316.652 245.381 1729.96 89 83 76
-39.8406 417.64 1115.34 164 158 146
-59.1548 98.5909 1114.29 124 106 91
324.986 71.7067 1718.88 254 249 241
-33.0873 348.275 1185.68 160 147 142
33.2001 186.311 1220.22 120 90 67
-3.12312 379.915 1152.72 255 250 241
-13.1619 31.9455 1252.93 255 248 235
-59.186 237.222 1173.22 133 115 100
-2.55582 388.584 1239.6 250 237 224
37.5704 189.485 1304.09 249 231 205
-36.2068 323.191 1224.2 101 70 62
-46.725 197.497 1112.9 158 135 129
-38.5572 297.085 1125.14 124 133 121
34.4362 215.531 1305.82 127 110 93
243.551 360.672 2085.42 149 171 179
283.606 -9.24026 1785.96 153 127 114
344.912 -53.3556 1783.31 247 253 241
-10.6216 337.405 1215.47 144 132 126
371.038 80.1472 1918.5 253 250 250
-35.8929 251.366 1151.73 255 243 219
35.8091 239.479 1270.17 133 114 98
30.9363 163.233 1300.24 167 119 95
-28.6722 492.61 1193.69 92 78 61
-60.425 205.397 1110.82 143 112 84
-24.3862 422.405 1167.38 182 164 142
202.997 -120.855 1745.14 167 170 153
336.803 -35.8176 1786.78 255 250 255
14.2098 380.757 1280.44 229 230 215
24.5549 189.08 1301.31 255 243 232
4.48918 335.252 1218.51 163 143 140
-36.0126 267.804 1180.28 185 173 151
295.606 -0.538697 1698.86 145 100 90
35.4121 175.645 1262.68 173 133 106
-59.0608 152.321 1167.4 238 223 221
399.728 -198.657 1888.63 221 237 236
241.677 453.763 2110.59 50 69 66
-33.103 176.482 1174.77 223 190 179
340.386 30.7484 1804.14 147 114 99
18.6141 531.004 1356.8 38 43 55
-10.9791 410.789 1111.98 140 135 133
462.245 29.6982 2210.68 147 132 128
31.4739 232.999 1277.75 254 229 210
-33.1025 182.345 1175.19 141 91 80
-68.7473 102.136 1154.16 103 54 37
349.331 26.278 1804.22 251 242 227
237.911 -103.444 1345.88 176 170 159
-75.7221 173.204 1115.58 230 209 200
-30.1285 420.228 1190.07 90 58 39
324.939 -87.9081 1771.8 160 145 135
334.062 4.21287 1899.47 122 76 61
-114.194 128.825 1078.26 162 136 130
-26.8693 200.679 1314.34 91 55 43
281.882 463.46 1867.09 131 146 140
-33.1024 170.61 1174.35 139 108 103
380.989 342.56 2102.27 142 167 164
33.2191 -19.3826 1281.97 126 100 84
44.2783 222.471 1308.5 216 204 191
45.2605 226.999 1270.66 195 189 181
-183.916 78.7935 1184.67 162 128 112
44.2438 215.907 1307.91 159 134 117
-20.0492 528.63 1342.22 99 79 61
-51.6361 528.557 1243.94 161 154 151
-59.5053 134.24 1028.47 254 238 231
-64.7356 156.808 1116.92 101 37 24
370.927 353.253 2104.04 190 229 232
-75.9919 68.0818 1157.41 169 149 123
-5.08316 115.872 1070.49 252 254 255
21.2446 2.5707 1224.74 255 249 231
-53.1335 108.533 1089.83 208 200 200
-13.4325 154.555 1231.3 249 221 205
1.83039 136.495 1233.02 254 254 238
440.842 168.243 1951.84 246 245 222
357.733 1.71016 1812.38 245 219 199
370.568 75.8977 1819.49 244 230 211
-22.8845 343.626 1179.9 236 193 183
352.819 -180.273 1673.16 190 206 206
-73.12 59.2112 1051.47 241 217 193
375.752 73.706 1822.3 184 160 147
-50.088 262.273 1149.57 255 247 233
-35.4796 199.506 1057.83 253 242 216
-4.55625 350.144 1217.9 152 130 120
240.22 469.469 1949.55 66 94 88
-18.9694 375.015 1287.82 187 163 142
