51.7068 58.5179 1182.6 91 70 50
30.7016 410.625 1258.99 246 242 236
505.075 8.56016 1638.7 42 36 34
-32.8797 77.061 1093.33 26 20 25
-10.3744 412.15 1221.9 225 202 189
504.746 -107.216 1613.41 255 248 245
75.0462 5.91971 1182.17 109 60 47
37.0555 426.94 1261.24 210 207 206
86.8641 10.572 1213.86 94 12 13
-37.6825 197.488 1229.55 76 46 44
357.715 188.538 1946.69 25 24 15
-20.3235 229.121 1130.83 255 237 211
12.8169 8.37678 1122.19 83 59 38
30.5605 369.447 1256.49 252 239 221
-12.8432 308.508 1161.5 122 106 111
546.804 -193.002 1800.84 183 188 177
-65.2295 80.0359 1135.16 254 230 218
-53.9494 79.3274 1068.86 97 56 41
-12.4179 323.09 1188.81 80 66 68
80.4939 0.0662908 1133.37 77 12 9
2.63875 471.233 1199.47 214 214 203
27.1246 385.411 1283.7 115 92 78
543.798 47.7329 1737.33 231 231 230
90.1008 178.603 1313.71 152 118 83
82.8437 163.981 1251.59 251 232 211
-1.09124 397.788 1170.76 134 104 90
140.991 435.344 1329.54 61 62 62
72.3208 131.11 1218.83 129 70 48
-3.60478 461.867 1254.48 196 180 163
443.993 214.746 1964.75 201 198 190
493.496 -73.7461 1621.94 211 200 189
-56.6301 124.418 1071.05 255 247 244
19.5818 284.123 1217.06 249 226 217
-14.6591 277.552 1134.78 136 87 65
535.107 361.924 1805.2 160 197 217
27.6682 347.72 1112.47 253 244 238
1.79856 389.095 1170.75 167 148 135
503.519 45.2068 1646.35 96 91 89
67.0428 151.09 1247.46 126 114 89
-20.9218 339.894 1062.05 217 196 190
129.762 159.879 1319.33 117 91 71
80.9129 624.983 1378.48 217 239 228
584.844 396.716 2027.91 49 86 95
108.632 610.1 1382.99 199 215 207
88.5319 186.804 1199.68 230 216 204
553.323 -96.3216 1702.59 250 243 240
535.829 28.9017 1645.51 249 249 241
-67.0213 55.4172 1064.73 255 242 212
30.3643 392.155 1285.04 111 90 80
-51.6227 189.313 1160.57 83 51 44
73.9275 203.41 1219.49 253 239 227
8.35434 10.4006 1198.86 255 248 234
76.2496 126.451 1247.02 249 231 208
-64.563 107.443 1113.89 147 80 62
515.687 26.7793 1640.19 233 220 216
-30.1383 101.245 1169.92 129 128 123
521.764 312.561 1999.59 58 85 85
-43.665 93.1605 1091.92 106 93 86
73.6442 194.999 1252.46 255 251 238
116.74 185.914 1319.5 110 93 77
512.145 -63.8127 1623.54 144 138 135
577.681 -19.7014 1637.58 137 126 121
92.3203 666.733 1474.47 118 144 133
-16.8616 332.052 1070.59 108 98 95
30.8641 461.405 1261.82 126 99 78
-55.7587 141.821 1221.06 224 187 182
17.1762 309.801 1194.18 107 101 106
529.151 31.2718 1564.24 164 133 128
385.888 -183.622 1586.76 109 111 113
541.53 -107.442 1615.75 238 223 203
-57.0954 101.052 1089.54 250 208 208
-75.553 140.356 1113.71 77 40 25
14.662 283.508 1247.38 136 92 82
-56.0227 94.4269 1046.03 250 213 188
85.5665 145.714 1215.25 150 118 90
593.381 -208.757 1594.95 202 219 206
5.65654 356.323 1311.15 254 245 228
23.2619 436.486 1231.03 151 156 154
67.7539 165.472 1164.37 153 112 99
72.7467 216.156 1223.44 131 125 130
480.104 -69.0031 1516.36 231 228 236
101.68 612.979 1381.81 81 100 91
93.9973 241.452 1320.31 145 132 120
29.1385 319.455 1197.19 128 102 100
-10.3207 443.222 1224.35 61 50 41
63.9992 163.456 1247.93 229 201 193
57.4941 126.026 1243.4 255 231 215
562.771 0.416614 1641.17 252 239 236
80.4383 222.47 1276.99 134 98 84
506.024 -14.9262 1553.42 245 235 220
-57.3207 137.348 1157.89 118 45 38
99.0079 205.233 1258.14 172 165 163
-44.9136 295.759 1202.85 158 147 144
-67.0401 65.925 1065.38 220 139 111
536.649 -216.065 1590.93 179 180 181
-41.7212 223.805 1176.28 251 247 231
360.306 -167.364 1510.66 198 207 200
55.8981 357.733 1287 252 254 239
-48.1668 205.468 1123.62 99 87 72
480.788 -37.9075 1546.91 194 173 170
87.3429 337.838 1265.91 228 220 207
88.3002 361.245 1329.05 156 150 133
-37.2793 244.677 1164.9 171 143 133
551.33 307.562 1702.38 118 141 138
79.1314 115.298 1210.65 183 137 109
725.974 -247.45 1927.96 90 108 95
95.666 186.253 1255.91 184 160 147
33.5447 328.527 1254.47 174 151 150
11.1433 276.566 1190.89 252 219 198
-18.4759 165.778 1177.19 156 117 96
3.51924 274.291 1088.42 153 132 142
-22.0329 107.115 1096.86 166 157 160
486.19 2.24576 1534.35 240 234 231
574.171 278.645 1828.69 216 241 243
37.8279 247.886 1194.39 253 249 242
19.7532 104.136 1153.71 234 225 218
500.467 196.703 1588.01 88 81 67
76.7216 185.693 1252.28 166 127 121
-35.9111 244.701 1178.92 246 240 226
50.5743 360.194 1230.33 183 169 150
-14.6828 257.676 1133.66 166 101 84
-1.18542 356.354 1167.67 153 140 138
-59.1319 140.804 1117.26 132 48 28
-50.9138 180.167 1121.48 214 217 218
138.74 -47.8818 1339.45 255 247 225
-69.3418 45.6267 1021.87 168 145 122
-72.214 42.1468 1062.83 252 223 202
7.54717 122.851 1129.56 241 214 205
-61.9076 193.732 1169.8 55 31 26
76.4015 145.107 1248.72 236 214 197
534.634 -39.9277 1630.4 239 211 191
42.9366 322.738 1256.01 162 116 112
-44.0211 98.3834 1120.71 181 181 168
82.8218 124.614 1343.3 118 77 47
450.219 42.8057 1559.44 171 161 159
91.3202 333.499 1291.5 221 220 206
-20.3876 61.4409 992.976 251 253 233
-45.5017 250.901 1036.09 243 252 243
429.963 -31.3407 1419.5 111 91 90
84.8497 336.434 1290.55 152 154 137
570.147 -3.77487 1726.59 251 240 249
-102.565 109.492 1105.76 134 108 99
468.545 188.837 1509.49 36 33 28
29.0322 209.883 1327.43 179 144 131
588.353 107.537 1666.13 255 252 231
801.149 -179.875 2086.49 237 243 221
-20.384 164.26 1126.79 158 115 90
-24.2049 295.597 1184.67 152 158 143
-27.1882 203.737 1178.04 242 221 196
-24.2668 212.705 1179.27 216 196 170
66.9122 108.882 1189.57 250 221 205
563.977 5.31104 1912.98 78 61 58
482.78 -53.9348 1692.56 162 139 130
90.2566 -42.6218 1233.12 73 51 30
-73.3875 199.069 1167.62 188 155 139
-12.7757 72.4179 1171.27 180 155 155
574.678 -50.4364 1715.27 211 179 165
142.375 107.541 1316.14 255 245 230
-6.93819 379.612 1168.21 202 201 197
-31.3992 169.584 994.606 146 112 78
535.459 -62.5837 1699.77 254 246 236
707.981 -3.96486 1841.18 142 148 143
561.101 -19.7839 1636.58 238 216 213
463.424 180.71 1445.03 117 114 104
728.359 -120.058 1874.52 244 247 237
767.48 -6.71759 1977.15 227 234 223
37.1017 115.908 1157.66 192 158 145
-6.5173 97.3757 1125.05 254 255 253
142.472 114.114 1316.85 214 175 158
634.343 -100.721 1704.94 226 225 197
643.22 -55.7063 1896.14 162 123 109
151.114 227.728 1395.41 204 150 132
135.057 61.7008 1309.87 255 241 215
131.093 225.341 1265.67 255 253 230
-27.1435 280.579 1183.12 130 122 107
147.245 92.0951 1353.36 252 228 206
40.7896 242.025 1194.58 178 166 156
41.0985 314.081 1199.25 217 165 158
20.2477 451.896 1231.59 220 199 193
13.5639 99.0733 1178.64 207 139 139
664.832 113.709 1760.46 254 255 228
-22.4051 485.771 1224.84 102 93 79
477.842 -23.6656 1629.48 190 154 143
557.291 -56.6749 1930.42 83 48 37
9.36288 297.768 1181.57 229 236 222
16.0473 292.435 1166.13 170 174 159
524.731 -24.928 1718.38 211 188 174
511.742 -45.5487 1547.82 143 118 100
609.277 -50.3839 1716.93 206 179 162
587.431 -103.799 1721.39 219 216 191
45.0303 122.666 1240.67 221 198 190
500.856 4.72214 1723.68 136 115 113
31.2933 114.082 1183.28 252 247 242
669.448 366.156 2025.77 177 201 195
426.074 -76.2206 1407.56 81 60 52
677.523 -157.673 1776.2 151 157 136
440.18 -75.5634 1462.48 21 1 0
11.6524 317.886 1249.14 237 230 213
582.108 -64.0177 1627.84 251 249 225
19.2684 375.458 1173.34 140 142 138
31.7157 321.455 1314.2 222 213 216
470.255 237.112 1664.07 85 114 110
703.076 -17.4368 1817.55 248 254 243
497.996 -31.8368 1629.44 134 107 97
