-14.5353 385.748 1135.07 255 246 223
20.0342 441.953 1346.54 255 246 244
51.1501 452.447 1234.52 249 254 255
20.2173 1.25277 1200.71 255 249 226
293.994 217.335 1954.58 246 246 233
30.9025 472.457 1258.91 43 45 44
44.9625 454.982 1233.32 100 106 109
367.65 -96.3404 1524.75 255 249 239
37.9389 430.528 1162.61 136 143 145
24.4695 428.493 1256.23 234 223 223
-65.0158 67.0065 1042.04 255 201 170
430.249 294.558 1878.66 37 69 77
-3.08728 444.067 1132.58 251 243 232
410.432 268.691 1771.16 202 229 232
394.125 43.9329 1625.67 235 232 234
-64.4345 74.6083 1024.57 246 177 164
20.1778 -10.5907 1199.91 244 229 219
366.698 43.641 1550.03 104 93 95
-122.221 513.977 1355.89 196 197 192
174.591 165.518 1622.41 88 82 70
-34.6707 260.7 1234.44 96 84 71
336.135 -21.2143 1534.71 246 207 194
332.241 -4.13615 1457.93 245 233 230
-0.476478 394.321 1192.06 255 253 240
-51.4462 181.312 1074.82 63 42 42
-24.8603 155.643 1078.98 106 59 33
-24.7058 222.162 1100.03 253 243 219
35.1707 334.901 1197.61 243 246 236
398.921 -83.9671 1700.81 152 140 136
340.478 225.773 1505.24 58 92 104
-8.82069 418.333 1134.84 180 174 165
51.0612 6.80233 1154.22 98 42 38
393.502 27.8352 1623.34 255 246 243
11.1227 277.314 1189.97 248 211 206
-65.4944 56.3279 1056.35 255 242 217
24.3602 394.222 1254.82 217 214 193
6.03011 521.446 1318.86 180 180 175
429.913 210.831 1762 73 68 56
-38.1543 277.58 1080.8 82 76 71
353.568 -66.3762 1528.67 212 191 182
-49.6393 170.288 1048.38 251 252 255
30.3745 323.042 1252.42 110 85 75
-6.70845 459.839 1341.06 171 156 141
-62.5574 182.781 1091.32 25 15 12
21.984 423.508 1233.52 146 138 137
-56.4309 133.888 1117.31 245 230 224
401.206 -87.4884 1607.53 247 246 239
-52.0997 86.4192 1106.48 255 253 255
414.684 380.835 1881.41 98 125 127
344.29 6.60331 1448.83 77 79 75
-52.5832 76.7123 1003.63 85 81 74
52.4897 196.376 1193.36 255 248 231
308.557 -187.728 1767.54 33 40 37
372.753 5.34435 1543.96 253 244 243
55.2335 155.056 1190.97 244 231 196
49.9788 127.407 1179.08 179 133 110
2.79407 262.19 1156.37 144 100 95
263.958 -156.039 1575.75 67 72 67
54.3125 214.237 1219.39 128 126 128
64.4023 184.928 1194.84 242 230 216
352.328 43.7171 1619.07 182 172 164
-56.6559 93.8137 1069.27 239 201 187
-0.454292 11.5946 1096.49 244 220 199
-18.2161 418.988 1188.47 140 138 131
-51.3815 80.764 1069.58 239 249 238
-17.4609 305.296 1133.63 131 101 105
-23.1532 71.2321 1143.56 122 120 116
12.8835 334.956 1117.92 163 149 136
407.825 -14.2911 1624.37 255 246 229
105.763 441.59 1321 115 114 112
68.4961 230.465 1374.53 124 93 64
66.4126 181.488 1220.25 141 112 96
-20.2025 368.931 1134.04 229 228 227
47.3021 159.278 1139.41 154 107 86
13.5693 416.661 1170.37 145 139 136
-34.1762 93.3334 1063.4 157 135 137
23.8034 305.823 1176.52 155 122 112
-16.0537 455.997 1248.1 63 35 23
-17.454 310.856 1133.78 161 137 139
323.416 -43.7832 1529.07 138 118 110
50.0834 168.051 1180.1 239 229 216
15.9329 405.053 1118.25 119 108 100
-48.8054 199.975 1076.16 114 77 77
49.0597 119.561 1187.13 243 219 194
435.983 -220.246 1590.9 195 220 222
67.4641 193.916 1196.04 168 159 154
43.2469 142.941 1187.8 154 122 100
-20.2181 355.159 1134.01 176 167 164
16.5967 335.335 1141.4 255 245 236
381.258 -46.0285 1614.89 247 240 227
40.3364 154.632 1188.1 255 244 232
-24.5177 407.417 1047.87 147 137 127
-22.2551 86.5595 1075.65 131 120 108
369.164 -66.4609 1530.45 254 250 249
-30.1784 187.427 1079.42 254 242 216
43.3727 166.496 1189.53 253 230 215
-57.3474 97.9737 1044.71 181 103 77
355.371 -28.7938 1535.72 108 73 58
17.0044 259.873 1190.24 183 153 151
-59.6443 94.6125 950.811 152 82 59
398.147 295.491 1774.65 140 159 154
25.0869 61.2716 1092.06 136 144 134
37.2184 125.138 1185.31 132 89 57
508.567 110.105 1748.58 253 254 228
-20.942 141.238 1070.26 131 89 89
415.129 -13.7868 1545.19 131 118 111
49.452 -37.9017 1172.87 68 45 32
370.253 322.178 1676.19 185 222 231
-14.0199 252.199 1085.09 251 218 201
372.682 -73.9848 1529.45 187 185 183
412.905 -103.301 1606.72 219 191 171
-74.58 132.447 1025.29 116 70 61
361.733 -58.9152 1530.99 195 184 188
-49.0977 97.1809 1091.03 177 118 110
61.6069 217.439 1196.5 182 163 151
-0.607812 264.3 1135.65 251 234 221
-9.50614 311.576 1187.31 210 159 146
60.247 172.237 1218.61 231 222 205
35.2269 349.722 1198.22 195 188 167
388.141 -2.31675 1544.36 250 239 241
-107.571 111.937 1079.35 154 124 118
-11.674 407.445 1134.88 133 130 130
326.527 -7.47833 1373.69 114 100 91
-27.2372 -9.25031 1214.31 167 146 146
1.9364 143.937 1129.8 124 91 67
386.361 -36.4885 1537.9 231 207 189
454.804 -21.2781 1719.64 243 231 227
-6.52913 326.352 1188.57 254 244 237
468.496 329.063 1790.5 166 169 167
-2.68675 313.919 1229.52 239 244 244
-72.5481 188.302 1070.71 179 150 137
7.9588 295.637 1138.57 174 160 157
343.525 -39.0223 1488.76 220 181 165
501.002 -102.642 1697.43 254 255 233
54.5811 141.203 1162.12 178 134 97
344.24 288.625 1855.82 75 101 104
282.256 -202.268 1651.79 201 166 161
80.8319 609.573 1374 194 212 203
372.642 -84.845 1454.3 220 202 182
439.769 377.221 1898.03 155 175 173
-3.48681 118.949 1081.15 254 228 201
225.61 -212.792 1655.23 110 113 105
26.6553 245.401 1176.82 166 145 139
425.239 111.432 1736.28 127 122 102
482.403 -233.069 1685.16 204 209 202
-18.3862 241.247 1055.51 157 111 78
36.0178 130.05 1190.06 251 238 209
-35.5386 70.4442 1072.1 254 252 235
368.439 27.7822 1619.46 60 36 27
349.313 321.293 1772.14 85 118 113
407.751 -68.3954 1678.24 165 157 153
332.537 359.261 1878.08 61 73 70
-8.61526 11.5419 1094.95 185 165 147
5.49751 406.454 1193.56 254 248 238
-14.7088 257.987 1132.5 202 159 134
-17.7435 79.471 1121.69 255 250 252
370.299 -43.9094 1534.72 230 220 207
87.7475 606.798 1375.32 140 160 152
311.825 -175.109 1819.87 107 113 108
-13.7494 466.143 1124.29 140 129 106
-70.4499 51.2658 1084.64 191 170 137
130.062 185.91 1321.84 244 233 214
-31.463 287.841 1080.2 249 249 252
-20.3814 9.34465 1140.73 145 114 102
103.895 234.382 1321.36 255 251 221
-35.3415 76.295 1029.22 173 173 168
377.495 -203.137 1505.76 127 146 137
-38.8156 247.899 996.297 191 196 193
-9.95135 385.61 1246.97 190 180 187
28.1543 292.463 1068.31 244 237 218
402.717 232.814 1657.82 173 188 185
390.624 -85.9942 1355.7 169 172 148
283.559 4.42829 1798.86 33 45 22
391.043 313.962 1676.38 176 191 188
464.602 -93.7518 1613.1 176 171 145
80.6902 88.5673 1094.24 255 239 222
377.446 340.255 1780 112 145 149
18.7307 113.607 1131.08 218 166 139
406.732 115.943 1650.17 163 159 138
-14.2477 92.0576 1077.52 255 249 235
-68.6095 44.5226 1000.98 239 214 192
499.111 -67.1749 1820.82 255 249 227
282.458 234.12 1598.85 55 77 82
-59.0331 235.999 1012.99 188 160 155
449.351 98.439 1569.22 255 255 235
-25.8689 -13.4305 1176.83 103 129 143
-6.83247 57.5166 1052.71 254 219 191
11.5027 304.243 1047.57 245 226 211
93.7336 97.0102 1193.42 255 242 222
95.295 48.3348 1301.37 255 245 230
94.593 191.842 1200.9 193 173 164
102.996 451.29 1325.65 82 81 78
-14.225 108.006 1078.47 255 223 205
228.199 197.835 1356.13 47 68 72
280.678 233.135 1541.07 73 100 100
345.785 -156.705 1505.49 143 134 124
-11.6359 348.779 1144.4 242 227 225
-118.853 386.998 1054.94 63 59 50
