380.279 210.386 918.498 243 249 248
-514.669 126.229 1014.48 84 72 71
238.409 -11.7634 831.945 248 241 236
-254.244 354.94 1106.16 240 236 227
178.534 157.254 975.926 247 234 232
293.082 -46.4202 862.735 15 18 21
-429.997 165.493 1094.43 116 92 64
227.055 54.9346 908.57 248 245 229
-425.8 397.654 1165.48 32 31 29
-293.92 164.879 1017.14 47 22 17
-303.57 177.081 1059.49 242 232 212
330.69 93.6184 903.159 46 46 36
-489.174 351.104 1169.61 47 43 40
-468.349 349.16 1149.05 231 228 225
280.568 3.84806 851.722 228 223 216
383.064 219.667 919.506 230 232 222
227.307 138.555 946.643 255 247 245
-325.121 76.4809 1003.55 248 238 223
379.503 194.218 916.929 210 217 217
-320.753 91.4633 1005.61 255 247 232
341.997 138.831 908.875 58 66 62
-405.118 145.763 1051.11 111 78 52
278.082 -80.4897 871.331 223 242 238
-311.892 116.573 1009.5 251 243 212
-408.697 138.49 1025.55 255 245 216
-421.648 287.786 1049.71 243 242 219
321.935 15.1794 839.496 237 242 239
-494.916 334.919 1199.63 237 230 216
-457.821 295.065 1085.9 60 44 17
364.397 176.454 885.611 230 238 234
-316.367 106.452 1007.69 255 250 230
227.589 14.3731 875.975 227 217 215
-438.945 59.4343 968.153 107 83 79
157.168 46.8154 947.617 236 228 221
-329.544 66.5056 1001.74 246 238 211
165.809 -102.416 972.9 250 251 248
146.252 -125.605 1005.45 62 52 44
-481.484 273.342 1139.41 61 50 53
368.592 116.311 907.927 246 253 245
-276.188 284.087 1094.68 127 94 87
146.142 139.78 970.431 234 216 218
-454.69 294.868 1120.39 248 251 236
323.004 37.8239 842.115 240 255 250
-469.748 271.619 1038.19 96 105 102
129.295 29.164 908.555 31 20 24
361.412 160.952 883.931 243 255 245
-450.526 9.53478 961.724 205 187 182
-400.497 196.447 1079.18 115 109 111
-424.358 118.732 997.981 255 248 233
-412.108 517.664 1273.57 107 110 108
-451.216 148.176 1086.46 230 205 195
234.896 145.208 974.793 229 213 214
-338.036 117.86 1088.95 151 120 107
314.826 14.7924 882.692 159 161 150
-370.267 171.084 1039.59 114 109 88
269.395 -76.1311 871.186 221 237 230
-393.544 177.693 1032.84 255 246 235
244.32 8.11327 906.094 210 195 195
-410.196 169.111 1050.84 97 79 66
381.763 227.413 950.842 224 240 230
288.748 -91.0697 871.007 163 179 176
275.604 -88.8646 870.427 191 215 214
-440.111 9.62337 965.131 239 229 212
-478.027 333.664 1144.87 220 218 202
316.3 129.871 851.252 73 75 71
207.992 48.9916 844.575 157 135 120
236.898 -13.0763 847.009 192 188 180
128.019 29.1039 977.455 229 225 218
368.32 169.489 899.655 194 206 199
221.49 174.396 997.632 242 217 199
231.632 14.3624 954.009 214 192 180
-521.519 116.835 1031.4 109 99 93
208.305 47.676 918.398 255 250 231
246.996 326.372 1051.42 63 90 96
86.0188 -36.5308 871.292 221 222 210
123.794 78.89 929.915 252 250 240
272.877 -88.6266 949.927 27 43 42
165.881 -97.6234 973.267 253 251 254
190.961 157.594 977.486 236 206 193
328.906 12.128 829.396 231 239 226
-221.658 311.395 1251.35 7 5 2
-264.417 63.8296 1192.92 217 201 179
195.549 94.9021 908.51 253 245 221
304.808 62.6613 871.155 255 251 226
-312.711 135.474 1030.81 255 252 242
-442.017 164.839 1090.53 100 70 64
246.757 1.57662 903.523 101 90 90
373.299 300.556 1024.96 225 242 236
-417.101 57.3773 935.517 83 54 49
-430.981 200.535 954.659 255 249 245
195.569 -101.037 937.231 93 54 35
235.457 61.993 880.549 244 230 203
222.425 52.2592 920.152 100 81 67
-391.207 474.72 1178.2 97 103 98
205.966 160.306 979.522 208 199 197
-415.087 120.429 1022.33 244 223 204
126.476 120.804 982.807 253 242 235
289.927 433.453 1149.22 70 95 101
-550.966 60.2598 997.641 206 208 206
-261.523 75.0063 1163.56 25 13 8
311.784 2.94223 812.862 239 250 243
-284.048 65.6723 1105.19 47 28 11
274.752 354.221 1056.92 78 110 120
221.388 167.863 1032.68 127 121 115
-367.487 163.222 1063.29 124 96 73
315.781 40.8504 885.195 161 158 144
-311.997 124.008 1009.89 255 240 222
364.699 117.559 925.319 224 238 234
335.516 106.794 859.106 211 225 211
-336.366 14.0491 957.148 255 249 208
168.064 -86.9983 921.578 214 157 140
369.276 175.516 930.463 208 225 214
-312.81 145.211 1054.88 213 184 154
263.992 -3.5774 834.393 42 36 35
294.22 -53.6894 797.051 98 113 94
183.579 -90.1845 955.137 203 172 169
286.656 -55.3945 820.922 199 202 183
133.315 58.4504 912.737 233 228 230
376.323 112.996 925.694 213 224 206
342.421 31.2259 858.177 238 252 225
-430.738 152.466 1043.56 232 213 198
-527.298 255.532 1122.27 169 163 164
-484.692 369.202 1172.91 99 100 101
210.214 43.1647 849.178 248 231 210
177.903 12.2915 900.179 162 151 133
-257.155 272.589 1026.27 208 180 175
372.343 211.722 928.993 210 225 210
336.771 -0.324362 854.85 240 245 245
382.655 71.6193 892.317 249 250 234
107.013 73.7553 909.978 253 249 242
-394.512 52.8611 1003.71 223 173 145
-336.113 49.0831 998.917 245 222 170
-515.059 247.959 1126 149 140 142
-287.142 230.755 1067.37 154 117 92
-349.799 60.3439 898.674 232 203 181
155.432 38.8411 981.72 220 202 199
-482.137 298.865 1141.04 236 219 204
349.519 423.385 1085.52 222 249 251
-457.706 344.444 1102.47 155 155 154
-456.612 362.489 1125.12 66 63 55
159.703 -51.2228 909.244 152 152 128
-246.249 327.025 1059.85 214 205 185
-523.632 343.792 1190.39 147 144 134
207.684 -105.095 1034.75 165 152 140
-249.985 232.516 1179.18 56 35 31
-394.28 22.3625 960.487 97 41 21
-294.084 177.429 1017.8 255 246 222
86.7556 -28.9465 901.79 45 47 41
354.583 -0.465919 883.568 224 233 211
-330.916 293.779 1107.42 247 236 226
-361.576 218.545 1118.78 162 125 109
-412.948 143.164 996.955 90 56 36
-341.299 93.3353 999.871 218 165 142
-296.175 241.714 1105.24 255 244 226
-417.042 133.107 994.818 175 145 126
235.116 -113.871 998.283 125 110 88
334.748 17.8698 870.471 192 204 197
-274.658 -9.29899 1185.17 42 45 37
228.128 9.42096 920.549 117 95 74
329.333 31.2269 857.386 197 202 183
365.468 194.089 915.993 192 222 207
-399.498 120.663 984.11 143 113 94
220.971 160.576 981.323 107 62 60
-325.306 202.397 987.532 160 157 129
198.394 48.4781 889.224 172 165 153
191.632 234.737 1019.15 229 229 194
316.375 428.846 1152.12 78 115 129
-272 -0.594491 1186.5 45 40 25
131.555 -53.5543 890.133 175 158 143
321.376 -23.6167 793.221 234 246 218
-361.703 226.918 1119.22 122 98 77
298.838 73.516 886.839 254 255 212
201.054 6.58046 831.032 193 164 151
222.772 152.564 947.179 102 66 60
173.361 226.544 1016.11 71 73 67
268.22 -81.0715 917.575 138 144 139
239.302 174.76 999.585 142 97 86
277.816 46.4407 912.325 163 149 127
-254.454 179.625 1203.13 195 172 151
364.439 53.422 935.736 233 249 243
-336.048 281.303 1185.97 173 148 122
-489.114 256.597 1081.1 249 245 242
-354.67 355.771 1104.04 142 138 127
311.503 241.737 997.115 249 247 222
175.775 102.817 951.917 245 204 179
-569.69 91.0337 1040.98 255 253 255
139.738 -126.018 1018.15 172 157 145
203.863 92.7526 991.373 243 241 210
238.585 -148.602 1035.34 168 172 161
-284.127 71.1249 1105.55 168 149 130
-506.488 287.859 1132.06 249 235 234
339.256 302.182 1022.05 224 232 218
-368.029 46.4594 927.409 133 77 58
143.289 125.449 935.713 168 161 161
133.386 65.2017 945.674 102 72 67
-408.129 301.496 1109.53 250 250 236
-237.769 163.817 1098.9 210 182 162
-305.692 226.014 969.574 218 207 190
137.926 -82.164 918.947 63 54 51
123.461 91.2668 963.801 216 189 183
-350.113 72.5958 956.093 136 119 100
-252.178 204.87 1123.82 179 144 129
418.253 406.999 1089.92 73 99 103
-402.83 176.178 1002.8 239 229 221
220.697 107.421 841.828 119 91 85
364.966 360.505 1067.2 113 136 130
-324.92 218.488 1011.5 167 148 143
-301.436 59.2874 896.45 243 222 195
-455.074 15.8293 983.314 162 134 120
241.484 124.627 947.074 183 148 150
-521.869 70.7207 1008.62 141 143 135
110.604 -85.5518 982.036 71 69 68
-351.891 252.587 1123.59 127 104 87
-316.626 220.159 991.186 228 222 208
-361.173 70.5851 992.832 254 248 233
379.361 129.143 927.366 221 233 206
227.327 3.55976 875.062 81 67 58
127.062 -72.6665 859.705 195 174 166
254.455 174.945 935.475 161 129 114
137.33 -116.158 1018.82 78 73 68
-287.19 250.618 1090.07 173 144 119
193.627 -0.934473 900.665 179 155 138
-331.182 326.95 1014.05 219 218 207
230.045 159.517 974.652 191 155 142
-256.992 192.666 1140.98 95 59 46
211.34 180.016 981.602 122 91 63
-344.274 368.248 1130.49 109 88 64
315.263 411.594 1106.87 115 148 151
283.485 71.5367 946.441 228 220 195
174.748 35.6061 872.614 209 170 144
275.104 253.944 1011.34 220 213 189
-541.411 72.0886 977.134 246 234 225
216.961 212.087 984.488 149 153 140
300.468 -124.494 928.066 43 91 82
113.997 44.5696 926.106 236 227 226
249.907 174.51 951.665 139 109 98
-363.281 83.4486 1014.27 228 226 219
-258.323 83.294 1140.4 136 130 117
-268.291 60.9301 1252.06 93 60 40
-439.397 9.89363 903.019 89 85 72
142.079 207.51 974.335 96 81 66
393.245 317.938 1065.74 94 121 120
327.714 -63.5014 848.327 212 228 201
290.804 89.5959 917.184 255 250 229
-317.438 135.29 1029.52 253 248 230
-489.354 270.089 1071.99 162 151 155
207.649 -112.547 976.575 205 192 180
-499.071 106.296 1018.61 254 240 221
166.857 111.73 937.723 238 223 208
230.208 -126.107 923.372 133 101 92
251.106 88.989 913.642 249 215 189
131.158 120.009 967.015 155 118 109
-536.117 315.292 1209.65 168 109 96
363.459 51.5869 904.249 222 243 215
-262.323 93.867 1220.77 134 137 132
-319.063 296.76 1083.13 144 130 113
219.82 126.632 944.937 193 170 154
-510.399 179.555 1040.42 254 240 212
119.684 -105.292 933.191 68 58 48
415.222 139.119 962.599 210 219 194
278.501 69.1121 914.372 229 224 203
-238.238 180.216 1178.49 64 28 9
-361.788 232.442 1119.53 203 188 168
129.119 44.074 940.671 173 163 170
122.902 60.4926 910.726 249 233 235
276.163 -65.4604 845.241 81 95 89
-342.099 286.849 1128.33 237 240 223
373.02 157.276 912.786 177 192 180
-479.277 238.446 1083.13 183 169 162
256.045 -62.8968 900.474 163 171 171
222.423 210.102 1021.4 229 217 173
291.75 -69.5496 881.91 178 209 203
265.053 75.2301 868.424 240 228 196
233.765 -1.77019 889.678 91 81 73
-479.878 262.649 1084.55 252 235 237
354.622 147.611 870.763 173 189 175
269.185 -80.7139 899.719 186 181 178
188.103 46.0126 887.161 180 166 132
194.968 234.006 1000.21 201 207 178
139.203 172.421 1007.56 106 87 83
-337.263 82.4584 960.185 255 248 239
-262.308 192.363 1139.41 177 142 127
-482.444 493.586 1358 152 152 143
344.589 160.938 872.427 167 178 162
-337.064 113.177 1002.21 255 245 238
188.521 95.0626 921.31 176 179 163
-335.632 274.031 1104.73 113 95 85
-292.648 338.666 1201.66 249 215 186
261.869 -42.4447 846.326 141 140 136
-428.795 33.9438 1058.58 193 110 76
385.835 212.491 947.091 226 233 224
-390.316 101.996 1053.21 137 92 75
360.85 145.788 910.818 198 221 187
295.52 -63.5398 846.578 59 70 83
208.933 -105.644 925.793 155 111 104
-242.256 85.1978 1093.8 142 137 129
362.337 85.6147 857.214 235 252 239
340.681 71.4076 958.459 150 143 122
308.036 339.571 1080.21 147 183 188
152.846 209.604 931.053 95 97 92
-517.902 211.452 1068.28 144 107 98
345.195 96.981 884.43 209 228 218
177.459 72.0668 888.635 190 167 144
-534.421 65.568 1003.88 243 242 239
275.684 -146.615 1039.48 98 98 94
-234.947 324.338 1136.11 165 162 154
270.934 132.412 918.874 252 245 229
238.407 197.951 935.93 155 149 135
-564.645 238.692 1196.79 224 182 160
-552.602 182.314 1097.08 251 237 214
-513.338 196.407 1055.14 248 237 215
-520.968 128.919 986.79 243 242 242
-316.109 43.9847 1047.6 153 142 132
-326.899 128.622 920.475 183 145 128
196.533 168.579 945.228 171 133 128
141.085 192.52 989.438 83 61 42
304.576 -123.542 984.268 108 130 128
174.423 302.617 1020.68 106 106 97
-450.127 95.1416 1034.13 194 178 180
306.808 334.238 1071.88 125 165 171
-504.908 207.274 1059.6 199 169 157
