389.9 -172.357 1151.99 230 234 230
-207.408 328.025 1086.9 15 7 5
-272.316 136.885 1021.07 55 48 43
-159.763 132.924 1048.88 255 247 223
-149.842 164.536 1052.85 255 244 232
-134.481 144.15 1055.28 58 25 13
-176.172 319.483 1094.38 201 199 183
-134.946 161.43 1101.47 37 18 9
-218.3 375.363 1111.79 56 46 40
-126.999 172.681 1103.98 250 235 221
-201.596 347.547 1119.23 216 209 193
-161.329 149.622 1094.52 247 227 205
-153.516 163.495 1097.21 100 68 57
-240.111 289.387 1082.54 255 250 242
447.194 -4.49321 1282.24 27 23 22
-243.959 369.129 1109.42 117 110 100
-136.99 136.222 1054.29 217 196 179
-227.603 341.743 1051.24 244 238 226
-189.923 51.6986 1105.19 255 232 215
-265.435 381.444 1154.39 255 253 239
-74.529 127.386 1025.16 47 6 5
393.292 -50.3817 1130.23 226 220 218
-124.315 157.566 1058.28 231 214 207
-116.327 184.112 1107.1 70 69 54
-177.173 -12.4342 975.022 65 33 21
-144.427 102.092 1050.75 255 233 209
444.417 36.9785 1241.64 254 254 252
-177.071 45.2647 999.014 151 99 74
504.606 24.1414 1290.44 255 244 244
-46.0489 32.6957 1067.52 255 246 220
-253.644 320.793 1103.13 76 64 53
-144.542 122.931 1051.86 75 25 7
-157.18 122.583 1048.93 77 52 35
-48.6709 22.1384 1066.34 255 249 232
-144.824 175.192 1054.55 233 217 202
-175.085 241.794 1096.43 88 73 76
-179.422 40.3275 998.237 34 9 5
-207.057 361.197 1118.79 204 201 199
517.373 17.7718 1290.42 255 248 241
-275.049 260.057 1071.63 79 84 75
-268.459 283.625 1096.1 113 86 88
-181.819 49.3554 1031.37 119 58 61
-271.392 53.9756 938.922 68 62 57
799.302 21.0836 1495.96 220 245 220
455.209 -52.3873 1291.1 103 100 98
803.185 54.5834 1502.87 229 239 224
-301.791 60.5797 968.863 200 208 192
-194.412 318.291 1046.71 222 206 206
640.321 -166.88 1207.28 237 242 233
-67.6635 197.451 1168.51 73 34 14
-274.306 300.382 1123.07 148 130 124
-229.407 425.624 1186.16 220 213 209
-191.911 328.735 1169.41 193 196 180
-303.796 162.408 1080.77 54 14 8
-176.906 -17.8568 1014.87 226 212 190
528.647 -5.94587 1237.61 244 220 212
-195.567 230.859 962.882 98 89 81
-160.661 107.513 1005.75 246 224 210
-139.48 125.696 1053.16 208 160 140
-211.993 256.181 1123.66 107 74 60
-144.47 109.898 1051.17 111 59 37
-169.601 101.528 1044.9 237 212 199
-316.329 105.288 1007.44 240 226 218
-118.765 -4.05435 1009.24 117 28 8
-186.143 -18.7692 993.868 187 166 154
-137.355 152.419 1032.66 180 157 148
504.078 16.8926 1233.95 255 245 243
-61.7613 50.5898 1110.59 249 230 211
-227.857 252.88 1032.33 129 113 109
-46.0528 40.6313 1068.02 255 247 227
686.434 -84.1036 1340.77 70 87 62
-151.671 303.707 1105.34 202 191 176
-142.538 311.869 1181.89 245 254 229
469.163 -99.4298 1219.87 253 247 241
633.439 -231.079 1256.7 181 197 184
-174.454 80.7526 1042.64 83 82 76
-213.07 363.414 1088.61 99 94 92
-83.6394 34.5002 1080.98 255 238 251
460.752 -54.9933 1276.37 241 236 227
-261.869 121.883 982.076 135 117 108
-78.728 367.349 1125.06 41 30 24
419.456 -107.691 1161.84 226 222 219
460.979 8.21281 1285.04 88 77 77
563.935 23.4907 1337.64 255 244 237
-125.893 129.835 1076 126 78 51
-204.639 314.485 1086.39 187 165 158
-210.379 293.68 1139.89 74 48 43
-35.389 74.7646 1048.54 248 236 207
458.209 17.7538 1286.1 195 179 178
492.928 5.38105 1346.75 53 50 52
595.848 -191.519 1262.36 196 187 176
-209.312 288.814 1090.42 65 48 44
-149.972 188.095 1054.03 105 88 78
-164.4 75.9873 1065.06 132 107 88
-259.385 496.102 1280.18 32 26 28
499.093 -115.58 1215.87 238 207 189
-48.6673 16.8753 1066.01 255 252 219
-206.763 284.138 1082.96 212 200 197
-172.068 78.4948 1063.39 198 186 165
-212.112 -8.92159 988.325 232 208 194
-140.08 -8.74432 966.403 136 79 62
-162.537 69.9184 982.686 135 139 136
386.388 -219.991 1195.16 201 193 197
704.055 -206.552 1319.09 231 245 227
-261.005 195.29 1004.64 220 191 167
-217.664 270.343 1108.03 249 245 241
498.443 -23.5229 1283.38 255 252 238
-310.92 81.9274 967.358 236 212 197
-197.271 220.314 1065.09 249 240 231
-186.134 -10.7406 921.231 127 112 107
-34.3285 89.6172 1118.88 252 242 214
-144.57 321.233 1158.1 235 225 205
-121.168 -14.0122 1008.22 94 29 9
-130.754 -3.96913 968.546 204 186 178
-174.194 -28.6281 996.08 196 167 160
610.921 113.816 1370.48 251 249 224
647.287 291.203 1609.42 111 148 153
575.593 16.2522 1295.25 227 203 186
-211.625 233.453 1019.94 246 230 218
600.755 -25.6405 1412.68 255 248 246
-279.119 269.139 1119.78 239 237 214
-253.569 325.635 1057.48 241 237 238
-56.5902 69.6094 1067.7 249 221 200
-113.329 366.575 1086.47 62 49 39
-77.4468 43.0248 1061.86 252 240 202
-247.354 63.6844 945.249 134 87 77
532.465 -51.9918 1281.32 255 249 236
507.251 -39.335 1281.69 236 202 183
-189.92 216.831 979.501 182 146 129
-220.195 -7.78689 1005.28 135 117 106
-247.797 265.012 1054.9 251 235 231
-14.8111 165.415 1127.79 255 250 224
630.567 373.982 1631.91 111 146 150
-110.656 351.882 1051.09 196 186 168
-67.8911 196.257 1090.99 253 247 225
449.969 -112.374 1213.44 244 242 240
-138.272 293.487 1107.99 132 134 113
-255.802 337.511 1074.34 224 223 223
-110.48 27.7331 1031.07 229 179 163
-252.901 270.964 1099.49 140 125 122
545.886 -100.367 1272.51 194 183 170
-167.15 270.594 1120.3 158 156 156
642.033 -109.536 1269.57 183 181 159
-91.9316 157.45 1111 158 133 113
353.752 -204.764 1247.51 62 66 60
2.18848 242.261 1135.79 253 247 228
706.265 -152.31 1328.8 227 247 230
-242.424 306.608 1004.48 150 143 145
-154.26 153.995 1116.1 73 34 25
674.894 -188.633 1263.92 212 221 215
-320.265 206.029 1129.34 255 253 236
-138.362 -2.81874 1067.48 95 67 61
645.362 332.999 1470.65 97 131 143
612.357 272.337 1592.18 149 191 211
-235.121 306.537 1077.29 253 219 194
5.17851 262.468 1188.33 234 218 197
476.846 -1.33516 1284.96 150 147 152
-143.632 295.918 1106.85 239 235 223
-107.425 24.1304 991.724 248 201 190
-136.775 94.4718 1052.06 130 74 43
-111.471 160.687 1061.29 218 192 167
-110.423 7.35984 1030.24 96 35 5
451.765 -79.673 1217.88 222 223 230
-243.258 109.463 1071.5 238 167 145
-260.59 48.8821 997.568 140 130 123
-256.024 61.2786 999.16 240 202 194
-218.876 85.0079 1032.12 243 225 216
-251.48 78.6799 1000.92 229 237 227
-243.182 90.7689 985.366 255 236 207
-53.9876 96.1863 1069.81 245 228 199
-172.911 141.981 1004.58 194 152 125
422.739 -8.98974 1232.99 163 153 150
359.688 -213.906 1246.79 85 85 88
-299.95 72.8007 988.422 133 118 118
691.8 -27.9053 1350.64 118 135 121
-224.352 81.0788 882.986 254 233 213
515.124 216.528 1444.58 150 147 152
-76.8819 48.8074 1020.59 227 211 180
-151.305 167.774 1010.68 163 128 117
443.393 -102.176 1164.09 253 248 247
471.183 100.385 1307.17 176 165 142
627.08 225.185 1454.71 127 149 153
-111.335 163.176 1094.96 104 74 51
-247.605 71.1989 983.363 255 227 214
-215.506 272.566 1064.02 141 127 124
-113.262 230.271 1160.18 245 242 226
-277.963 244.482 1090.29 107 77 58
-302.387 100.712 1011.06 150 149 150
467.954 -98.7123 1270.69 242 245 247
-245.819 341.155 1077.51 179 172 168
-284.935 202.348 1021.07 222 220 207
-61.8226 91.9631 1113.35 250 234 213
-269.538 101.571 1019.98 172 132 112
-74.907 72.012 1064.11 254 233 229
355.889 -9.26749 1040.61 106 79 70
575.011 273.404 1532.53 13 38 55
-34.5267 328.157 1208.95 143 62 38
-100.245 215.237 1112.54 249 248 228
-184.747 198.616 985.046 190 169 158
-22.0304 129.806 1097.72 252 248 227
-102.746 423.41 1200.83 217 222 224
541.93 241.422 1383.81 156 199 215
512.231 15.0914 1328.57 222 197 194
-72.5184 63.5581 977.918 255 221 193
365.207 -232.034 1244.8 199 162 165
448.853 -39.6236 1291.16 169 160 144
-135.625 214.789 1153.86 143 118 110
-311.988 125.421 1009.69 221 217 215
-61.8146 86.4328 1112.99 242 232 209
-146.218 292.266 1032.31 237 227 207
-53.6658 158.644 1119.35 243 223 213
-256.9 83.1382 981.568 237 229 234
601.294 -236.321 1195.9 150 169 161
-102.372 -27.2797 989.433 177 136 117
-69.707 82.6538 1065.81 252 239 221
371.276 -71.32 1085.91 135 111 101
517.026 -39.3483 1282.28 156 113 88
673.889 337.605 1549.38 80 120 139
455.042 -98.6387 1269.84 245 239 240
-219.557 94.0007 934.7 174 116 90
-26.012 109.219 1121.88 225 205 182
-188.967 206.445 1213 106 73 62
690.734 331.684 1548.5 202 230 238
559.563 271.789 1502.92 183 225 222
-251.867 44.569 959.748 239 239 220
-239.505 53.9603 1046.07 250 203 186
438.289 -235.62 1238.54 83 71 71
652.791 426.804 1641.4 110 138 140
-259.578 229.971 1049.23 132 91 66
-3.51546 210.884 1132.83 254 242 222
446.804 74.1532 1247.78 154 150 138
-301.031 62.5019 961.933 61 56 47
634.366 33.961 1424.54 132 115 106
-51.749 107.502 1090.83 186 140 90
597.04 373.316 1628.84 50 69 84
397.76 -90.3677 1123.67 113 102 101
-207.912 52.2957 992.17 251 212 198
449.556 -93.9265 1083.67 217 201 179
-333.896 52.7482 999.812 87 36 29
508.753 20.0977 1332.29 247 228 229
489.778 -111.26 1270.24 176 159 155
512.179 -103.745 1218.17 203 196 183
-149.426 91.5899 1049.03 255 228 215
503.025 223.655 1329.68 40 85 101
586.357 -191.574 1262.12 164 150 140
524.851 116.773 1446.99 130 121 110
-142.334 185.792 1055.67 121 87 83
-9.15709 199.382 1131.02 253 250 240
-131.529 393.383 1140.25 95 73 64
569.777 257.636 1528.92 67 109 124
636.094 -254.411 1241.39 180 190 182
568.609 324.866 1474.57 87 121 133
568.805 345.353 1540.78 96 120 144
-105.671 -66.1335 1090.08 65 44 36
-64.2818 -1.55316 1020.27 254 228 194
463.461 -271.488 1358.31 210 181 169
484.612 209.047 1372.87 67 88 91
-190.685 -18.1219 955.131 45 28 19
-158.344 373.957 1103.94 172 184 155
563.375 19.1413 1275.98 222 195 185
499.214 -10.8547 1285.21 212 205 208
-87.8167 40.3141 1059.55 181 105 89
-172.628 179.251 1048.28 145 105 82
-24.2479 246.357 1181.13 169 131 105
444.543 -186.905 1094.11 152 152 145
-26.0079 114.801 1122.25 205 165 146
419.474 -62.2176 1200.12 139 116 109
595.396 -32.7522 1341.23 144 114 109
570.851 30.6685 1295.41 166 142 137
-212.48 18.6975 916.501 106 18 6
-135.462 216.558 1235.87 247 253 244
553.961 24.2401 1293.56 148 114 109
-90.4323 331.891 1286.25 247 245 242
-307.604 65.1541 1059.66 109 85 86
-205.515 524.535 1203.29 50 50 46
-141.824 170.685 971.447 170 157 144
-89.5297 277.036 1118.3 177 177 177
-117.133 385.844 1194.37 191 203 170
426.79 -93.6693 1165.72 179 181 182
-335.958 37.9139 998.493 220 193 172
601.792 -43.0086 1472.18 237 194 177
633.67 -188.672 1254.04 121 123 120
-233.467 39.7421 985.426 183 119 100
623.756 -257.473 1241.33 112 142 160
460.221 -64.3827 1275.02 226 205 198
-118.067 219.971 1129.72 189 173 158
450.535 -249.655 1304.94 110 69 63
535.98 45.2351 1299.99 250 227 207
652.915 -201.091 1360.28 101 105 97
-225.15 234.887 1031.52 191 114 96
-206.314 254.127 1080.21 142 104 93
-69.7163 87.9534 1066.12 248 226 223
-202.491 479.247 1115.9 151 150 147
576.329 238.354 1458.27 98 129 132
-76.1381 373.972 1203.28 200 207 170
-244.038 419.817 1131.58 76 54 46
-157.115 108.45 1037.76 146 107 95
-114.273 361.883 1116.86 133 140 108
-220.423 340.685 1084.53 203 199 191
-257.498 46.8919 958.534 138 131 123
-33.0105 228.207 1178.11 255 240 220
605.421 -134.246 1194.95 77 69 56
467.331 -68.1311 1318.97 250 229 220
483.702 -81.1948 1319.12 139 130 142
676.627 122.848 1498.84 211 207 182
-221.248 36.7474 915.158 232 183 162
-224.683 288.269 1078.46 225 189 171
575.013 98.2695 1413.53 229 222 198
-227.52 -29.3552 1024 90 73 56
-206.482 89.5504 1012.15 201 136 125
-229.073 403.387 1087.79 81 45 38
-279.051 159.488 997.471 110 69 34
326.244 -206.825 1196.67 111 106 94
537.425 -120.727 1271.31 210 177 158
-263.636 147.914 926.408 106 79 42
