43.5563 301.598 976.638 207 208 197
-385.611 100.998 1453.74 247 243 236
-503.253 22.1273 1252.34 222 210 196
32.4711 247.902 937.998 218 209 199
-23.8862 192.865 853.755 211 200 199
-21.3496 2.6611 1028.43 235 245 235
45.6064 483.242 970.339 52 60 53
-428.526 104.631 1361.21 251 246 240
-439.205 67.2406 1352.13 199 178 167
-431.301 97.7724 1359.23 63 46 43
-107.204 -1.12148 1074.26 248 239 245
-14.0657 -1.1425 1007.46 115 125 117
-428.116 110.614 1438.72 166 161 159
-492.242 445.209 1552.51 243 249 242
-547.208 9.57083 1444.22 219 202 190
-439.448 73.9553 1352.92 43 24 12
-421.624 225.338 1434.36 244 238 226
-515.735 26.5071 1315.46 173 160 142
-534.768 86.327 1390.2 228 227 222
-104.009 6.51068 1029.63 244 234 233
66.4894 249.053 964.847 221 181 178
-393.574 274.26 1449.6 58 30 27
38.4839 222.871 925.567 152 140 126
-419.18 244.629 1465.17 111 93 80
-268.141 278.658 1259.43 54 51 43
-384.666 280.44 1400.22 192 165 154
-118.149 0.215189 1095.01 255 245 251
-601.183 484.511 1718.94 82 89 86
-503.606 31.415 1253.26 179 161 147
-439.69 80.6781 1353.71 160 134 126
-373.437 113.116 1382.95 48 39 27
-32.2407 245.757 815.963 176 176 170
-51.0447 56.8381 885.157 253 251 253
-269.241 311.42 1325.96 255 248 237
-381.616 99.3137 1538.45 91 67 60
-87.8225 69.4745 879.087 33 64 59
-379.252 83.7654 1434.97 183 146 136
-538.594 223.266 1410.15 129 109 91
-454.12 -9.34605 1336.12 192 169 155
234.594 356.547 1113.96 54 29 19
-141.517 36.3826 1047.6 193 181 181
-399.453 122.353 1451.7 193 178 166
-502.469 182.655 1342.12 41 29 8
-422.774 15.4963 1506.96 185 223 215
-533.876 76.8432 1373.74 177 174 172
-0.379957 414.025 960.227 249 255 248
-53.8242 135.13 829.472 174 167 159
-138.513 35.8259 1069.08 36 15 12
-455.834 291.154 1538.84 219 200 187
-145.008 47.9021 967.796 223 194 175
-455.089 295.928 1638.6 144 119 98
-268.937 215.885 1164.5 115 111 114
-134.987 47.5999 986.009 51 51 42
-511.949 152.553 1271.03 248 239 215
-380.322 202.475 1331.13 161 142 136
-395.868 378.279 1423.57 97 93 85
-475.404 129.507 1163.23 236 229 200
-367.06 84.2845 1541.38 109 103 91
-121.118 18.3417 1051.07 241 224 221
-174.177 43.8504 1040.55 92 95 91
-402.437 243.919 1389.13 247 227 217
-338.185 96.7713 1393.4 199 186 177
-391.129 81.7764 1372.35 231 225 213
-515.719 366.92 1529.91 243 237 226
-520.638 124.539 1257.17 255 252 212
-80.1984 134.394 824.953 254 252 236
-233.105 290.195 1156.98 65 67 66
125.459 322.003 1014.16 147 140 134
-123.703 26.12 1050.95 130 120 98
-15.634 193.576 843.141 86 74 74
170.17 222.595 1072.52 140 146 134
37.6443 281.5 961.659 169 142 124
-112.058 329.892 989.255 127 122 115
-251.72 240.1 1149.73 255 242 245
-101.56 19.2384 1031.04 252 201 189
-460.99 243.899 1306.63 215 195 167
-491.226 -4.27833 1305.82 124 104 81
-241.975 329.529 1251.85 188 189 188
-32.2834 256.124 843.317 143 144 142
-491.294 345.776 1536.66 222 224 227
152.103 114.079 982.964 130 96 84
-9.49747 356.795 979.045 169 167 154
112.612 216.879 970.223 40 28 24
-180.258 306.782 1075.12 244 235 231
-153.015 39.8078 1004.02 255 242 252
-377.041 356.999 1337.38 187 188 181
-366.547 -12.9914 1368.89 63 62 54
-203.096 294.32 1068.49 227 228 228
-15.2925 132.219 863.846 35 46 40
-405.726 35.4907 1567.77 132 139 124
-397.234 46.2791 1606.88 90 90 82
-137.875 310.631 1002 255 248 241
-145.856 309.727 1040.46 253 240 235
-529.518 378.651 1664.1 95 86 94
106.871 309.088 1025.35 151 159 154
-86.4282 177.751 842.144 252 255 251
-376.599 29.1049 1446.14 68 66 47
-586.648 201.343 1548.83 176 163 117
-572.702 106.321 1360.58 232 226 211
74.5454 28.9334 902.189 155 131 112
148.14 164.19 1022.67 149 129 117
-155.421 54.0141 1089.91 195 187 182
-69.0746 26.7751 982.1 154 140 130
-100.22 38.6853 976.605 136 121 111
68.8571 239.486 964.729 173 161 147
-158.626 201.015 919.792 254 253 238
-511.361 294.02 1432.61 223 217 202
-507.197 226.378 1346.06 174 158 132
-452.509 180.341 1167.31 230 217 191
-525.452 111.823 1253.67 255 248 228
114.966 544.878 1104.75 127 162 159
-65.6514 170.758 818.679 139 137 124
49.4512 219.544 907.12 205 201 191
-12.174 327.505 908.14 13 12 8
-372.84 14.8253 1445.35 65 67 63
42.9162 230.999 882.503 51 42 44
-578.27 34.2015 1362.01 137 130 106
-180.765 51.5529 1015.62 232 220 199
-83.7301 198.615 883.91 242 247 234
-114.447 38.5761 973.735 143 115 90
47.1612 235.062 906.574 49 51 49
135.018 152.591 908.986 61 61 46
-5.17257 401.607 958.94 234 241 226
-486.136 286.322 1362.49 191 166 159
40.262 220.541 850.741 145 147 142
139.629 195.196 987.805 165 145 133
-47.9859 167.026 845.648 158 158 153
-590.132 87.4121 1435.42 105 91 69
-138.757 215.816 924.791 255 248 226
-39.2778 160.247 811.594 54 45 50
-112.983 44.7445 904.92 97 102 104
-23.9402 122.869 850.899 39 39 35
-47.5013 159.154 821.392 39 42 39
-636.381 350.764 1658.62 161 161 154
-149.795 198.767 904.489 255 250 235
-537.477 83.4322 1245.27 253 239 209
-642.143 217.09 1525.18 145 145 137
-8.19846 26.7219 939.666 54 114 107
188.587 318.045 1104.69 109 73 58
-40.9517 158.406 787.493 62 59 57
106.899 525.426 1084.42 113 159 165
-561.233 568.475 1755.2 167 169 165
-90.445 16.0801 994.5 147 101 81
-39.6374 171.477 846.993 125 123 117
-568.569 260.285 1524.62 245 237 212
-175.226 42.3377 1067.25 206 200 200
51.0627 218.624 912.679 81 62 48
-47.2249 227.512 861.111 157 151 138
152.699 180.107 1026.89 59 55 54
128.9 521.794 1088 161 174 193
-591.622 508.617 1728.69 121 126 116
-47.1994 24.8556 913.828 243 218 201
-166.691 304.167 1052.38 255 230 219
-531.96 26.4401 1171.51 138 127 106
-76.308 36.4377 981.185 172 119 92
-535.113 89.6995 1247.01 194 161 125
-26.5674 359.214 953.457 244 253 249
47.0769 -21.3434 963.086 84 88 80
-391.428 46.0358 1367.11 121 102 91
126.054 513.239 1086.99 154 179 203
-74.0881 197.166 845.114 250 250 243
-33.3076 124.838 822.482 56 66 58
175.582 231.34 1101.38 124 136 133
148.454 162.794 969.505 146 132 126
-143.8 358.489 1021.94 255 255 238
-113.515 31.3775 1053.45 152 84 64
-144.57 296.619 1017.56 255 248 239
-124.013 400.785 1188.07 183 177 173
-21.016 346.719 920.36 244 254 249
174.653 304.15 1047.51 137 98 79
-138.836 353.727 1022.77 169 164 148
-185.486 214.549 1065.41 221 224 200
-43.6506 54.6524 903.154 149 148 160
-116.846 48.1853 973.682 186 174 173
-74.8554 32.6309 880.139 248 225 217
-84.2892 20.2325 1017.45 136 111 110
-14.4497 303.806 848.439 153 153 143
-406.842 57.3686 1438.91 178 149 136
-49.669 -9.52243 1124.75 187 173 153
