54.9118 -5.45496 1128.49 252 229 226
-56.6072 105.807 1069.87 220 201 187
323.73 376.95 1880.8 16 40 47
-73.0631 63.1701 1084.47 218 203 186
54.1654 -17.2283 1176.32 223 204 205
362.42 208.348 1752.72 54 47 40
10.798 290.183 1140.53 87 86 80
313.956 -20.067 1665.98 210 191 170
376.075 -107.928 1794.6 255 253 232
27.1763 414.15 1129.11 24 10 6
374.139 404.174 2093.55 203 235 250
-70.8198 96.882 1134.77 156 150 145
-3.52213 71.9789 1078.13 255 243 216
95.3501 1.90684 1335.72 121 82 58
28.1983 394.521 1149.08 250 239 213
-11.974 184.176 1129.72 79 63 65
56.6791 438.961 1208.92 107 94 74
339.194 4.71711 1706.01 255 252 249
-127.366 240.36 1157.72 43 3 0
116.061 462.241 1327.07 29 28 26
2.63319 181.477 1104.76 101 61 56
-2.64904 88.8563 1013.2 189 95 81
107.55 -30.8963 1197.63 251 240 223
-8.47604 48.5952 1033.5 255 246 229
-3.58133 83.3958 978.587 246 183 160
31.0577 390.957 1176.84 61 52 44
380.692 -6.13468 1814.76 152 135 126
56.5069 396.453 1206.82 238 233 228
-1.36178 126.858 1059.05 113 66 49
-11.2272 42.0677 1095.8 121 105 88
2.10581 198.656 1086.92 110 84 70
22.3973 368.217 1146.76 248 244 236
21.3859 368.178 1125.03 167 167 155
394.503 335.131 2130.82 88 110 114
334.267 -69.3748 1664.72 211 197 188
-115.729 54.548 1099.16 189 155 144
42.4625 7.26008 1152.47 255 248 233
84.5738 -44.2723 1288.94 84 75 56
320.995 430.352 1891 127 136 132
52.9335 275.463 1199.11 250 225 220
36.9881 400.33 1178.71 108 88 66
-52.9279 358.609 1156.63 36 23 17
25.3948 155.388 1123.45 117 79 70
51.6519 380.387 1180.14 105 93 96
-69.4523 82.1316 962.373 161 163 155
-23.8704 174.807 1018.31 241 217 198
-154.162 85.2392 1167.17 71 34 24
72.0792 342.575 1232.94 248 248 225
-168.583 -26.2526 1273.18 49 49 42
56.3487 360.095 1204.86 162 135 128
100.187 -47.0244 1159.13 188 163 145
412.169 36.6667 1942.93 254 248 241
-24.7286 136.917 1097.6 126 72 65
2.09512 195.959 1133.28 193 178 158
-20.1618 200.35 1150.27 191 169 149
-5.75925 61.1054 1097.79 249 161 142
322.737 282.419 1966.18 85 111 110
-48.2009 264.508 1126.98 187 170 165
-3.50882 209.898 1133.03 219 182 164
348.111 8.93171 1708.13 127 111 105
38.6193 464.914 1206.49 67 41 33
-49.0479 109.272 1091.51 168 158 151
360.453 -82.6368 1774.19 140 127 123
92.2451 157.884 1252.75 253 243 217
23.4329 483.393 1234.55 185 165 144
58.1371 307.678 1169.74 138 130 128
-241.845 44.1322 1142.45 74 59 51
445.921 67.6646 2161.6 65 38 22
324.164 15.2434 1704.92 21 5 8
-127.544 269.98 1213.71 99 32 11
70.2638 326.039 1287.71 154 140 132
29.0406 292.349 1195.45 145 141 121
13.498 236.117 1137.99 253 244 236
93.2268 216.382 1278.59 149 138 128
20.3062 348.575 1312.43 85 74 75
131.087 16.3223 1304.01 91 81 49
34.0255 289.605 1127.43 255 251 253
304.735 -43.2865 1692.17 143 114 107
89.4077 475.423 1304.8 184 186 186
240.963 8.46313 1328.5 126 105 105
19.1728 187.497 1108.15 245 233 210
65.3948 393.726 1265.08 206 199 187
42.6723 403.874 1224.77 235 230 220
26.3251 376.352 1199.75 159 153 156
-14.4651 194.818 1151.2 215 186 172
-3.62474 147.815 1129.02 166 142 128
99.508 203.703 1278.21 144 125 118
39.4055 296.483 1171.04 161 153 149
26.7228 297.653 1121.11 183 175 173
456.207 -255.334 1976.19 194 211 208
24.8221 225.174 1139.54 242 229 203
51.3303 -39.4838 1344.92 138 168 173
422.811 -79.9714 2045.79 187 175 171
101.934 185.994 1286.67 165 148 130
153.373 284.436 1301.05 76 72 69
70.3146 338.908 1288.27 136 128 117
409.475 31.8624 1812.84 165 159 154
259.814 236.866 1650.18 105 139 133
10.4126 455.629 1128.21 133 135 123
31.2182 449.554 1151.91 120 95 77
77.4649 -25.1618 1209.52 152 125 97
134.48 22.7934 1305.33 39 28 4
54.1413 438.675 1237.54 160 157 149
389.631 -15.1159 1814.59 252 245 232
26.7581 306.139 1121.74 165 163 162
60.9097 258.307 1168.51 218 196 190
286.923 -30.0293 1448.22 227 189 179
333.782 387.835 1781.98 128 146 143
25.4219 127.783 1045.39 176 153 145
369.031 49.8186 1812.52 155 140 134
14.1836 181.385 1156.34 186 145 138
217.758 339.421 1726.58 144 142 139
406.437 -233.688 1773.87 192 211 211
312.133 49.031 1707.96 64 47 39
315.328 260.723 1755.75 147 175 177
333.324 261.153 1758.73 196 232 250
-57.7973 114.724 1118.11 111 79 69
315.049 34.65 1541.77 113 102 99
10.8184 298.753 1141 195 183 176
82.5774 132.717 1248.7 177 122 112
-96.8691 414.437 1202.1 162 129 110
90.8224 143.572 1222.96 189 152 118
363.481 293.454 1975.28 87 119 131
44.9806 667.45 1407.08 123 151 136
35.7236 109.262 1133.88 255 244 236
340.319 -22.5928 1701.7 224 191 166
31.1263 414.903 1150.52 178 168 165
74.2872 586.915 1277.29 146 171 157
276.577 -201.275 1759.06 131 110 108
260.449 38.172 1459.13 139 116 106
266.266 -135.903 2219.11 27 14 2
28.7716 138.251 1108.41 156 114 106
6.02364 -14.7692 1220.88 176 181 183
-10.2432 -42.7233 1343.34 143 164 174
46.1538 123.167 1186.79 249 227 201
-44.6524 303.391 1180.61 128 114 102
367.318 259.69 1856.53 148 170 168
320.964 -29.2291 1603.82 160 109 85
444.167 342.627 2267.38 119 134 135
4.63419 120.359 1082.76 252 254 250
96.0002 223.954 1259.05 175 168 157
264.384 -23.6296 1790.23 51 35 19
-169.572 -12.9574 1213.26 81 61 54
138.84 112.705 1380.08 186 161 146
-3.6355 142.181 1128.64 202 118 103
378.561 -91.5298 1776.58 244 241 235
72.4615 118.374 1276.62 248 230 220
389.415 -39.0949 1785.22 251 234 211
-12.4768 96.1619 1024.27 255 197 173
-31.5341 107.996 1120.73 134 82 70
-34.0703 102.401 1049.4 93 43 35
50.0838 308.424 1200.63 186 173 159
23.982 466.11 1179.35 159 150 129
117.844 96.6286 1221.03 255 239 222
214.688 -149.956 1850.28 48 36 13
101.055 5.46014 1396.61 255 243 231
61.8026 110.931 1180.84 206 172 160
-76.8685 -44.5426 1400.28 130 152 152
-7.69396 142.663 1069.6 251 246 235
263.422 -54.3833 1784.48 59 34 23
26.0996 77.7083 1083.94 193 184 167
