376.048 157.206 977.243 8 12 10
-252.176 400.142 1312.5 213 216 214
205.112 -48.7745 928.918 246 237 239
-448.091 175.492 1267.76 71 36 15
-483.028 7.32705 1139.29 255 242 234
294.404 -56.7092 905.547 210 201 207
280.53 -86.018 934.641 255 252 247
-454.022 7.01055 1096.93 255 253 237
177.099 -141.283 1089.55 69 69 65
289.016 -38.0803 863.678 218 224 218
445.735 258.561 1025.33 244 251 239
194.202 -116.836 1074.67 255 253 243
96.2931 -38.2093 1023.97 236 231 228
201.504 -46.2689 946.952 237 233 232
-418.988 430.882 1351.4 39 38 37
-531.166 131.057 1190.17 73 58 49
264.29 165.323 1102.19 255 243 244
294.863 -86.1496 935.949 233 255 253
158.278 -128.283 1059.43 247 242 238
-443.027 137.773 1224.87 139 96 81
-451.439 149.616 1222.97 90 63 49
439.675 230.244 1023.31 242 249 250
195.093 0.423402 949.406 243 228 206
242.992 -65.1022 917.25 243 233 236
259.661 160.845 1055.62 224 203 199
-264.359 293.331 1200.21 174 164 162
-473.278 376.791 1349.16 240 237 238
-381.003 172.565 1224.67 103 83 62
238.992 61.6828 972.008 245 237 234
426.391 404.555 1159.67 65 77 74
-420.777 120.143 1171.71 137 101 73
426.355 87.2517 976.309 245 250 237
460.736 258.431 1066.21 176 180 172
350.548 418.761 1230.18 55 87 97
285.403 -81.47 935.355 228 244 239
-303.394 429.519 1391.82 75 68 57
168.189 -132.207 1115.15 71 69 63
116.954 27.3907 909.166 234 229 223
355.339 366.807 1149.26 107 135 142
-256.534 154.244 985.213 82 57 49
-485.932 290.125 1304.36 99 93 91
-425.6 26.2237 1108.26 52 20 14
-297.084 320.864 1359.59 249 255 247
-408.032 294.434 1163.48 216 211 189
-346.054 477.205 1266.25 79 83 77
-258.916 302.828 1202.77 248 233 219
-431.33 33.2456 1160.44 141 41 29
216.981 53.7677 980.135 254 248 244
187.886 166.815 1013.44 255 242 233
-491.781 353.741 1369.48 222 220 205
-346.371 75.3152 1169.23 113 80 53
-252.091 193.757 1361.47 188 161 145
-429.501 149.099 1206.83 224 208 190
174.536 -130.619 1090.2 39 41 46
-355.506 1.52739 1079.8 255 246 215
381.025 376.641 1153.41 97 122 135
-519.151 398.464 1445.4 86 85 83
281.793 -42.6593 847.045 84 82 78
406.255 482.409 1211.23 67 104 135
-288.247 27.079 1266.47 181 152 136
258.772 -87.7536 916.983 30 50 51
359.488 46.6304 934.977 243 253 244
-357.85 -3.80627 1078.74 116 88 58
-366.642 526.604 1383.16 111 113 111
425.406 199.712 1003.15 240 251 237
-390.401 184.322 1148.55 255 246 234
362.967 30.7717 849.951 130 144 117
370.411 16.6048 933.533 231 240 226
300.915 -46.0302 892.844 229 241 232
130.226 34.6352 1055.23 235 231 226
-393.969 201.022 1188 115 111 107
-422.417 68.6522 1203.38 197 152 147
-423.981 143.371 1172.63 108 72 69
-246.157 64.2716 1355.75 206 186 177
-234.402 92.7076 1355.52 133 129 133
231.267 66.7151 992.842 255 250 244
-331.178 97.7353 1144.35 228 212 193
-464.289 316.953 1302.2 197 203 184
227.172 -112.08 1079.13 220 229 207
257.992 19.2423 1009.13 219 204 189
390.319 130.622 976.742 224 236 218
211.917 16.2722 919.639 195 179 163
296.119 -54.7566 891.846 203 195 195
-389.56 187.387 1222.93 142 120 112
-329.452 63.4852 1091.67 255 248 219
-288.367 181.36 1130.06 240 229 205
87.1174 -33.8428 969.355 31 26 21
-519.458 348.694 1410.32 138 135 123
373.84 46.6724 936.04 220 232 221
215.386 10.7598 932.836 215 189 166
-408.528 149.942 1178.58 155 118 94
365.476 111.348 987.254 147 146 122
-281.215 389.417 1262.8 248 248 245
-400.047 166.551 1143.33 253 253 232
232.705 0.458089 920.757 71 50 36
300.788 -50.4094 892.515 48 71 60
-466.361 148.873 1294.15 249 229 215
189.428 -107.908 1051.77 174 146 162
161.274 156.151 1067.78 240 233 233
-277.454 238.545 1170.95 169 139 119
-575.249 55.183 1168.32 243 212 204
-280.155 68.0628 1273.05 40 19 10
161.657 -52.2423 976.583 156 163 146
-532.101 58.9734 1081.54 220 219 225
-416.752 500.727 1436.09 87 85 81
230.246 57.3009 940.444 140 115 94
-360.19 -9.12471 1077.69 241 223 202
-329.125 492.682 1274.1 203 212 206
358.822 443.834 1203.84 87 118 121
255.478 136.203 999.957 221 205 211
202.619 338.234 1154.08 66 61 54
-537.477 121.222 1194.67 157 136 136
-483.321 249.322 1261.29 125 83 85
178.474 16.7466 948.549 190 191 175
-306.559 202.864 1216.36 132 98 71
337.733 301.476 1113.47 243 238 217
-282.784 290.081 1262.79 175 140 116
-369.852 567.996 1463.32 123 138 131
-428.352 22.7724 1139.63 117 55 44
397.71 132 960.731 239 249 240
-299.57 264.816 1283.35 255 240 231
218.171 106.3 1019.62 255 252 236
-453.332 95.9239 1157.96 129 122 127
426.9 390.457 1139.48 79 102 115
-195.329 339.973 1470.46 23 21 10
150.049 49.5122 947.024 251 247 249
134.472 -56.7798 972.962 193 190 165
-434.094 348.719 1207.06 253 253 249
-357.817 391.977 1300.66 147 143 119
-350.757 9.54464 1081.75 223 201 165
289.387 -89.9797 1006.08 99 100 96
-413.091 120.244 1119.62 208 176 153
-503.369 306.62 1286.14 129 124 118
-227.597 178.483 1299.74 166 140 126
437.428 212.777 1061.43 237 249 234
-430.479 81.0535 1256.68 161 126 125
257.856 -2.84491 906.683 64 54 50
326.827 74.2032 934.256 255 253 225
-383.33 89.294 1181.86 255 249 235
215.12 165.253 996.754 245 240 236
242.721 183.569 1097.7 88 70 68
247.399 113.727 997.687 130 112 104
380.948 34.437 888.821 228 248 219
163.841 -71.3372 975.499 177 164 146
208.603 173.729 1055.04 225 190 180
191.332 1.6398 963.698 198 188 162
-380.626 74.6479 1158.46 255 244 234
232.787 61.3161 1090.74 253 252 243
-401.204 84.0923 1211.68 163 106 99
-233.686 253.096 1373.54 53 29 21
274.378 194.152 1025.86 151 132 120
301.675 -98.1557 952.136 167 186 184
298.21 203.649 1061.83 166 138 120
-405.546 216.663 1201.59 152 156 157
-477.893 143.708 1276.92 105 71 57
245.825 69.0458 926.339 237 214 191
-234.187 45.7332 1399.96 34 21 12
-348.474 218.657 1204.5 168 149 129
-323.68 117.928 1148.17 154 118 93
-494.094 242.237 1256.75 253 250 232
-454.147 194.162 1267.15 155 130 113
-262.291 68.3909 1278.55 161 153 147
265.626 131.384 1000.81 181 142 141
-227.86 70.1335 1404.18 10 11 8
-321.152 123.668 1149.38 255 231 200
-203.249 175.326 1374.18 46 18 9
-598.502 77.1203 1218.16 249 248 243
316.282 -167.335 1130.43 95 101 96
-451.693 332.683 1241.39 199 197 186
296.742 150.895 1024.46 243 227 213
-294.567 75.4276 1346.51 175 157 150
220.847 267.873 1127.18 237 240 211
202.986 332.952 1108.32 86 78 76
-231.947 53.1416 1328.23 28 4 0
130.504 92.5368 1092.3 255 254 248
-478.029 385.077 1304.76 93 93 78
370.643 60.3282 950.412 218 231 218
-163.93 265.918 1177.35 204 186 163
-252.434 214.244 1363.6 83 50 28
371.714 60.6411 920.509 237 255 237
279.776 233.112 1070.67 127 125 122
427.252 258.142 1023.77 215 233 220
-307.724 103.219 1070.19 237 201 179
-234.456 66.547 1401.84 168 162 159
207.587 -67.0049 962.172 146 148 142
223.42 -112.821 1036.62 116 84 72
-367.193 91.1039 1132.51 249 244 225
308.219 7.6058 953.722 178 177 166
-255.035 383.295 1310.25 211 188 167
115 -44.2613 987.75 155 127 110
-388.516 162.449 1250.92 183 167 147
-240.459 220.18 1299.92 187 157 139
-420.038 190.56 1178.19 244 244 231
-395.05 429.392 1301.66 130 138 131
293.881 272.241 1011.13 223 210 187
-255.124 389.917 1310.78 201 189 171
293.009 286.476 1092.81 229 211 190
270.802 133.939 1001.54 237 223 217
128.769 124.835 996.753 250 239 226
305.253 194.143 1088.97 212 177 175
195.915 84.2571 1027.44 238 226 205
254.912 76.3748 960.757 164 142 119
234.746 -69.6297 948.612 179 152 137
-305.41 132.207 1103.3 249 212 194
-241.585 72.7095 1326.98 62 46 37
-455.971 59.4629 1291.69 105 54 32
-446.565 124.966 1162.99 252 219 203
-364.806 95.72 1188.58 250 205 186
-471.97 240.114 1238.15 242 205 198
294.96 -61.5148 862.502 37 40 33
-338.224 -12.8782 1193.56 156 139 121
216.278 -106.636 1078.17 170 156 141
-533.141 290.822 1344.54 253 252 246
-485.74 293.04 1242.34 233 217 210
131.391 90.6828 1013.24 248 239 237
-290.478 202.753 1164.52 242 224 185
184.06 248.502 1103.03 214 208 195
245.011 182.758 1039.68 255 248 226
-303.945 55.2392 994.078 173 137 97
-330.883 -17.9542 1137.88 147 131 117
320.271 86.0128 950.92 255 255 215
292.873 -91.1068 964.453 24 41 42
264.046 -161.451 1072.76 144 141 135
336.296 48.4157 946.84 154 150 140
-438.695 308.618 1207.46 208 202 187
249.72 182.068 1014.79 162 133 126
238.669 203.464 1081.34 124 103 89
300.5 -94.5325 916.371 76 103 89
-249.961 242.485 1299.18 128 108 97
-457.41 97.3864 1193.31 169 152 159
258.006 -12.1415 936.367 196 191 189
-279.392 275.019 1230.57 211 192 175
227.972 -1.82163 920.139 201 190 171
414.133 169.865 981.12 242 255 236
-332.331 119.752 1032.38 175 97 76
186.837 128.268 1044.74 253 250 238
-448.266 572.254 1589.73 168 168 159
417.719 206.618 983.529 218 220 212
351.483 84.2933 970.407 186 189 154
-618.184 28.6811 1203.16 233 229 215
199.596 243.828 1037.66 212 209 188
-498.261 105.96 1142.12 255 221 205
-362.326 18.3918 1130.23 188 156 117
370.26 449.816 1184.73 117 150 151
351.257 25.5578 886.356 196 206 201
191.143 114.875 1028.77 244 221 204
-299.781 287.882 1148.96 147 124 107
-232.733 188.048 1179.93 137 111 101
169.891 146.791 1085.9 174 170 175
250.159 172.481 1039.72 88 67 64
-367.618 101.549 1188.15 195 147 117
-247.163 92.4166 1351.59 144 143 134
250.248 177.658 1040.04 191 166 158
-491.452 284.189 1237.12 176 161 156
271.704 198.799 1129.81 141 113 105
258.838 215.297 1150.87 200 184 174
309.797 281.53 1094.61 253 252 223
-494.196 284.67 1287.11 255 249 247
465.78 -208.76 1139.68 67 66 60
-343.349 291.278 1274.46 161 137 127
398.431 99.3208 921.505 224 244 221
-387.717 46.4661 1072.52 148 103 80
-320.71 -31.3953 1170.46 146 131 118
253.058 -9.55716 905.713 144 130 130
402.194 170.693 992.775 220 241 223
-234.417 227.021 1302.36 81 53 33
-390.765 68.6567 1177.57 255 245 221
379.79 -10.8226 900.918 211 212 198
231.481 56.842 970.931 137 115 92
194.651 -99.7588 1033.99 211 162 139
207.808 167.815 1075.05 215 201 197
152.114 71.5162 1060.94 232 229 228
-433.492 113.843 1166.68 249 235 218
-360.078 125.504 1192.7 255 245 219
-372.872 118.991 1132.8 225 191 168
309.726 100.725 967.778 251 242 217
-484.384 246.036 1179.13 164 148 146
363.551 325.032 1060.32 230 229 228
360.746 108.041 918.744 217 246 235
175.119 109.432 1099.65 228 203 186
281.02 76.0397 942.635 233 225 199
309.606 48.2954 944.333 208 205 179
425.069 425.027 1141.86 227 248 248
-527.631 170.082 1195.76 206 193 170
-394.378 184.011 1096.49 192 195 181
-306.48 345.456 1250.06 196 122 92
245.158 -0.607562 873.633 216 209 197
182.885 -105.26 1064.46 155 161 157
396.102 107.619 954.575 226 246 224
380.629 -28.7693 946.543 253 254 228
234.463 -126.411 1055.06 172 141 140
-305.379 77.1137 960.501 185 158 124
200.528 253.129 1123.39 97 98 82
-231.323 8.54351 1282.42 97 90 81
-487.087 14.939 1085.51 254 243 227
340.392 458.037 1202.02 128 148 148
-486.675 271.284 1261.94 160 159 153
363.83 19.7289 872.935 190 185 157
312.915 246.818 979.748 234 232 199
118.198 48.4047 992.385 239 232 225
-533.252 132.675 1141.59 251 250 251
244.488 2.75108 922.06 210 190 180
308.216 372.434 1193.85 140 146 154
353.333 -27.5528 868.875 175 177 162
135.486 38.6963 912.108 213 202 200
221.442 -64.5297 909.182 167 142 125
-369.317 92.1817 1081.33 234 194 176
232.736 150.749 998.128 230 199 189
-357.698 207.601 1263.08 148 117 110
242.96 221.584 1041.52 252 248 217
-240.86 13.7526 1322.36 119 108 101
158.144 -86.7232 1030.08 173 144 126
316.71 110.047 1019.94 164 165 143
-405.738 15.3654 1114.23 193 152 129
-326.647 341.656 1304.86 150 119 87
207.246 45.6477 1043.85 238 201 180
-320.91 344.65 1286.63 150 133 98
-485.652 214.056 1171.2 241 207 191
153.292 169.293 1067.38 242 241 240
372.412 -24.0618 899.422 229 228 215
-521.53 84.726 1140.56 255 250 248
294.205 109.004 1057.66 254 239 211
-463.957 307.085 1301.21 251 241 225
-443.886 302.695 1151.36 152 150 141
-439.094 371.862 1249.71 126 124 112
-438.635 189.268 1043.6 171 140 122
-400.753 53.9603 1310.6 192 139 97
130.731 46.501 979.058 179 175 180
-546.239 71.5866 1177.72 175 174 171
172.205 -58.3068 836.009 128 133 131
383.009 282.453 1020.92 245 242 223
-366.373 45.6763 1183.78 131 82 39
-329.922 90.2525 1028.5 185 141 127
273.205 185.054 1017.73 252 241 229
-346.327 314.752 1313.02 172 160 151
250.468 190.634 1040.8 250 239 226
-407.042 104.934 1211.22 128 67 54
-615.331 19.7907 1203.4 228 220 201
-325.737 43.2504 1196.7 153 138 127
239.313 -136.069 1124.2 195 175 162
161.822 149.293 908.159 254 252 250
368.658 85.0953 1036.88 157 154 130
-555.681 93.7556 1219.87 193 144 136
-246.31 -18.9579 1215.18 91 120 115
346.779 -143.209 1023.41 53 105 103
-449.896 346.969 1201.12 152 152 146
196.219 85.9912 989.922 213 200 173
329.123 262.397 1026 248 247 218
-526.317 69.1493 1185.64 255 246 239
-543.936 109.389 1134.13 224 222 218
195.191 175.5 959.168 207 182 181
-557.435 69.5399 1216.98 238 237 231
174.12 127.453 989.49 222 216 219
-519.581 93.9263 1132.8 192 165 149
-528.495 221.071 1242.02 159 139 121
224.622 -107.461 1114.68 53 46 44
-219.842 195.213 1371.46 59 24 10
207.031 132.95 994.002 216 204 204
245.998 147.509 1053.39 160 125 112
383.119 279.724 1043.58 246 242 225
