312.62 -35.8319 894.41 245 250 252
413.279 231.366 984.731 246 249 241
-259.953 375.545 1156.21 237 237 228
270.105 -9.79974 923.599 248 242 241
415.968 246.709 987.935 249 254 250
345.219 101.381 922.643 30 31 27
202.51 180.762 1075.31 235 224 216
-441.174 153.19 1077.55 247 229 221
244.864 63.7262 959.002 250 234 229
420.581 207.329 1003.7 216 217 211
307.868 -42.4329 893.56 10 7 7
-295.234 308.143 1192.8 255 251 246
173.119 -137.239 1134.49 71 68 69
244.867 19.9705 923.273 244 236 224
411.837 216.608 984.225 247 253 249
-545.529 361.248 1321.42 66 48 35
-453.417 341.665 1124.36 255 255 247
368.44 154.495 976.616 73 73 71
-504.072 369.983 1226.76 69 74 73
-313.829 182.985 1104.53 80 50 34
-359.169 139.225 1194.95 243 235 215
252.579 160.163 1020.83 192 175 171
-395.364 152.613 1013.11 246 225 205
304.489 9.79243 911.364 192 191 183
-431.632 171.361 1117.62 134 106 89
321.222 -94.4728 953.78 178 200 194
-326.485 98.4913 1047.94 218 204 195
295.978 250.198 1136.51 59 56 53
-332.984 124.668 1094.86 87 72 52
-406.764 506.872 1250.4 71 73 71
-449.099 430.352 1252.47 44 40 40
-575.502 60.434 1054.7 245 241 222
337.213 20.4215 931.41 176 179 168
275.006 -10.0668 956.827 241 229 224
328.377 417.883 1227.61 62 107 110
193.309 -87.2301 977.525 213 206 202
-410.755 26.698 975.618 115 86 75
131.23 94.4255 982.013 110 97 96
408.713 334.695 1108.31 249 254 241
159.72 53.4279 948.559 247 243 234
-439.703 198.855 1117.1 254 242 226
-461.196 12.6592 1000.56 231 218 217
-405.045 188.894 1076.91 248 238 216
97.3663 -32.4568 930.136 58 62 59
407.676 186.612 980.424 222 229 224
403.325 167.172 1055.53 77 88 78
-436.524 133.436 1090.06 117 81 57
298.679 -82.22 920.456 183 203 199
-416.842 124.287 1037.21 252 223 202
185.755 -124.1 1092.02 242 240 230
145.9 70.1422 982.608 243 245 249
-324.975 67.0511 1003.15 253 251 229
250.595 70.6453 927.045 255 238 218
364.26 46.1012 935.36 230 242 233
409.145 131.314 992.095 237 249 234
-450.394 12.7007 1004.22 255 244 233
179.885 -100.177 1011.82 231 217 215
-395.879 515.117 1255.42 72 78 73
-451.413 319.156 1090.42 235 232 226
-298.787 106.937 962.525 253 241 223
302.323 -78.014 953.736 208 233 227
224.235 172.392 1018.59 68 61 59
432.015 200.985 1034.88 214 227 217
244.771 58.9641 958.684 145 132 119
-380.82 182.154 1084.14 100 87 64
298.116 -82.6002 965.573 203 208 201
-361.253 304.724 1208.1 89 73 61
-334.994 161.974 1148.31 236 222 196
244.677 54.1071 958.365 254 243 225
-455.249 161.224 1163.39 233 218 191
218.604 192.116 1037.1 212 185 181
-494.88 310.708 1180.3 255 241 228
386.926 235.331 952.445 203 214 206
236.814 118.895 885.155 67 50 44
227.372 141.388 946.92 255 236 231
126.308 99.2403 981.593 255 252 242
-277.562 306.988 1145.08 197 175 164
-220.44 319.974 1273.83 29 28 17
-412.756 208.913 1127.04 128 118 109
-246.986 243.937 964.647 157 120 110
136.521 126.364 984.489 104 78 73
277.951 -82.64 951.365 61 70 67
96.9168 -30.3193 935.487 179 187 181
320.512 -97.8173 988.334 152 157 166
-450.292 317.547 1142.19 242 239 219
338.937 6.07378 870.328 233 253 249
-328.356 146.605 1097.76 235 226 199
421.936 242.021 1035.2 210 227 213
412.183 136.459 1030.6 225 235 232
-517.226 120.138 1033.15 114 105 92
-355.552 98.6246 1135.92 119 84 68
-307.748 143.984 1040.74 88 60 38
157.086 -85.1894 1010.31 62 52 47
120.196 31.5184 839.534 255 253 251
320.27 473.976 1230.95 69 95 103
232.32 185.31 1020.6 232 216 204
200.426 -93.8895 1054.14 239 219 189
-517.54 130.411 1033.83 109 95 85
161.6 -139.782 1132.77 220 202 182
-408.87 35.516 1019.12 155 71 41
-399.179 71.6417 1048.77 241 207 194
-373.832 115.12 1034.83 140 98 75
-458.099 67.7894 1050.54 121 92 96
329.582 446.016 1201.11 96 121 125
258.029 135.902 1000.39 221 205 209
207.276 163.579 960.365 140 120 123
206.306 54.1117 937.853 251 244 229
-489.917 120.463 975.188 228 213 200
-350.228 100.499 1041.06 225 183 150
396.715 129.152 994.563 221 231 222
252.494 113.415 998.373 141 117 102
241.429 178.75 985.028 137 101 90
154.795 44.0384 947.385 251 245 238
362.42 17.503 901.941 243 249 235
-572.426 94.5609 1058.86 254 252 253
-340.614 -10.2471 1083.62 177 158 146
189.984 -40.9022 913.664 205 194 171
156.058 -128.636 1133.12 216 213 203
-492.353 327.396 1127.99 126 115 97
210.661 191.961 1036.05 189 168 164
-387.73 59.1052 1182.02 235 188 142
231.077 56.0704 992.207 206 202 176
-433.738 163.205 1147.13 171 134 108
331.602 73.7733 934.734 255 254 229
358.643 376.017 1150.91 108 141 151
125.969 34.4944 943.136 219 206 207
-485.66 332.918 1186.63 216 199 178
-280.936 235.156 1057.77 178 130 106
254.166 166.105 934.818 228 194 186
298.659 -0.506434 926.751 61 63 54
394.926 124.633 959.984 210 229 202
244.114 -108.08 1017.96 120 93 78
327.635 -57.5457 924.586 204 215 194
-330.6 286.241 1187.14 156 130 116
352.653 5.10938 884.52 218 229 225
-343.037 2.5464 978.284 89 60 30
236.074 163.913 983.271 59 35 29
212.557 237.171 1060.99 216 201 187
-274.32 73.3866 1275.54 194 180 153
-474.524 306.321 1132.15 177 164 147
-644.214 68.8513 1196.14 255 252 236
359.119 39.4747 917.77 239 241 225
-387.586 519.684 1258.96 128 129 125
-304.89 262.132 1165.03 255 241 228
-479.397 368.467 1174.16 218 216 210
231.274 65.9796 974.611 223 206 182
-490.339 476.529 1385.98 56 52 54
219.321 108.075 994.179 230 197 181
-420.04 157.878 1038.94 201 179 164
-360.369 5.36812 1032.51 209 197 156
-364.864 226.281 1143.93 136 112 93
-450.581 12.096 962.153 45 49 37
-262.415 360.705 1154.21 223 219 198
414.817 343.425 1109.82 79 104 101
-344.661 14.9311 994.901 254 250 203
-385.278 424.554 1295.88 105 98 73
-273.282 249.88 1230.67 154 142 130
274.367 193.933 1026.08 112 86 76
262.94 -49.1971 1107.94 155 154 153
236.691 20.7743 955.286 180 164 142
-310.664 130.755 1027.9 232 217 206
-491.872 324.498 1226.48 216 226 201
130.05 -48.1665 876.44 192 189 157
350.447 50.1058 967.914 151 146 131
355.753 24.854 886.598 242 249 231
-447.007 466.51 1279.2 84 86 81
121.209 84.5328 980.055 255 248 251
-347.748 92.809 1041.34 244 220 197
-387.779 53.6588 1005.78 169 117 110
125.83 50.4349 978.713 250 242 242
-309.148 39.3022 1201.66 167 138 123
-363.857 298.383 1206.74 227 204 190
-512.122 249.407 1165.62 210 183 170
-355.244 264.304 1149.91 138 115 103
-255.951 247.823 1235.61 50 30 22
-295.483 56.498 898.925 145 111 73
396.799 216.372 983.286 179 197 186
264.335 -57.6055 889.026 151 163 173
-291.107 71.8548 1154.65 41 17 6
162.744 142.027 1026.71 204 197 204
-463.151 245.914 1031.83 250 246 250
159.717 -80.2301 1011.01 172 143 130
-272.059 -5.14824 1208.99 23 27 22
334.245 -68.9396 956.931 50 66 70
353.677 455.544 1115.61 111 142 150
373.118 39.5154 918.592 209 230 198
-532.207 74.6228 1196.3 134 104 95
200.284 97.8502 922.958 188 166 136
-480.664 277.028 1126.53 103 93 91
-287.537 78.5399 1211.7 155 139 123
432.566 87.042 992.26 227 230 217
-451.1 150.984 1140.5 145 112 94
374.045 60.1638 920.686 227 244 224
-497.748 377.108 1187.63 233 231 225
285.92 145.037 986.956 228 200 179
-560.432 235.626 1190.2 139 108 93
188.284 239.151 1057.84 84 86 65
-349.849 233.215 1097.24 242 231 230
-339.329 331.431 1181.29 203 184 171
257.34 -151.419 1097.23 151 153 138
-378.844 201.246 1012.37 146 142 142
-456.987 17.6547 1002.27 135 119 102
182.165 108.29 954.419 253 210 191
145.034 137.806 1081.9 220 200 191
231.444 -61.5724 916.343 115 98 92
135.95 70.0404 981.259 245 234 239
-609.184 36.4604 1073.78 229 222 204
218.806 -121.085 1077.34 221 190 167
-505.666 246.369 1113.49 177 180 180
283.744 86.8773 916.606 247 231 212
308.618 99.7029 951.334 232 227 201
199.059 132.498 1071.73 253 247 230
-479.691 13.9822 1006.06 70 63 49
423.193 69.8367 974.83 228 228 218
385.88 479.619 1222.2 85 129 137
-515.634 259.551 1111.17 173 154 152
-352.75 270.311 1151.13 203 187 176
-268.252 67.1468 1276.77 55 32 16
290.892 -56.5253 821.828 85 87 87
207.365 258.69 1079.01 225 231 202
382.267 62.5794 891.672 241 253 227
-285.847 213.637 1399.27 179 151 135
190.568 18.3927 950.08 174 168 149
-306.423 362.663 1286.27 238 203 164
359.384 5.08023 884.879 220 227 213
-426.303 123.359 1018.8 201 179 161
-579.855 143.431 1113.6 249 253 254
229.292 197.609 1038.78 129 108 80
-382.559 558.058 1327.9 107 146 131
-352.407 83.9105 996.14 242 210 199
123.476 -87.9007 1045.07 88 78 75
-267.997 94.0685 1218.91 149 140 126
255.831 4.124 956.053 107 92 86
372.489 -22.5925 899.507 247 254 233
230.597 -114.564 1055.08 220 184 168
-546.988 321.059 1316.79 85 73 76
-386.065 549.204 1310.67 205 235 222
362.339 60.1036 919.971 216 236 231
-489.11 247.829 1120 174 162 146
-383.594 80.2331 1076.15 240 223 210
-518.696 269.545 1210.44 161 147 144
401.026 169.233 998.782 220 245 223
203.143 46.2113 988.295 220 183 158
176.601 -48.5329 978.545 138 146 132
166.731 158.484 1068.9 182 177 182
271.619 -143.384 1056.94 50 48 40
449.828 219.925 1020.85 106 102 82
-271.77 214.609 1246.32 89 54 43
-263.306 221.853 1202.7 170 137 118
-261.662 5.03807 1171.47 71 67 51
359.23 53.6564 889.506 237 248 236
-360.366 144.008 1040.69 120 77 62
379.841 155.662 913.163 214 237 212
215.011 217.252 967.32 151 146 133
249.086 11.6696 907.266 181 176 181
-408.731 27.961 1018.74 164 102 82
258.701 6.22017 923.676 173 156 146
-254.452 183.295 1202.93 197 165 148
-592.943 76.7724 1083.29 235 220 207
197.617 -112.723 1012.77 228 170 147
-345.589 348.898 1216.77 153 134 116
344.434 355.438 1104.91 81 122 134
269.42 -74.9905 900.933 112 108 103
167.877 -51.5395 942.853 128 128 118
258.885 75.9172 978.247 238 219 195
259.448 -61.7408 918.849 156 171 162
138.384 65.1268 981.306 254 250 253
263.356 131.039 965.071 204 152 134
429.357 514.507 1302.38 220 241 250
476.371 467.507 1217.76 99 120 125
137.594 53.1124 962.86 235 232 233
-268.86 102.073 1280.09 146 149 141
216.463 11.2589 875.23 197 168 157
378.755 376.55 1090.58 115 141 134
223.738 169.66 929.358 247 234 223
-410.22 30.7698 989.884 110 83 71
-357.676 255.559 1148.45 181 155 150
-372.651 381.967 1175.66 187 191 181
180.246 241.535 1056.9 201 206 197
-347.042 49.1026 1038.97 206 161 113
292.942 385.184 1220.12 120 150 152
-261.771 78.8773 1194.52 40 32 24
-597.846 205.922 1213.72 233 215 175
-530.21 87.638 1055.17 254 254 241
-480.241 388.535 1195.6 79 75 65
413.751 413.196 1077.11 99 122 121
-360.157 249.636 1147.21 117 81 86
236.359 -108.003 1017.2 166 119 104
155.68 211.649 1051.14 79 70 58
-331.08 48.9066 1117.81 160 148 136
-252.713 241.305 1540.9 73 51 37
-454.364 287.692 1119.51 224 213 195
-448.635 383.166 1206.52 188 204 171
278.669 73.0656 915.03 202 188 162
-527.772 219.235 1101.64 141 123 104
-367.143 130.74 1037.84 195 163 136
-334.525 128.984 959.147 188 149 132
216.125 19.2008 889.674 69 49 26
-387.485 393.865 1092.26 120 123 115
279.101 -141.052 1029.55 93 105 102
130.051 48.35 919.553 160 155 156
300.857 -153.553 1154.36 192 167 156
-353.98 72.3654 943.391 145 110 92
296.237 207.293 1068.48 183 151 133
316.505 436.552 1152.76 128 148 159
230.454 -63.3229 908.798 9 15 5
-311.006 -21.1673 1024.34 123 98 75
-345.288 133.395 1067.92 204 150 124
-349.993 122.687 1066.01 245 224 209
294.108 -66.413 874.321 197 227 224
332.158 -130.658 1007.18 28 69 70
-482.351 275.707 1083.96 248 219 210
308.452 118.307 999.36 255 251 246
196.386 82.3445 954.688 201 180 156
158.503 222.296 1052.35 72 63 54
238.428 199.34 1054.44 236 215 181
-620.679 79.8791 1230.06 245 241 240
-501.654 110.519 1038.11 244 231 220
-312.025 85.0395 1240.51 140 130 120
-413.214 27.93 1017.3 84 43 30
162.817 -111.479 1048.19 145 140 143
-510.892 72.999 998.777 177 172 168
-504.667 61.6109 1033.49 251 230 218
200.039 4.03117 917.637 181 169 148
296.82 172.497 990.323 167 154 135
-458.278 210.873 1167.83 187 170 158
-490.144 273.27 1122.54 238 223 221
342.766 449.043 1181.63 137 165 164
-566.599 113.26 1062.84 225 220 209
182.405 127.303 955.458 250 254 255
-252.39 84.909 1138.85 40 34 19
-354.71 227.388 1095.37 207 185 177
-340.207 358.548 1219.27 168 117 80
191.932 108.433 1009.37 217 194 161
329.052 260.303 1037.14 239 240 197
-500.684 75.2909 1064.87 255 248 230
213.051 -103.707 1035.86 108 44 23
280.034 47.8512 909.183 183 163 149
319.39 162.173 1066.56 255 246 228
227.239 266.666 1107.06 187 192 155
295.234 116.873 967.55 203 193 190
-540.451 322.045 1223.26 168 125 117
177.019 241.903 1047.22 100 106 108
175.939 316.169 1061.42 124 118 109
158.617 230.198 1052.97 88 78 64
161.23 99.7303 986.388 218 173 158
-373.119 61.7695 1056.15 193 180 142
-447.422 93.8534 916.152 195 129 103
-436.186 332.156 1204.86 230 236 209
-283.248 -8.14209 1205.41 107 128 124
-249.19 199.46 1267.07 120 80 56
-246.515 188.24 1094.99 160 129 118
-256.364 96.7792 1197.15 136 133 121
-286.557 21.599 1207.02 127 104 87
-267.42 57.8324 1215.9 116 91 73
-470.201 254.175 1077.1 175 162 161
258.273 -140.63 1055.96 92 83 65
229.159 213.928 1013.1 139 110 66
203.06 138.738 977.531 233 217 215
379.623 110.04 957.586 216 231 229
301.643 375.273 1171.01 129 157 154
321.52 -123.969 1023.26 123 135 126
178.056 128.597 973.726 251 249 244
219.44 210.306 984.775 211 190 150
-371.231 95.7856 1058.42 236 213 204
-344.86 -23.7286 1163.62 122 99 84
-491.897 68.5533 1005.67 254 244 243
-355.493 0.407207 1079.76 121 103 82
298.094 274.989 1074.4 244 242 214
-283.465 207.084 1041.32 249 225 198
199.734 96.8476 968.766 130 118 75
-239.932 183.45 1296.84 75 49 35
149.537 -113.819 1046.36 88 86 88
388.014 24.3809 904.148 207 210 178
