299.814 327.367 1765.62 52 87 86
322.665 61.4554 1816.45 58 57 47
-71.5729 395.297 1083.62 192 194 194
-3.49327 48.7597 1198.91 140 104 87
1.58809 50.6534 1283.05 98 3 0
-66.2895 409.547 1085.96 255 244 220
-40.2725 429.714 1185.56 241 232 232
168.876 258.054 1826.74 252 253 238
-48.4359 42.0176 1138.49 74 29 15
76.3648 192.849 1458.54 77 70 49
-7.20653 41.6474 1093.19 141 97 90
273.678 88.0462 1544.77 121 107 109
-112.06 110.884 1035.62 251 204 184
34.618 449.778 1216.1 95 89 91
279.94 -19.2231 1607.07 182 165 166
293.274 47.1119 1708.72 250 236 232
248.146 26.887 1530.63 251 212 199
293.046 395.209 1776.25 184 208 213
272.105 -46.1531 1508.48 244 233 220
300.889 93.1046 1631.65 240 227 227
-28.5883 476.126 1159.81 86 90 88
-110.135 347.061 1223.44 208 195 185
-56.6417 492.961 1136.01 172 169 167
-3.03609 203.807 1215.8 135 107 88
-105.692 224.792 1112.29 84 56 40
-88.7246 299.828 1031.14 94 75 72
-60.8387 427.419 1133.1 127 103 77
-41.2581 379.905 1133.09 146 122 107
-39.3335 353.279 1066.06 255 239 230
-6.39618 447.764 1124.74 242 243 251
-5.47005 239.699 1171.83 122 97 87
-41.4727 430.299 1155.92 62 59 44
275.48 223.619 1497.16 46 44 32
223.586 320.098 1737.11 43 66 62
-36.6773 427.817 1068.29 107 91 83
-22.5012 379.597 1216.81 248 247 233
-40.7437 420.458 1244.21 138 108 101
-181.665 525.307 1265.86 218 215 204
261.86 64.1211 1439.33 191 167 159
-95.7555 150.008 982.941 221 176 171
-60.2983 431.214 1063.45 190 182 165
-56.1404 406.945 1111.76 253 247 235
-3.81295 189.347 1182.04 255 240 215
300.244 76.8885 1628.51 252 245 242
-71.6008 314.731 1120.01 149 144 137
-34.4163 445.427 1188.45 199 192 178
277.896 98.1581 1717.13 216 213 207
-9.71669 165.611 1179.1 150 116 89
-43.2186 465.989 1188.47 111 105 107
252.037 0.61999 1606.62 210 189 171
-97.4165 230.872 1047.32 101 73 68
-74.4662 121.753 1086.73 131 111 105
-18.3996 475.629 1172.67 142 146 151
-112.033 105.736 1035.26 170 78 58
-9.15768 192.264 1130.97 148 110 95
-18.1461 172.756 1208.43 114 79 50
311.982 -155.738 1487.29 216 242 242
-0.62187 43.9995 1193.67 156 68 39
-112.006 100.587 1034.89 255 209 182
-109.864 84.0476 976.976 232 200 179
-72.7623 356.559 1152.31 203 138 149
-7.69972 239.572 1207.2 255 247 226
175.886 -115.805 1571.87 86 93 95
-71.7749 536.498 1253.39 117 95 76
-238.26 18.5522 1220.8 61 55 48
-55.274 45.8861 1129.04 121 102 87
307.018 404.95 1780.37 147 158 168
-44.885 408.567 1090.58 138 133 133
626.737 -253.838 1260.54 62 64 60
-87.1018 205.183 1047.78 156 118 108
-77.3976 402.917 1127.11 223 203 204
-110.476 246.682 1205.28 199 166 141
-7.56355 0.0890693 1218.98 75 55 45
-102.706 300.171 1068.38 231 224 213
-10.821 176.005 1200.11 238 225 204
-76.8868 263.447 1113.64 255 242 213
-35.5339 382.356 1104.15 231 219 210
-107.92 133.969 998.826 188 131 107
-10.2539 154.215 1148.58 255 238 218
-7.74728 218.356 1205.07 168 144 117
-35.7794 406.144 1164.22 205 194 190
-121.425 85.6911 1055.09 137 113 95
-187.932 494.368 1206.06 123 112 101
-47.8796 326.443 1108.21 150 128 128
-30.1325 32.0549 1186.33 255 251 217
-149.233 138.478 1003.91 150 126 115
-167.86 509.541 1212.92 15 14 8
-42.5157 341.437 1264.13 143 112 100
-38.5476 26.3243 1130.56 190 157 157
-50.0986 281.638 1078.38 139 104 96
-21.8708 159.127 1114.02 249 219 202
-59.0365 356.749 1236.16 255 246 251
-115.731 157.436 961.764 105 61 48
9.22907 238.185 1223 159 151 147
8.315 232.818 1242.38 250 246 239
208.663 295.677 1649.12 68 89 88
127.413 -160.524 1721.6 216 214 210
-59.3339 325.36 1128.09 155 155 152
-4.88035 164.228 1075.92 245 220 198
-28.4599 39.6713 1337.47 249 230 217
-84.5333 123.365 1023.13 173 165 163
-216.877 95.9257 1095.37 163 139 117
-56.195 468.834 1115.39 98 75 61
-38.4496 339.776 1129.83 132 105 108
2.86473 500.87 1265.08 133 145 146
-37.9928 316.699 1062.14 255 251 250
-105.783 167.393 1037.56 134 72 53
-71.5256 292.033 1117.75 149 128 92
316.468 31.5862 1582.77 255 244 242
8.28827 223.506 1241.65 200 189 178
308.233 33.954 1599.58 249 237 225
309.568 -23.9547 1664.74 245 245 239
-109.317 289.772 1068.76 111 90 85
292.215 -144.665 1506.86 186 187 196
-44.4123 280.918 1050.98 237 197 191
-63.4252 319.081 1078.89 255 251 252
0.396676 251.852 1174.49 187 173 163
312.726 76.9166 1630.38 253 248 250
314.135 12.4989 1618.18 251 234 217
-61.5986 5.71796 1155.85 141 156 166
-75.1262 187.302 1070.88 142 110 96
-125.183 228.334 1083.76 185 157 137
300.096 -27.2168 1608.42 166 166 168
295.656 43.7723 1531.26 255 245 244
-98.0888 109.403 999.288 148 137 134
-98.1196 116.839 999.776 118 94 84
-116.49 224.287 1109.8 75 41 39
-15.0363 488.099 1210.56 158 163 169
-30.0531 295.344 1222.33 164 131 126
393.679 158.896 1712.59 245 244 223
-34.5824 471.105 1248.4 76 62 56
-83.2428 497.747 1133.98 105 102 96
-27.5208 84.5903 1074.49 158 114 104
-245.904 124.054 1119.8 63 17 6
-32.8761 271.436 1124.08 255 247 248
-71.6451 422.848 1085.85 101 98 90
246.921 70.706 1464.01 62 34 24
-35.6538 288.382 1125.25 208 180 167
227.645 345.481 1910.38 34 44 52
-71.119 445.223 1146.53 251 252 253
-215.614 274.847 1137.99 90 41 17
-82.2921 251.157 1029.85 232 232 198
-96.9985 129.326 1040.23 171 155 146
-26.0038 93.8466 1121 183 146 144
-76.27 421.55 1207.94 178 172 170
-96.3906 264.642 1166.79 242 237 206
0.135578 178.014 1165.3 192 147 125
-19.0804 181.625 1117.11 252 244 217
-58.7903 339.647 1106.77 255 236 211
-54.5571 537.296 1244.65 142 145 140
-105.271 129.635 1013.07 195 112 88
399.281 169.292 1845.94 236 232 212
-108.879 131.669 1079.99 223 153 138
-69.3564 319.741 1059.2 194 167 170
-74.224 43.8518 1080.24 93 64 36
-92.4302 34.3098 1260.32 150 127 119
-4.18872 155.106 1233.48 204 150 129
276.975 323.062 1665.52 156 160 161
310.585 381.664 1764.61 143 170 167
231.286 321.033 1852.5 49 67 72
-175.795 103.361 1062.06 131 106 98
-230.524 517.251 1309.4 121 97 77
212.315 253.075 1718.35 45 56 49
-82.804 227.658 1093.35 237 217 187
-62.0103 214.526 1075.12 123 84 68
-63.0183 116.182 984.173 255 246 239
183.992 -145.722 1649.21 191 174 166
-84.8742 316.055 1055.62 162 156 164
304.669 -120.714 1758.09 70 58 48
338 354.937 1680.65 184 188 183
-110.97 191.329 1109.09 233 229 230
-58.385 370.916 1207.97 198 172 153
-58.914 106.165 1164.24 250 241 236
304.903 235.22 1574.35 245 251 247
255.258 -107.644 1508.5 155 150 139
-21.1876 387.546 1190.7 205 210 183
-83.1309 335.186 1101.09 144 147 146
337.915 -9.29905 1591.08 255 254 227
-75.1162 181.97 1070.59 213 196 187
-55.8178 157.577 1093.62 245 195 182
312.138 119.514 1511.78 188 181 162
-84.4966 108.159 1022.33 162 162 156
-87.9918 107.334 1063.6 192 191 175
-86.033 251.269 1191.9 123 84 59
205.295 310.96 1744.98 114 124 137
20.628 211.491 1243.3 194 173 156
40.3102 -115.448 1627.27 86 89 65
158.771 -92.1591 1755.76 48 41 16
171.191 153.497 1610.96 49 36 26
383.282 -43.5458 1705.32 251 250 228
238.333 300.675 1408.95 175 199 195
-85.0337 285.765 1170.73 158 119 90
306.389 151.074 1628.73 230 223 198
420.372 -54.9787 1811.95 246 246 220
168.452 59.1454 1689.68 39 48 27
-37.0751 149.345 1122.5 220 158 132
8.14229 505.324 1284.36 92 94 95
-56.7941 89.5856 1026.13 235 155 137
-9.40572 364.443 1191.96 137 137 120
-64.5298 129.066 1069.79 238 242 228
381.194 -3.6064 1787.86 193 175 150
107.642 97.593 1102.57 72 61 47
-209.849 286.354 1128.14 120 60 33
-75.4695 101.26 1111.23 251 250 248
