-48.377 33.7697 1228.31 18 0 0
-50.7364 35.445 1188.03 255 245 238
-74.6808 426.204 1128.51 255 251 223
263.057 -54.1398 1681.59 255 244 236
-53.916 481.928 1292.35 58 52 41
-37.6478 511.805 1248.25 47 51 51
28.6924 102.715 1252.23 244 235 224
-52.6368 25.7706 1211.74 239 229 211
-102.304 340.259 1168.97 62 44 43
-48.2355 411.225 1133.32 247 244 241
-49.9254 413.421 1240.49 88 69 59
-16.2912 253.211 1237.82 102 88 74
-16.3543 206.636 1234.38 113 64 49
-79.4269 353.656 1174.95 95 72 78
-67.4044 443.782 1210.4 246 238 231
189.471 342.354 1846.95 8 24 24
25.3692 500.056 1354.11 95 91 95
326.483 290.207 1973 124 121 116
-130.139 236.293 1156.29 216 191 173
-67.3735 44.4268 1157.54 88 65 51
-11.1637 49.6976 1279.99 178 80 34
-17.2488 229.764 1295.15 116 106 90
-124.533 220.664 1107.09 73 44 33
147.029 -122.097 1647.43 108 106 108
-66.6368 515.577 1186.12 227 223 206
-19.4564 169.419 1230.84 146 105 89
-18.071 40.3673 1090.95 159 90 76
-86.0794 283.679 1192.5 137 105 86
-166.574 150.062 1093.11 196 172 163
-46.5324 485.876 1218.24 119 99 91
302.878 -171.492 1673.12 218 241 239
-103.945 233.627 1066.47 81 67 58
-73.2995 451.778 1129.54 21 12 7
-67.0955 451.06 1110.63 159 148 135
275.52 41.9574 1704.16 139 121 115
-1.10572 250.044 1300.45 140 139 149
268.806 -24.3388 1790.5 230 214 204
-112.391 174.825 1039.62 100 64 66
-79.4427 362.526 1175.42 145 134 131
-67.2346 435.942 1157.94 137 116 87
-50.4693 322.997 1179.77 115 115 104
294.516 80.3809 1715.21 141 120 113
-21.4126 155.811 1175.45 251 226 202
-108.379 221.424 1110.84 122 99 85
-124.094 146.891 1151.95 181 94 72
288.733 -54.2657 1685.37 249 239 218
222.04 42.846 1521.64 222 206 208
-115.005 95.3388 994.599 216 146 121
-120.597 106.208 1076.09 147 63 41
-126.524 81.6325 1053.55 131 105 86
-109.182 231.979 1185 225 197 212
-176.087 164.1 1193.19 176 164 157
271.322 26.5181 1791.91 240 226 218
-94.5511 130.187 1108.6 126 126 124
-19.348 491.521 1224.74 204 210 211
115.826 -89.9842 1735.92 41 44 27
-46.0722 404.995 1180.4 238 231 222
262.997 54.6115 1704.82 134 131 129
-4.37979 230.292 1298.07 175 172 139
283.853 33.5196 1703.66 254 244 225
-230.3 617.393 1487.42 194 192 182
-179.512 133.224 1088.98 174 157 146
-46.0787 451.028 1304.62 205 193 186
-97.1984 113.509 1106.98 145 147 145
-40.7391 357.816 1239.32 126 107 100
-78.6339 312.708 1122.3 103 99 78
-14.0785 203.869 1293.66 255 240 217
264.706 -12.6829 1690.81 219 201 205
-77.9387 430.42 1107.08 139 132 119
-84.1608 408.105 1152.22 206 190 187
216.392 -0.177399 1647.64 154 134 120
-4.35071 243.355 1299.17 253 247 252
276.873 75.9793 1711.51 246 238 239
254.97 480.303 1886.37 128 140 135
-67.645 189.513 1167.77 103 42 34
-55.6296 348.461 1295.52 207 194 175
291.214 100.952 1816.3 205 190 181
-61.2384 312.53 1201.24 166 123 110
-70.1798 497.487 1161.09 114 105 81
-100.345 249.709 1114.21 249 246 221
-20.0087 223.955 1166.14 210 193 183
-76.8389 392.128 1080.97 223 215 214
-184.493 105.765 1086.14 155 141 131
-229.778 98.2361 1122.11 173 137 130
305.958 61.1027 1899.81 243 223 224
-111.398 313.387 1115 151 130 126
41.7003 176.87 1526.62 240 224 199
-121.439 86.9901 1054.96 233 209 189
-46.053 383.833 1178.25 249 221 205
250.438 4.68709 1859.46 64 30 12
-62.9603 251.025 1107.7 92 65 57
-49.5291 476.296 1216.88 102 94 99
331.195 35.5907 1803.02 151 144 141
249.7 335.155 1964.92 108 137 137
264.444 92.9756 1713.02 152 136 134
302.969 12.3125 1965.62 130 89 76
-120.614 111.572 1076.3 193 120 108
-32.9554 368.79 1186.05 211 206 185
-220.475 288.182 1124.45 78 23 7
-84.6183 192.372 1102.15 145 124 110
157.9 321.779 1725.22 51 61 68
-89.8459 519.147 1180.95 142 135 129
347.165 35.8568 1930.28 250 236 229
-233.9 289.559 1186.6 86 41 18
287.303 12.4465 1699.68 255 222 202
-67.7347 42.6492 1084.61 239 220 202
-67.8972 360.39 1177.91 255 247 228
221.578 315.107 1847.96 78 104 105
-83.8608 191.807 1114.63 203 168 160
-116.278 173.879 1106.32 103 30 19
-63.9434 386.212 1142.41 137 112 105
-108.715 113.709 1059.21 145 134 122
256.947 7.1591 1527.14 241 219 200
-187.303 132.927 1087.04 155 136 125
-15.3738 522.669 1306.15 84 90 95
-67.6043 166.109 1166.21 252 224 209
196.989 459.914 1851.47 60 85 81
269.139 326.235 1859.25 108 132 138
-90.9169 355.796 1172.44 146 146 151
267.265 65.9837 1493.36 131 113 99
-29.9875 393.689 1270.81 240 242 220
-34.6609 162.779 1227 225 189 173
-50.024 343.44 1351.06 219 162 156
-81.934 188.974 1164.52 194 161 159
-60.5955 320.983 1122.08 241 244 241
-0.639127 -121.842 1702.57 98 95 81
-108.324 114.463 1090.43 242 226 212
-55.8334 433.999 1160.38 254 241 231
-60.2246 349.482 1221.11 162 163 160
-124.646 216.45 1047.59 148 116 100
185.562 252.355 1515.13 104 131 132
-35.6364 144.07 1109.1 200 172 164
-47.7029 361.513 1435.7 255 254 251
-102.592 54.807 1363.9 173 148 124
14.5662 109.189 1205.42 224 173 138
162.762 238.031 1429.81 100 133 125
244.939 104.924 1807.51 61 38 34
20.0802 78.1216 1231.47 213 193 177
186.382 77.4628 1434.9 135 112 98
233.68 6.48157 1422.31 142 121 105
-67.1649 394.879 1155.2 162 153 152
-170.776 93.2648 964.224 167 130 121
14.1093 11.3035 1377.44 184 160 131
-76.1495 154.174 1163.49 255 238 224
-56.293 346.36 1179.76 186 162 155
-109.599 38.3152 1147.72 112 85 59
