-289.447 407.928 1166.07 250 248 246
-299.538 10.5607 1028.8 255 250 231
-243.839 180.343 1094.71 57 21 6
535.003 -171.886 991.596 230 242 239
-310.898 408.445 1159.48 59 57 52
-308.246 405.651 1197.47 211 210 206
-159.313 218.622 1088.85 46 31 30
-241.406 170.395 1075.44 242 225 198
740.654 105.961 1237.92 238 247 239
-176.426 167.581 1066.44 54 22 17
-255.858 157.222 1026.37 252 245 216
-275.95 350.084 1069.62 255 253 240
-256.116 137.514 1069.64 221 201 180
412.909 63.8978 1062.88 255 246 248
492.844 -59.2414 1081.61 235 230 214
-384.199 166.034 1057.86 51 18 9
358.906 -200.506 1100.95 251 246 245
-303.627 13.8112 1006.45 247 237 227
-106.18 389.058 1119.77 246 255 255
446.961 -182.756 994.897 202 195 180
-388.862 176.254 1033.63 63 34 27
467.721 34.8041 1061.97 255 239 232
357.555 -11.0058 1077.59 249 243 241
-219.624 197.67 1057.58 255 247 242
-288.029 337.936 1064.94 115 101 93
-224.298 180.323 1026.97 105 93 85
-233.321 164.305 1096.32 101 64 41
719.747 119.291 1204.3 243 255 250
-303.631 452.324 1203.19 85 73 65
-110.273 439.587 1273.39 139 144 142
-156.422 227.969 1075.68 102 92 77
-253.721 157.902 1090.17 130 98 72
-403.081 85.1848 1023.76 102 99 91
-105.561 418.751 1222.26 158 158 144
-108.542 415.084 1198.49 69 66 68
519.747 298.45 1291.15 43 89 95
-273.587 142.209 1065.18 242 204 187
-308.989 442.426 1200.66 75 73 69
349.774 45.0661 1027.48 227 218 220
-304.354 18.1376 1027.81 93 68 52
632.458 337.98 1515.92 231 255 255
371.137 58.7623 1085.18 213 200 200
-248.664 143.163 1071.95 91 60 42
-295.434 379.007 1095.58 162 160 153
-246.33 159.396 1073.51 212 183 163
715.634 71.132 1197.86 207 221 215
-254.421 21.8793 1019.9 75 42 26
-206.695 413.85 1191.02 224 233 200
394.758 0.315306 1172.71 249 236 232
560.717 307.804 1296.81 98 130 136
-299.25 15.8376 947.28 165 157 151
-151.495 56.4319 1067.17 253 252 235
-423.343 87.0874 1017.37 227 227 217
-311.802 359.745 1169.26 252 225 222
368.92 -71.8017 1072.52 238 236 231
573.459 306.437 1346.71 207 233 245
692.038 95.908 1159.89 228 234 229
-139.269 85.4694 1050.97 255 249 232
-348.482 301.976 1073.75 138 124 117
-296.93 337.77 1107.41 255 244 228
-164.52 90.1524 1045.44 181 124 108
-323.245 377.623 1103.48 72 66 58
453.464 -61.5075 1048.53 239 240 228
-48.9563 382.895 1177.6 187 180 168
-89.2507 250.24 1139.36 249 235 215
-161.632 240.41 1120.28 255 253 248
-129.224 112.011 1054.66 255 248 231
-251.806 199.555 1074.35 219 199 182
-311.241 282.191 1132.07 125 75 69
-273.14 361.028 1150.26 246 243 227
466.535 72.7156 1093.97 230 218 205
-315.921 269.261 1080.99 255 247 234
511.652 44.0158 1149.45 208 182 176
316.341 -188.349 1144.65 84 82 86
668.17 -149.992 1156.96 210 231 229
384.017 -37.6286 1077.13 248 245 245
683.249 407.099 1411.7 89 116 141
-236.84 26.663 1045.62 181 82 50
371.322 -11 1078.74 255 248 251
478.996 -5.7784 1130.91 238 223 207
517.931 19.4707 1136.03 221 209 208
-436.802 111.089 1038.93 253 249 236
-281.014 72.0639 1015.4 108 72 54
-146.277 432.99 1190.46 135 145 150
608.344 -213.534 1147.56 16 22 21
-253.417 584.977 1309.98 59 58 55
-136.195 102.019 1072.5 255 250 234
674.825 -138.838 1158.44 250 255 253
-370.757 227.169 1060.62 217 193 166
603.327 405.611 1424.79 99 134 138
-224.472 186.786 1055.53 242 234 219
654.668 380.773 1361.9 45 87 109
720.946 402.279 1450.72 232 255 255
406.758 56.0052 1132.17 202 196 197
561.406 375.442 1417.53 54 79 88
-164.486 84.918 1045.17 255 239 223
-128.346 322.502 1135.74 121 104 95
-331.153 15.9488 998.89 61 51 44
413.038 43.927 1144.77 219 212 219
-246.695 185.699 1049.52 136 118 102
490.104 -184.63 921.013 115 147 139
-268.969 370.582 1056.28 253 255 251
-398.89 103.256 1026.14 101 104 98
504.008 58.3689 1151.33 92 68 67
-255.983 136.535 1135.45 162 113 86
436.628 150.574 1116.09 231 231 206
538.505 295.621 1343.02 70 108 116
-320.831 383.415 1153.44 148 147 138
-280.886 345.661 1146.7 223 229 208
739.449 125.002 1258.44 232 254 245
451.234 -166.629 963.964 215 214 211
-111.079 189.17 1129.29 240 226 208
434.529 82.3849 1184.96 59 57 62
485.603 -106.136 1042.75 57 64 59
313.435 -131.116 1022.31 156 153 144
-154.963 199.389 1147.99 255 243 252
555.992 79.9287 1193.19 100 88 73
-212.13 52.6516 981.827 242 207 193
662.286 -11.7027 1137.41 220 247 238
419.602 88.271 1184.27 93 86 83
-156.628 56.3533 1066 247 230 217
460.982 -241.04 1196.94 130 106 91
503.358 70.5023 1140.79 131 112 99
-225.184 227.299 1152.33 149 140 133
357.938 -66.6193 1006.26 201 192 196
389.008 6.09785 1172.85 218 216 212
-129.249 117.312 1054.94 253 249 230
-340.894 289.032 1075.03 255 248 246
-154.426 480.435 1324.75 184 190 191
394 75.0999 1088.62 192 192 197
486.185 67.9238 1165.83 146 150 144
-246.888 210.634 1076.28 238 222 206
-85.173 224.422 1035.29 150 128 114
658.769 52.9631 1108.84 221 243 223
-228.637 16.0184 985.585 164 87 62
496.25 -55.7819 1126.06 219 219 203
476.974 -180.488 1158.83 132 135 123
464.837 -101.402 1005.9 202 204 202
-144.337 85.359 1049.82 255 244 223
-363.925 372.107 1233.87 252 235 216
-184.4 79.3634 1040.19 255 229 209
413.532 88.2149 1183.72 208 198 193
406.987 61.6398 1132.75 124 118 120
396.446 -54.0462 1058.47 233 227 232
431.074 3.68977 1096.86 241 216 196
526.74 -122.503 1003 177 178 179
507.973 311.696 1152.83 95 131 138
-164.274 229.025 1119.2 167 140 119
-139.353 101.236 1051.8 255 239 210
-149.918 280.669 1154.25 204 204 199
372.984 -191.883 1045.74 209 185 183
-255.756 290.579 1100.08 141 142 138
-362.981 306.309 1118.04 157 136 137
631.718 23.9759 1063.33 246 254 233
391.555 -219.314 1100.9 188 162 159
-256.002 227.947 1107.95 131 116 102
620.408 -141.221 1064.84 95 116 106
-227.621 60.9698 1072.7 149 103 89
-144.624 137.912 1052.56 164 148 135
-346.071 342.264 1126.64 156 159 159
-364.706 384.166 1177.56 254 253 250
376.202 -27.0093 1077.57 136 106 107
-186.762 63.7766 1038.81 255 247 238
-84.9976 272.845 1169.17 242 229 195
-295.458 304.582 1068.46 163 151 152
599.672 -117.879 1041.36 212 221 219
-251.001 147.444 1004.23 164 122 99
436.939 -59.7138 1037.82 203 207 184
-120.545 568.092 1285.76 80 98 90
-108.953 179.021 1062.69 255 249 228
-68.9817 315.407 1165.93 224 206 194
-152.131 121.949 1049.99 174 117 84
-227.685 50.0561 1044.98 143 101 86
-136.665 384.851 1307.54 84 63 44
-108.925 171.034 1062.28 255 248 220
-409.124 98.2184 1002.94 127 123 122
-260.804 148.198 1043.01 215 193 181
546.377 157.667 1167.46 245 245 225
-231.741 236.393 1102.49 131 107 95
-78.219 294.178 1145.36 252 239 244
-317.896 328.178 1063.52 145 97 93
-398.373 238.539 1100.13 248 247 228
451.103 61.8486 1114.76 216 192 185
-332.918 268.255 1104.09 138 108 89
-80.9686 276.655 1143.37 153 127 111
-421.905 125.408 1020.11 244 240 236
-236.051 562.691 1253.46 156 158 154
436.327 144.959 1115.39 211 205 179
-84.2236 306.552 1252.47 222 207 189
-149.285 66.9377 1047.7 246 229 195
-357.209 338.798 1187.32 236 216 209
364.726 34.4572 1082.44 255 245 246
377.985 -50.7964 1075.34 244 243 242
615.809 -128.328 1065.92 208 218 213
-301.233 281.395 1086.32 157 130 121
-304.763 256.283 1111.52 255 250 246
389.097 -22.2542 1122.73 227 206 198
583.666 -31.1887 1132.85 245 245 227
-372.498 219.738 1015.28 254 251 239
378.727 -64.4115 1033.6 210 208 207
-105.672 206.486 1131.99 252 241 224
413.302 145.762 1163.71 149 143 126
-350.084 296.042 1121.23 145 140 133
313.834 -177.252 1145.68 53 56 50
-225.454 6.88399 1026.46 160 108 90
510.233 68.0099 1167.87 242 207 201
674.324 -36.8677 1134.18 239 255 242
405.405 24.1888 1057.6 252 254 252
702.218 -11.8484 1186.04 198 225 204
-297.192 367.446 1143.74 212 197 181
490.358 -5.96348 1087.41 162 124 130
361.363 -208.463 1100.23 95 53 49
-315.837 281.238 1051.15 255 250 245
462.213 22.5381 1047.54 205 189 183
-119.733 546.833 1230.91 222 243 243
-377.959 85.964 1031.66 255 248 240
598.447 -83.3293 1041.39 208 232 213
-220.63 9.47262 1027.78 253 228 208
-155.09 278.789 1176.18 148 140 130
379.867 69.6591 1086.91 251 252 253
612.678 -95.2465 1112.89 159 157 149
-382.794 98.6561 1030.9 157 153 154
361.546 -50.7296 1074.06 254 247 249
582.286 341.927 1274.68 85 129 132
641.555 357.007 1300.64 204 229 241
-328.504 281.886 1078.22 178 171 167
-212.503 38.3326 990.457 131 69 38
-90.6858 263.696 1167.32 235 219 194
566.259 -234.866 1143.25 85 118 110
608.058 411.375 1476.58 136 169 203
-157.897 272.79 1175.24 224 218 205
558.881 -60.8704 1028.59 244 243 222
-370.663 123.406 1013.68 163 149 131
621.817 -89.4157 1126.22 75 76 67
371.117 -16.348 1078.21 158 136 139
389.808 67.2168 1131.79 148 138 138
619.693 214.661 1226.42 210 217 207
605.025 45.642 1022.39 200 220 200
-111.451 329.282 1115.83 127 71 41
-362.32 273.602 1067.12 156 151 148
-177.084 46.0371 999.077 194 121 98
-164.791 -5.61401 999.375 248 234 194
645.077 52.9909 1108.93 185 210 189
602.192 -50.6441 1130.91 248 250 220
-350.403 249.572 1049.67 118 91 71
489.998 -135.326 1001.7 162 156 155
519.812 -22.0202 1087.11 255 249 233
496.352 -1.07309 1212.73 125 119 106
658.307 -90.0286 1115.3 228 247 223
513.398 -135.046 1039.25 80 65 63
-236.736 143.973 989.353 133 93 68
-215.515 2.78969 1006.85 175 135 116
-320.043 411.489 1117.37 235 236 224
-421.448 150.955 1045.79 229 227 222
-311.775 340.898 1225.78 149 136 133
-297.826 310.273 1116.93 130 112 101
-382.468 80.6503 1029.97 152 139 130
462.173 -250.594 1276.82 140 111 92
-393.138 90.7831 1042.35 238 214 202
-381.817 510.595 1375.42 184 180 171
629.166 -30.3194 1089.78 220 243 234
1354.91 -294.975 1801.95 96 95 94
-345.939 68.0328 900.357 251 250 239
-126.033 143.685 1124.54 248 233 208
-163.727 116.191 1091.87 250 213 179
-379.203 150.362 1058.56 143 125 125
356.117 -219.775 1193.16 195 197 203
-384.8 296.532 1171.94 143 70 53
-331.524 309.031 1079.48 253 248 246
-341.188 85.5212 999.369 255 242 240
-357.132 97.5108 995.341 255 245 232
-197.032 61.3298 1080.47 240 213 204
-290.774 240.356 1054.8 186 185 177
540.012 273.697 1231.39 133 162 173
-124.578 220.941 1061.33 159 133 118
537.932 3.77569 1117.35 183 173 165
568.713 139.445 1286.98 149 155 161
-243.724 459.561 1280.87 159 156 122
-338.493 132.383 1023.15 242 184 166
630.78 373.635 1307.96 100 136 170
356.208 -161.595 1031.87 126 115 111
-334.032 60.7181 1000.2 248 196 187
-148.797 247.403 1078.9 174 167 162
351.183 -34.866 1074.76 142 125 122
506.936 130.589 1195.68 169 171 143
-357.249 104.963 995.687 250 246 245
-383.186 99.8637 1054.9 156 144 134
-269.032 276.809 1144.2 183 177 169
-411.423 218.455 1102.55 213 215 192
-418.44 228.844 1181.97 227 200 170
-166.565 208.468 1071.82 251 253 249
-154.544 349.259 1325.83 113 84 72
-163.71 68.1752 964.768 252 243 213
-292.271 67.3885 1055.74 251 240 227
-325.081 442.719 1158.92 141 136 123
-115.61 119.98 973.464 246 208 179
461.841 20.658 1180.3 255 249 237
286.913 -168.928 1056.2 167 169 165
448.954 27.8467 1132.6 247 245 249
430.974 70.5468 1183.41 239 235 238
556.164 -55.0911 1176.24 191 163 149
494.314 -20.8883 986.088 240 239 236
-66.1711 333.519 1168.52 252 209 185
-432.481 171.802 1093.31 194 195 195
