273.04 437.369 1883.83 216 243 244
280.193 475.556 2005.08 25 46 45
49.6271 192.798 1371.4 55 41 27
-53.0205 463.369 1243.64 255 249 249
-50.2522 45.3633 1161.32 216 187 182
-42.163 44.4663 1213.32 255 245 238
-17.101 59.6866 1316.86 86 37 24
-41.7431 499.85 1191.3 51 56 57
-10.4737 59.9848 1223.82 66 1 0
-73.3085 577.686 1300.21 192 189 192
-46.8943 476.461 1245.72 248 243 243
-77.9629 427.843 1107.95 226 212 192
-127.266 229.329 1107.45 34 28 20
268.174 71.6997 1710.11 247 243 241
278.567 114.715 1720.77 106 99 99
335.564 89.534 2066.7 92 87 85
-82.195 400.221 1081.35 237 229 223
281.07 -37.5404 1688.49 254 231 226
280.186 365.069 1870.92 113 125 120
-1.06707 263.333 1302.33 86 81 87
287.348 114.811 1722.21 252 249 246
286.011 356.227 1837.43 66 106 130
-23.6755 207.002 1292.41 94 59 37
-173.96 165.87 1141.39 207 183 172
-72.5331 527.447 1187.1 221 216 213
-118.859 149.454 1104.61 177 80 61
-64.5359 56.7419 1159.16 248 240 220
251.903 -4.10208 1605.75 158 137 135
307.108 103.207 1817.09 255 252 245
-34.6117 398.997 1244.2 243 237 229
23.5868 492.43 1312.6 109 108 105
-188.326 487.145 1154.35 176 177 164
-73.423 468.011 1211.99 144 126 115
246.132 384.899 1641.14 179 214 217
-52.5633 536.442 1309.37 123 100 85
-4.00283 244.666 1240.55 255 253 255
-10.2349 197.891 1235.59 109 70 42
-105.197 349.023 1169.66 77 79 70
152.435 -100.921 1570.56 70 72 70
144.811 291.546 1935.02 204 207 188
-23.6867 194.046 1291.25 114 71 48
26.5134 91.8828 1205.45 226 211 205
-46.8871 441.925 1243.88 229 221 211
-82.5401 484.07 1181.63 39 20 11
-7.10476 232.09 1238.93 164 132 117
231.961 41.2019 1592.95 245 196 172
-50.24 33.8435 1160.41 135 133 138
284.604 -22.5443 1652.04 255 250 248
-82.3532 371.323 1176.16 126 120 108
236.007 20.8087 1694.02 173 144 137
-113.402 263.714 1162.61 94 79 67
-61.1683 346.516 1260.16 245 210 195
-124.063 119.077 1101.51 163 79 59
-114.153 188.434 1062.36 142 120 106
230.18 -7.50739 1471.53 78 60 57
-121.532 108.962 1056.31 206 148 124
-69.8042 423.851 1108.21 129 109 96
-16.2764 262.788 1239.23 137 110 96
-113.956 138.1 1059.64 237 142 132
-97.5637 225.163 1114 126 109 96
-117.968 184.846 1128.52 107 30 20
-85.1323 279.958 1113.27 69 43 34
-13.2711 216.335 1236.39 156 101 73
-53.0012 425.759 1241.59 144 130 118
-210.07 567.967 1338.06 15 15 4
-20.4235 255.883 1297.36 247 244 233
302.361 54.8876 1711.87 254 252 245
-16.5567 65.6243 1372.06 255 242 240
-108.093 144.261 1106.73 147 133 119
-9.89476 241.017 1357.84 252 255 250
310.823 294.178 1861.46 60 53 38
242.663 102.676 1542.19 215 205 207
230.894 108.203 1623.06 167 152 143
-270.544 573.983 1421.97 156 138 122
-91.0839 438.729 1205.59 239 227 220
-105.84 139.866 1093.92 153 140 134
217.958 381.087 1964.45 54 73 68
301.247 29.3721 1706.19 249 242 219
299.815 97.6162 1720.59 255 251 243
-119.141 148.518 1059.07 218 152 118
-81.416 324 1123.04 126 129 93
250.495 330.463 1858.33 88 104 116
261.442 -99.0958 1671.92 162 161 146
-110.504 177.682 1015.9 149 102 94
-90.5621 218.161 1165 143 114 92
-42.5393 376.71 1267.45 129 118 111
-19.4425 172.869 1231.6 255 227 209
350.819 53.6555 1811.23 135 131 124
-232.472 291.272 1170.26 63 17 9
-34.652 172.371 1228.24 255 240 227
-83.8861 200.613 1115.6 169 141 126
-26.9793 31.1567 1274.87 167 133 112
-17.1926 269.098 1299.2 235 208 199
-126.558 90.5214 1054.13 144 113 90
-54.6787 440.912 1106.19 231 229 226
-97.2248 122.434 1107.78 157 147 149
-127.76 324.03 1162.88 178 163 159
-84.8105 198.004 1164.96 128 89 91
-109.081 215.238 1064.89 185 185 185
-28.3894 519.115 1251.97 23 27 36
-82.6425 51.8819 1061.25 124 90 71
-28.3484 244.604 1359.15 247 229 217
-134.628 355.396 1264.03 147 120 118
282.22 533.433 2017.99 125 134 130
-73.0685 59.4981 1157.52 185 156 133
-80.4495 408.567 1018.08 106 94 82
-102.175 293.507 1167.11 253 247 237
-84.8265 203.833 1165.35 252 238 226
-133.509 111.509 1195.21 222 172 149
-68.3401 521.544 1243.05 101 73 68
-184.569 114.756 1086.84 137 110 111
-136.073 246.283 1128.46 149 123 109
275.599 398.608 1764.26 145 168 169
-48.7953 389.158 1267.17 112 101 85
322.984 69.6 1818.02 248 232 226
-56.1091 152.337 1168.16 255 252 251
-110.713 127.655 1105.09 232 214 205
-52.5928 281.41 1071.72 136 93 91
285.161 -139.957 1666.18 78 83 79
-13.2802 210.138 1235.9 219 182 150
-81.2236 356.017 1150.15 158 148 140
-74.8267 409.284 1296.25 252 243 230
-111.174 243.979 1112.01 117 94 84
-67.6197 175.317 1167.26 254 237 225
364.24 -172.849 1842.87 172 182 182
-8.7155 295.919 1325.86 164 143 140
-82.9164 402.654 1125.57 169 159 163
390.916 187.332 1849.26 251 254 228
-102.66 292.581 1152.16 180 148 137
302.194 268.639 1755.26 104 85 66
-129.813 201.506 1105.24 207 183 165
-42.846 329.75 1298.12 148 116 107
-20.6868 12.2062 1274.3 83 70 55
-50.3616 158.335 1169.85 254 249 247
-18.6316 158.502 1160.27 185 131 106
306.126 -13.2229 1788.23 153 147 148
284.803 -148.01 1664.3 203 224 216
-103.964 311.937 1246.35 167 168 147
20.1931 137.32 1311.89 249 231 203
243.308 437.513 1989.48 96 125 120
331.391 -148.546 1670.24 79 85 80
-61.2368 381.797 1263.54 179 169 172
-91.7629 137.23 1083.85 178 174 168
22.0705 520.742 1356.76 87 92 88
-75.7869 406.928 1278.85 159 138 133
188.886 361.949 1902.1 53 63 71
203.484 456.257 1985.55 68 82 79
-85.3336 488.473 1210.65 102 93 96
-86.9959 516.723 1182.7 173 149 129
-34.4009 159.314 1155.88 189 145 133
-163.582 425.595 1214.91 56 41 27
219.692 19.1537 1431.99 134 119 114
-34.5728 521.687 1250.7 77 81 88
-67.8242 323.899 1089.97 184 176 175
-116.626 257.612 1111.53 192 151 130
201.059 369.13 1965.29 125 133 147
-74.8683 432.236 1297.77 255 239 222
-51.6112 304.013 1163.14 141 98 91
286.799 174.884 1707.52 146 133 111
16.3156 35.7714 1391.13 226 208 179
-106.736 118.706 1050.33 191 153 134
440.891 220.516 2174.67 227 225 202
-124.282 87.0068 1043.38 249 226 202
-67.6566 195.763 1168.68 238 221 192
-84.6438 139.854 1160.94 184 165 156
-137.747 187.36 1102.55 125 78 59
330.704 8.2901 1705.76 255 248 222
-41.2736 281.475 1130.4 205 177 177
-92.1652 239.354 1116.04 221 200 176
269.938 -99.2161 1673.16 77 69 58
-52.9597 390.284 1159.07 254 242 219
20.7609 248.898 1246.1 206 196 189
224.65 404.776 2211.77 48 61 69
8.71143 32.2598 1257.67 255 244 221
-40.6949 120.252 1222.6 194 184 173
-70.3343 105.562 1161.61 209 152 136
-76.1698 163.372 1164.51 254 233 206
-49.2448 335.896 1297.08 153 135 125
-83.4254 447.027 1107.84 25 14 13
-78.9292 128.437 1161.39 254 252 244
388.104 197.94 1953.56 248 244 221
190.815 358.624 1960.7 46 61 68
-40.0491 481.413 1157.57 255 249 240
-148.634 214.666 1262.63 100 33 26
-102.514 94.8829 1104.8 226 184 160
225.344 514.571 2002.68 78 94 92
