-3.62134 423.631 1196.33 45 38 27
7.65169 16.5285 1223.27 255 248 236
-64.6191 92.0246 1112.59 244 217 198
334.956 -72.9428 1777.15 255 244 242
319.678 437.859 2004.7 21 55 63
39.9265 23.4643 1287.83 43 0 0
-0.865255 456.651 1316.95 245 240 238
-74.4791 214.896 1192.78 46 13 12
13.7293 10.535 1223.89 92 83 69
296.229 32.4828 1668.96 249 237 236
319.239 427.414 2002.2 203 240 245
331.925 42.002 1806.08 113 105 103
-10.0666 376.974 1095.02 112 109 105
-30.2306 427.648 1190.84 236 220 199
-129.29 82.9029 1097.69 183 175 164
46.4122 29.8102 1289.81 136 44 14
5.6441 437.203 1317.15 241 230 226
-56.6863 93.6978 1068.91 87 54 28
-158.328 524.642 1313.13 172 172 165
-20.4133 398.022 1139.77 255 249 235
-36.5199 437.341 1274.66 242 254 254
-49.4193 503.994 1190.59 165 168 158
-64.5916 80.9882 1111.83 251 214 191
-23.167 484.579 1161.78 243 239 228
65.9926 470.174 1318.99 85 84 87
-53.1282 334.054 1236.1 117 115 109
90.7457 89.9078 1437.27 173 149 138
-22.47 448.892 1250.04 172 146 138
245.353 347.995 1969.77 42 68 69
-1.56175 386.008 1221.91 183 162 147
-39.0517 400.105 1187.53 213 187 179
83.13 92.2787 1367.14 248 229 217
1.60391 4.40558 1168.15 183 177 172
-37.2677 249.19 1128.55 73 71 42
17.2849 376.183 1280.97 252 253 238
37.7665 233.984 1308.3 255 246 240
-33.1922 254.836 1180.24 254 241 217
-118.547 132.758 1152.33 176 155 147
-124.514 451.452 1120.45 109 107 102
363.338 379.505 2133.92 118 131 139
1.3061 305.796 1215.4 129 118 109
307.116 -36.1187 1692.75 221 204 198
50.86 231.188 1310.79 119 123 107
-1.41761 451.256 1227.25 236 231 228
26.5124 154.407 1239.64 132 85 70
-28.8367 341.803 1178.56 143 102 97
-4.04942 308.726 1245.36 255 236 233
342.316 64.5944 1813.16 241 231 231
-22.6601 477.523 1224.54 209 196 181
23.4443 507.747 1314.84 211 215 220
325.147 238.636 1729.65 79 70 58
18.152 490.081 1261.07 43 51 57
-229.845 541.026 1430.74 166 144 134
-34.8078 479.33 1248.92 51 24 9
33.2717 -20.4597 1281.66 86 51 38
-176.566 74.8637 1160.9 177 143 132
-30.2492 308.289 1184.28 116 96 78
355.951 340.829 1987.25 97 119 118
39.0583 185.694 1244.89 163 136 116
-60.2958 151.382 1104.76 97 28 22
311.856 69.6041 1716.71 88 78 74
-7.09283 343.118 1247 157 139 141
359.757 91.0546 1945.13 149 132 125
-33.1638 384.712 1163.13 150 139 139
306.576 494.892 2015.28 95 108 106
325.4 78.1461 1720.58 242 231 224
-56.387 236.056 1173.92 122 109 98
5.60868 495.374 1258.65 128 130 126
-67.2997 72.7707 1110.67 254 203 180
-216.884 107.805 1208.53 45 6 2
289.005 82.018 1754.11 188 173 173
-132.764 508.281 1257.63 183 180 177
35.7776 238.102 1270.08 169 154 140
1.46183 376.898 1221.78 219 196 181
25.8971 -1.75201 1225.13 102 79 54
26.5606 166.744 1240.72 173 137 117
45.434 214.011 1248.49 218 214 214
337.924 -31.673 1802.89 216 199 194
-85.0314 217.171 1166.22 218 202 175
88.9135 90.5823 1318.51 34 18 11
32.9422 210.473 1245.67 252 245 228
37.6077 201.214 1305.28 177 147 119
230.008 337.129 1964.29 123 140 157
211.158 -143.803 1740.73 91 97 93
12.3348 286.033 1274.11 130 125 123
293.465 48.1614 1709.31 60 38 34
-26.0733 156.841 1125 123 89 92
-1.37785 469.974 1228.69 153 136 123
316.551 65.8934 1629.07 254 254 252
-63.8907 120.976 1088.45 186 121 107
26.6479 191.577 1242.83 255 245 225
-28.8133 490.673 1194 101 87 70
-164.587 521.078 1310.79 72 70 62
381.556 24.0256 1808.06 158 146 130
-15.8862 373.72 1288.57 213 199 178
296.836 -18.1654 1797.79 181 160 146
-61.1582 145.954 1136.83 255 252 247
311.59 338.363 2091.65 115 143 141
-244.225 472.845 1283.11 98 81 60
-27.3214 105.401 1170.64 152 144 135
-31.6733 179.132 1125.32 166 108 87
-39.9245 111.895 1119.11 139 133 131
218.16 409.166 1928.67 30 44 54
349.532 26.2156 1804.29 252 243 229
361.314 73.6928 1818.03 146 127 122
-48.1448 213.015 1207.22 159 119 102
357.045 -2.78645 1798.12 255 248 223
172.602 -108.447 1488.07 75 81 70
-37.2084 413.195 1116.08 158 127 112
40.8029 188.173 1304.76 248 235 210
182.156 -119.309 1864.85 30 26 8
-12.6101 321.193 1188.83 255 248 253
310.848 -48.5619 1690.46 114 94 85
365.941 -200.121 1882.81 242 253 247
246.456 81.9938 1802.55 147 131 109
327.873 -52.7864 1691.81 246 251 247
-194.677 281.014 1255.7 107 54 30
-12.7383 288.607 1181.92 175 137 123
-19.128 308.276 1130.49 170 157 160
2.35071 394.191 1200.96 203 185 169
274.044 -2.46891 1695.29 74 28 21
47.474 211.284 1308.29 198 165 145
339.792 301.853 1868.57 132 163 160
245.628 -165.39 1740.72 115 101 101
44.0036 175.248 1304.17 176 134 109
-205.281 577.324 1493.43 150 139 122
13.6398 377.689 1224.45 207 196 181
255.384 85.2364 1922.92 62 57 38
299.775 42.0227 1801.37 157 134 135
-71.2249 167.702 1104.2 122 95 99
263.857 -2.58108 1475 143 111 99
-96.3494 199.434 1162.35 95 59 48
68.9706 499.332 1381.58 80 78 78
44.4277 257.201 1311.76 174 161 153
229.369 444.017 1855.5 64 85 85
-15.7582 27.4093 1166.68 185 161 144
-12.7658 143.715 1176.6 255 246 231
277.391 82.2587 1714.07 85 68 67
-72.3009 54.0953 1063.2 212 190 172
334.177 58.9884 1608.62 155 146 128
-16.5828 484.277 1226.4 112 92 82
341.199 345.139 1840.94 163 178 176
479.999 176.989 2114.16 242 239 217
373.599 387.759 2001.57 162 175 174
235.561 85.1482 1820.49 132 134 132
323.065 343.353 1773.15 174 188 187
-4.70475 118.702 1145.9 239 235 226
76.7781 103.229 1151.55 49 36 33
287.706 14.1986 1701.06 201 156 141
314.603 20.2354 1539.35 185 164 152
7.96397 141.55 1234.73 220 176 162
193.838 60.1432 1446.9 135 106 93
-28.6881 294.939 1238.97 254 231 213
221.497 243.028 1539.98 107 138 134
