-128.464 -48.7584 1502.03 240 229 225
-101.667 155.06 849.983 197 194 189
-0.189737 327.934 970.807 229 220 217
-1.17583 3.37341 1119.25 255 242 245
-124.75 -12.4448 1595.96 255 240 231
10.2393 -10.8598 1168.96 249 255 250
130.531 36.4592 897.085 200 205 193
-69.4755 205.747 834.827 197 193 190
25.7239 331.155 962.793 238 218 212
90.9643 0.271398 1089.43 252 254 243
39.0321 25.0413 1001.13 240 240 231
46.5412 22.5213 1002.18 69 78 74
-109.25 -4.60552 1601.58 178 157 155
36.3372 278.165 928.502 232 231 220
-122.899 -53.8409 1598.07 241 232 230
86.5729 351.662 973.957 182 175 173
49.8742 11.2034 982.195 251 227 222
-98.0414 191.991 884.957 243 251 247
-69.3724 40.7932 1021.7 34 41 32
-9.59593 -23.0352 1383.25 58 49 35
43.2823 269.229 929.235 222 208 197
-52.9374 79.2881 917.611 241 235 228
-112.565 154.656 865.247 195 188 179
92.801 8.0142 1047.84 194 201 194
-35.5141 18.9942 1068.74 246 207 211
-76.0169 -26.6029 1616.34 124 124 127
-48.4245 88.4851 918.795 226 234 234
158.722 232.656 967.21 21 27 25
-227.518 -101.805 1465.73 174 141 128
26.8291 254.423 905.221 242 230 223
-138.685 -30.1421 1598.04 60 31 19
143.62 124.281 950.263 19 0 0
45.6907 290.265 930.587 198 173 165
-214.249 -46.5364 1490.44 200 191 172
228.494 358.626 1045.86 196 170 165
-79.0631 27.2051 1129.49 240 227 219
-264.012 5.12105 1564.98 97 77 67
-225.451 -60.4695 1565.59 204 184 166
-216.739 -101.044 1480.87 193 165 152
82.1675 354.767 1009.91 176 181 190
-36.0723 -121.682 1608.02 44 49 31
-67.7155 -111.032 1904.41 145 163 161
-287.131 9.92821 1719.79 255 254 242
180.678 376.994 1039.72 199 160 149
-27.5918 11.1844 1069.74 246 250 245
-28.0791 -54.8974 1623.31 180 165 163
-5.15066 296.751 922.213 207 186 185
162.162 228.149 978.6 43 36 23
145.137 259.395 978.109 208 186 174
177.788 244.763 1007.33 131 131 129
-16.0321 -62.9195 1624.7 91 87 77
-151.574 -139.964 1638.03 162 145 123
-79.5284 39.1274 1078.77 252 221 196
240.687 403.339 1009.35 36 18 11
-46.0756 -24.7141 1616.58 178 139 127
-56.6786 300.641 930.842 214 193 175
225.317 306.357 1043.52 79 55 48
79.8822 -15.7694 1086.46 54 42 38
-101.278 81.5547 942.486 172 212 204
132.572 226.245 940.599 68 54 48
-198.08 -122.005 1562.64 172 152 139
46.3862 -7.8387 1126.96 59 18 5
-298.406 -32.1934 1710.33 113 101 89
-211.198 24.1661 1263.53 232 212 196
-102.12 87.6302 908.838 81 106 98
-119.377 84.419 975.063 78 92 88
-37.7078 19.0733 1004.23 19 17 21
24.8343 -20.7408 1013.48 131 127 119
17.8149 263.012 904.004 75 85 78
140.052 249.317 990.743 86 52 27
-75.4283 -59.0734 1527.94 182 156 150
24.9528 111.86 950.665 36 37 31
-146.207 111.23 948.319 182 219 217
-86.5868 87.9167 911.797 198 219 221
97.7783 349.149 941.406 168 161 166
-239.835 -25.0842 1326.25 250 242 223
-56.5554 29.4938 1065.3 96 59 58
17.2357 265.42 893.362 158 163 155
142.903 110.995 927.681 71 32 20
18.995 -22.9268 950.005 221 219 213
103.252 272.304 972.628 3 3 1
-200.531 -17.2384 1499.4 153 146 144
65.6736 3.90451 982.702 134 123 111
104.383 267.426 938.696 13 7 6
-53.3124 153.646 847.585 69 87 82
-253.717 36.03 1574.21 131 108 87
-235.679 -98.4066 1555.12 188 160 141
80.1956 75.8178 876.354 128 113 88
2.2378 102.789 798.991 224 227 217
142.425 40.4714 913.104 49 50 42
-52.745 336.685 961.475 201 182 169
-19.6213 56.8451 956.463 236 217 202
-32.5236 182.588 925.322 126 128 125
55.6046 64.9875 902.641 182 208 214
-32.6958 44.2923 989.916 140 106 95
73.9188 275.852 968.173 38 21 1
16.7602 333.801 973.942 35 39 35
-23.7464 -89.3579 1711.04 96 86 68
-102.341 170.874 911.935 146 150 151
101.247 -13.6497 1131.78 147 141 132
-66.5488 160.802 918.344 88 104 102
125.469 230.695 939.844 151 129 109
231.249 350.705 1056.97 149 110 94
110.428 376.717 1015.64 148 138 145
-23.1464 9.08923 1139.27 88 84 90
44.083 -26.6224 1226.5 158 158 151
-14.3241 19.0586 1072.75 225 198 174
-38.4239 331.858 951.13 193 182 175
192.527 188.995 995.353 91 67 59
21.5608 24.9391 998.263 219 193 177
-61.9481 76.8625 915.895 188 165 160
-22.9002 39.4741 991.422 240 221 208
-26.6099 302.291 965.266 181 165 149
19.6989 106.881 898.989 141 144 135
39.2404 0.42486 1080.99 246 186 167
176.158 354.407 987.486 97 61 50
40.0586 -20.651 1073.74 120 114 99
99.1298 326.536 960.057 51 42 46
-76.5904 153.748 872.045 29 69 69
65.3031 207.003 942.477 120 66 49
76.8756 -43.7675 1155.5 101 97 89
-57.7685 290.231 891.861 213 193 173
32.5544 -9.7578 1037.08 182 145 143
-14.0699 303.515 932.506 55 35 22
-69.8021 -52.2027 1606.18 156 130 122
113.773 363.092 978.745 54 29 35
206.112 266.591 1000.6 39 21 16
-107.511 79.7754 977.288 71 102 96
-214.915 -29.7556 1574.75 138 135 123
-86.7666 176.005 915.111 105 110 104
154.611 94.9616 917.483 78 56 40
66.6272 277.883 967.116 74 47 25
-140.59 93.6276 971.025 217 240 236
67.5759 69.9975 989.343 24 80 78
55.799 194.947 940.542 199 137 115
-21.9633 299.549 952.758 70 45 27
-314.667 -156.391 1599.74 232 218 200
94.5071 352.876 961.015 157 147 151
98.5831 306.154 973.669 32 64 82
80.1873 242.142 981.356 138 103 96
117.61 10.6839 956.921 59 59 50
127.502 166.316 905.024 178 134 118
126.776 172.726 927.126 89 47 24
-62.1129 233.828 921.812 170 165 166
-37.5814 46.6985 989.149 246 209 200
87.755 257.352 935.68 63 63 49
152.923 286.915 994.013 14 56 61
-117.994 164.297 876.903 135 129 121
-20.0948 322.265 1016.96 155 120 101
14.0827 295.667 994.986 145 149 144
207.383 394.042 1044.02 103 56 49
89.477 -42.7734 1210.51 90 83 71
-281.138 -116.846 1625.64 69 57 37
-133.73 -111.924 1309.12 110 98 80
122.944 13.5578 991.598 92 101 87
94.1057 259.782 948.775 137 142 133
130.236 256.373 975.781 132 114 99
52.7616 -2.25861 1083.07 191 165 151
