74.3925 245.819 880.833 235 232 221
89.1492 312.054 964.133 252 254 252
10.7199 193.884 848.929 230 218 215
-93.4505 -29.1303 1602.39 71 47 38
124.861 -2.43661 1004.08 71 80 70
0.452634 19.2937 1035.09 42 32 24
105.989 477.255 990.163 179 179 172
-86.5966 -28.6724 1384.68 131 101 92
114.989 317.135 961.469 193 173 172
165.732 -17.5458 1016.41 207 213 207
117.259 0.0453849 1003.03 245 242 235
214.704 9.93228 900.761 169 183 175
226.229 12.1696 902.09 34 37 30
76.5053 -34.0393 1107.46 203 212 208
269.051 351.626 1019.87 228 201 190
156.368 -25.832 1048.59 248 248 240
168.91 324.445 969.035 174 185 184
181.261 345.599 998.948 198 192 185
-8.22835 8.41925 1112.57 255 210 219
79.4213 282.011 913.335 212 195 191
43.3696 -12.1081 1103 254 242 249
28.3336 55.2798 878.198 234 227 228
130.168 -13.9356 1030.15 236 234 227
-13.3756 -41.1615 1689.97 160 124 106
312.858 328.622 1015.05 168 148 140
53.3794 0.092201 1041.03 233 188 172
130.499 256.912 941.241 236 220 214
-198.67 -127.622 1624.25 172 151 134
-237.975 -28.2555 1558.1 250 236 219
-16.7925 167.239 836.369 167 173 166
29.9565 -1.15869 1015.15 219 218 217
96.4585 245.871 947.984 160 138 121
-8.56764 20.4361 1095.18 238 228 212
-167.269 -144.396 1632.46 158 140 119
-68.113 -21.4344 1619.17 183 165 162
120.993 261.01 918.849 207 187 178
274.277 346.787 1020.47 86 51 41
115.326 243.664 926.26 212 200 179
-192.872 -59.4242 1568.46 158 154 140
60.4304 -18.7875 1019.34 189 205 200
250.513 213.796 977.958 38 37 40
-234.411 -20.5976 1560.29 130 100 83
-192.717 -70.9641 1566.94 182 173 152
224.613 240.425 940.37 140 142 140
31.6749 61.8537 849.668 227 230 228
141.264 -22.9008 977.488 92 92 83
348.208 403.914 1060.96 92 78 67
227.997 213.196 975.224 71 52 38
219.664 214.626 939.392 79 47 27
-198.119 -120.067 1527.84 183 153 134
-115.578 -161.918 1646.49 156 134 117
26.9349 281.712 905.186 199 173 156
100.279 301.238 916.847 123 122 121
67.1979 -2.62949 1126.19 225 201 194
-219.878 -127.077 1726.15 197 171 142
-30.1087 -69.2143 1614.21 122 101 91
13.9417 -101.526 1620.89 56 51 43
193.515 251.84 961.743 11 5 4
20.2722 -75.9743 1630.32 58 51 39
66.5732 -33.839 1017.66 90 93 88
203.997 356.255 1011.6 145 146 147
12.8775 7.71659 1026.55 106 50 52
-79.0749 -81.6787 1803.17 197 164 150
29.1239 137.272 842.616 41 62 57
-220.281 25.7727 1570.98 164 134 114
217.733 216.571 963.49 144 118 100
6.0297 -86.435 1719.19 55 52 50
19.3549 219.046 953.545 105 94 94
-178.001 -44.1412 1575.18 164 144 137
-237.846 -35.9213 1557.13 129 100 83
-11.5261 65.5021 946.722 86 100 117
-230.961 -5.2104 1563.45 153 125 104
-202.157 72.8395 1582.86 128 115 91
250.4 199.222 977.627 172 155 139
19.8537 209.699 879.986 122 119 121
40.0529 21.4714 964.334 165 135 118
-245.092 -1.38976 1673.56 255 241 221
49.8003 157.656 874.759 117 123 122
-282.404 -129.26 1595.71 229 214 190
270.55 207.007 980.151 131 122 120
-155.711 -135.616 1451.72 177 154 131
206.472 329.293 965.669 223 157 152
138.216 164.837 896.087 202 132 105
-231.856 -41.2226 1471.23 251 236 209
0.442732 9.07417 1034.97 140 84 70
165.544 -8.59829 996.308 99 115 113
-24.7565 -100.304 1457.39 129 162 152
213.836 207.34 917.551 168 144 123
203.362 260.801 972.938 38 49 44
6.04716 132.539 839 39 66 63
206.889 354.343 1002.68 57 53 52
164.333 -4.79813 971.866 177 206 199
250.917 203.765 942.849 173 179 178
161.406 50.6821 856.653 133 115 101
32.0883 310.676 914.649 174 146 137
106.987 -29.5886 1000.66 109 56 30
150.562 -38.9215 1052.5 194 164 150
-182.173 45.3346 1578.49 159 146 137
-223.894 17.9955 1568.8 246 226 208
179.252 276.077 935.152 29 69 77
23.9656 61.7503 877.708 80 77 75
277.624 158.476 979.701 99 78 70
169.568 314.43 886.924 185 179 180
119.057 -49.5415 1184.17 156 158 151
-3.15135 -129.132 1457.93 43 38 26
-38.4014 -82.2854 1678.35 152 127 114
-244.775 -126.395 1609.02 73 65 44
135.483 278.37 942.977 187 180 168
-1.81004 -95.7782 1528.85 16 23 25
235.116 68.3637 894.189 94 75 64
213.756 144.098 904.911 168 124 114
93.3826 4.8227 971.314 209 183 169
6.02405 -90.8658 1394.55 72 84 76
54.5795 434.165 924.715 33 35 31
11.7495 -74.6865 1693.24 152 134 131
161.302 256.894 967.324 45 26 14
295.351 262.365 974.249 36 3 0
-14.8589 -56.6832 1543.08 160 103 93
64.8649 281.198 925.462 188 151 135
-176.186 -27.7626 1642.42 110 109 102
181.499 239.053 935.038 140 143 142
32.5087 3.85346 1015.79 112 52 35
260.838 255.416 979.922 98 117 121
197.174 469.239 1042.94 85 95 89
63.3277 274.443 910.721 83 44 30
212.759 279.652 939.36 42 72 78
157.653 -38.0118 993.827 82 78 69
18.5099 16.7833 1038.29 222 193 181
92.0796 22.2684 999.793 104 140 146
4.74532 284.376 910.113 66 62 54
201.123 330.704 973.306 172 142 134
-116.122 -130.213 1581.74 221 202 187
-105.066 -129.909 1554.68 174 156 137
-127.48 29.7396 1193.2 163 150 137
145.104 178.349 897.221 143 89 60
104.627 276.515 990.543 148 150 151
146.604 248.243 922.025 103 65 49
