41.0143 -29.9625 1225.57 238 229 207
-3.91881 11.1934 1119.28 255 244 231
186.246 400.764 1858.97 2 9 11
217.229 -69.6571 1587.57 253 231 218
195.46 391.633 1859.16 222 243 244
26.3292 25.4656 1203.41 131 67 38
-25.9616 404.238 1117.87 233 214 195
-20.3965 438.595 1121.12 245 239 228
-5.99561 421.74 1215.57 250 245 236
-19.9939 487.941 1159.25 187 184 182
253.211 247.801 1831.71 124 119 108
203.932 28.672 1603.8 244 230 220
-9.06395 283.283 1136.31 255 241 232
-3.29011 366.334 1141.72 58 45 37
-62.564 198.33 1092.5 34 5 3
-56.6126 84.5524 1068.68 136 53 24
-56.6057 79.2595 1068.36 252 219 198
221.021 -40.3203 1678.26 245 224 222
-20.4252 404.655 1119.06 118 100 82
20.3111 19.5157 1201.83 190 122 94
-9.34705 385.675 1120.16 75 63 61
-0.519008 395.465 1195.35 243 239 232
220.745 -48.5356 1676.44 90 74 65
-26.1255 316.375 1086.48 121 91 88
-20.2248 399.525 1139.74 255 251 241
231.691 22.0628 1693.37 109 89 72
-31.4913 395.86 1137.23 183 169 170
109.701 -130.868 1549.75 60 60 61
-54.6417 82.8726 987.795 179 116 97
245.092 57.977 1765.97 228 228 219
-49.9177 141.971 1064.71 242 222 221
14.0549 -24.7594 1277.71 78 63 39
-97.6086 268.257 1049.62 178 163 149
-166.81 486.933 1190.15 149 152 144
-51.3731 105.844 1071.05 231 196 180
22.6521 178.768 1186.57 144 105 96
-119.114 77.8519 1013.44 168 145 138
40.5304 440.971 1215.31 115 114 113
-25.9286 463.636 1121.38 119 102 83
-44.2535 183.763 1034.3 252 240 245
43.652 475.056 1295.5 101 100 99
-16.5249 275.395 1006.17 163 166 165
-11.8446 314.429 1137.41 130 105 115
-52.1891 109.803 1046.28 149 70 52
-30.1473 283.87 1085.12 131 99 83
-60.1657 68.7976 1155.01 255 246 229
-64.5781 193.348 1030.7 202 176 160
-45.779 84.6168 966.978 89 81 76
-59.3397 58.282 1024.6 166 136 117
-14.421 277.934 1154.65 199 163 160
-48.8029 196.734 1076.82 134 91 75
-9.52586 1.8158 1194.66 171 154 141
-1.24431 443.681 1226.46 213 201 190
-102.319 326.366 1169.01 148 134 129
-4.59351 441.44 1146.45 60 36 19
-20.1757 465.314 1142.42 72 62 46
23.9108 226.453 1214.33 160 155 142
-46.8147 209.441 1035.05 101 78 70
-20.6052 458.598 1099.51 230 226 216
-47.3666 500.187 1167.65 144 146 136
271.72 97.3337 2033 47 19 19
-3.91732 315.477 1116.51 158 134 131
102.163 266.733 1595.34 123 145 142
-43.5263 299.418 1083.12 102 95 91
2.78156 264.337 1157.62 133 113 106
-105.712 121.726 1035.83 155 129 124
-34.2464 378.271 1114.46 194 181 170
266.482 -187.529 1738.12 202 209 211
-11.6964 445.935 1143.42 197 195 182
10.2577 486.034 1253.72 249 253 250
8.31057 351.013 1194.82 235 232 209
-61.6209 11.8758 1156.31 57 52 37
-55.9819 67.7223 947.396 121 60 30
31.1873 209.686 1304.63 136 117 101
-185.696 263.334 1144.78 58 10 3
-217.297 460.35 1174.79 148 140 124
-16.6008 27.4951 1219.64 228 203 181
-23.8019 145.703 1036.31 115 63 55
78.2552 324.694 1347.73 124 125 117
-2.91709 308.563 1101.83 255 246 245
28.6942 208.624 1189.92 97 91 79
-54.3616 114.283 1028.68 193 128 111
-13.4037 260.068 1043.93 246 205 201
214.007 378.03 1860.36 117 143 149
-19.5326 122.43 1078.38 255 236 222
-40.8421 223.918 1079.91 244 227 215
212.596 -12.1636 1869 64 27 18
-42.5732 22.2478 1112.55 200 172 154
174.438 -14.7544 1590.55 144 120 112
-3.85766 346.462 1118.7 236 209 189
23.5738 214.549 1174.34 119 110 91
36.5576 -8.56644 1174.03 213 177 144
-11.6908 451.67 1143.64 114 102 85
213.003 60.5923 1611.23 75 55 48
-34.1046 104.914 1049.61 164 169 166
-69.8463 150.677 1069.88 86 42 35
59.8063 154.903 1173.47 53 48 43
224.775 36.611 1689.32 120 100 90
44.4908 83.5906 1207.45 255 231 217
195.455 74.0512 1688.66 148 137 120
-26.1241 101.399 1094.86 161 144 133
48.3621 96.3401 1296.33 249 228 209
-42.1391 244.433 1076.41 251 232 213
-31.4812 426.376 1118.06 71 66 61
14.0632 141.144 1154.52 146 116 98
2.55257 123.733 1151.38 255 244 237
-72.5745 206.556 1072.4 163 140 123
-54.176 288.026 1080.38 193 173 165
-183.097 280.696 1146.54 86 33 24
-20.5351 25.0154 1117.12 179 154 132
-40.6721 24.4582 1214.29 89 61 43
-296.806 66.4255 1101.43 45 25 17
167.755 426.141 1756.21 115 123 121
2.25429 298.491 1245.82 249 241 230
-30.1621 235.16 1082.67 243 205 177
-31.5773 22.256 1114.75 178 150 130
-28.7384 373.026 1115.29 170 158 156
-22.215 103.652 1076.7 255 252 244
-93.2743 128.878 1063.66 74 42 29
-61.9788 161.541 1072.14 106 77 87
15.577 131.428 1121.09 253 233 207
-79.9097 -17.9073 1258.1 117 138 148
232.966 52.7454 1882.15 89 67 63
-161.883 70.1813 1045 124 100 87
7.58046 66.9039 1174.9 255 239 223
12.8216 76.7615 1287.9 223 184 168
263.718 41.9123 1915.52 216 199 190
-88.2329 184.678 1067.87 86 50 32
-22.2365 71.6669 1074.67 255 253 236
30.5561 253.95 1325.48 180 162 144
-34.5655 456.472 1220.06 127 118 111
-24.8858 90.2727 1075.34 179 158 149
-239.059 435.025 1135.12 83 68 53
-20.3143 288.401 1134.28 174 126 102
-27.4807 246.077 1083.78 221 195 167
-108.928 373.246 1119.3 63 41 30
-37.0007 417.466 1116.34 117 99 86
-14.9185 91.5797 1123.02 255 246 227
-24.2869 448.969 1169.47 216 212 206
235.707 -186.953 1733.73 211 226 230
138.314 7.91966 1768.5 34 23 12
-243.882 10.2221 1218.42 81 57 36
-194.434 95.47 1038.69 96 47 19
172.7 283.601 1800.38 116 141 126
207.549 -123.564 1575.63 63 49 35
-16.9115 71.7278 1075.69 255 248 233
-35.9182 494.645 1192.4 161 142 118
-41.1707 195.327 1114.01 220 209 201
-54.4543 211.725 1033.63 144 105 83
-159.477 85.7528 1046.43 152 101 89
-51.4618 207.371 1076.85 124 91 82
