123.582 -56.4565 1656.99 233 210 197
-85.4778 503.808 1149.7 229 231 222
-54.5328 496.087 1240.14 230 229 228
-68.2055 25.0688 1183.65 254 245 228
-78.1653 437.778 1081.57 216 200 186
112.942 46.3452 1675.86 251 240 235
141.282 261.907 1821.6 82 75 64
96.5822 334.737 1826.19 44 69 71
-116.841 310.982 1114.38 220 209 189
-102.278 217.272 1023.99 58 41 36
-117.108 196.28 1019.82 65 50 46
-87.1103 434.619 1154.41 243 233 211
-70.3732 291.299 1123.77 255 236 226
125.92 -33.6269 1751.87 130 95 92
-64.9818 407.452 1130.63 225 220 213
115.858 -23.8296 1662.2 243 209 206
125.459 38.0757 1676.79 76 57 36
-72.7271 330.86 1150.16 117 102 96
-111.742 231.362 1065.21 242 209 195
-28.6283 -1.18896 1247.31 228 213 201
115.529 51.7319 1591.17 92 71 64
-109.292 90.301 1016.14 150 70 49
-116.681 -5.66284 1250.54 159 177 174
-105.644 100.943 1035.03 81 66 45
-115.365 102.482 1077.28 213 164 143
-44.6274 200.033 1174.05 146 125 112
17.9218 -120.98 1619.14 45 44 43
-87.2036 482.11 1128.82 118 109 92
-179.515 92.0132 1033.13 140 123 116
-113.934 130.74 1059.26 178 116 90
-73.9857 13.3894 1181.65 187 164 150
-164.827 137.232 1048.04 168 142 133
-58.2551 -12.0623 1263.57 93 70 53
-38.5482 37.7797 1131.58 164 82 59
-88.8352 435.443 1106.02 53 38 29
-67.0125 364.583 1106.47 171 133 119
-55.6945 435.859 1090.16 254 254 249
-56.5499 13.434 1185.47 255 250 237
-109.562 163.56 1019.85 96 69 60
105.125 31.4772 1762.81 226 200 184
-47.3811 31.6977 1160.85 174 109 108
130.523 79.9118 1686.23 231 224 222
-56.4085 477.781 1187.21 72 76 73
-359.32 78.2635 1083.49 29 16 11
-78.6819 321.785 1123.53 136 119 124
-89.5121 113.401 1021.49 135 134 125
-64.3821 398.452 1157.12 218 214 204
-108.856 149.338 1061.43 255 249 232
-43.7611 197.213 1228.17 154 116 101
-125.248 203.448 999.321 240 202 190
-67.3336 462.816 1160.81 120 116 88
4.60744 351.16 1399.29 114 113 110
122.256 92.4708 1686.98 130 116 100
-116.595 81.0535 1092.71 244 211 186
136.733 341.722 2071.99 102 128 129
-72.4461 369.772 1105.6 255 246 236
-79.434 489.355 1212.1 220 215 202
-94.0901 390.348 1102.07 187 180 166
-42.0348 202.761 1207.31 253 246 229
-231.97 88.3819 1096.43 145 113 98
-88.4807 296.794 1073.5 165 152 138
89.1758 0.980832 1722.38 154 118 109
-250.548 109.079 1025.37 49 14 8
14.4803 -115.433 1716.74 41 44 34
-53.6274 7.59122 1185.73 131 108 83
128.179 -36.126 1662.13 250 246 238
-78.7819 380.919 1126.43 161 158 157
-240.271 288.114 1104.68 53 2 0
105.51 96.8487 1889.16 158 138 120
-103.863 199.822 1065.29 253 252 249
-95.5681 34.2804 1150.61 197 169 148
-100.448 113.617 980.225 203 107 89
-44.9284 235.651 1200.25 159 151 136
-84.0763 330.359 1092.43 165 141 139
-101.597 146.234 996.442 129 53 32
-100.417 264.437 1115.63 229 221 204
-90.7221 268.294 1168.2 197 164 142
-123.915 349.373 1245.67 133 128 119
-63.1417 23.5859 1334.89 254 223 198
-86.2084 361.941 1196.29 254 239 235
-242.619 271.248 1102.68 76 23 0
-229.974 459.291 1093.16 124 115 105
-30.1473 11.7756 1310.08 202 169 143
-81.0506 161.524 1055.87 168 128 114
-89.5239 315.283 1145.09 176 138 125
-79.829 39.6056 1181.95 252 237 212
116.704 21.4681 1671.63 210 179 164
44.1225 92.4627 1762.77 140 133 118
-81.0102 137.316 1112.31 252 226 210
-86.8229 279.166 1119.48 254 234 205
185.204 106.41 2174.31 128 118 98
-62.1105 334.728 1178.67 177 154 149
-56.3355 361.748 1181.49 202 197 179
-43.7515 178.82 1226.72 176 131 111
-82.7985 107.749 1064.63 178 143 133
-59.8087 272.778 1144.98 144 126 117
-61.8355 138.231 1165.9 254 245 241
-65.6772 416.453 1110.07 231 222 210
-88.685 382.436 1102.79 174 148 143
-89.7902 382.926 1124.08 207 200 201
-114.133 67.598 1013.92 182 154 129
105.043 15.505 1517.24 127 85 66
-84.6158 163.209 1101.91 127 94 91
-30.1081 -116.087 1607.58 152 153 131
-92.4255 334.961 1121.15 239 235 236
-126.819 157.935 1015.84 101 53 40
-58.6978 259.477 1100.89 255 250 248
-101.715 527.898 1235.55 178 165 146
67.3948 313.238 1872.31 106 130 126
152.226 97.0021 1694.05 239 235 211
-100.85 296.522 1040.1 226 219 223
-217.717 443.035 1141.93 143 104 77
124.03 -118.647 1731.06 62 54 38
-77.5221 81.4403 1064.17 255 253 228
-85.4152 112.987 1064.39 254 252 247
-80.2068 113.09 1065.49 253 243 233
