248.825 151.837 1817.97 12 10 5
13.1098 -21.6909 1168.54 252 221 209
408.949 -121.501 1524.07 252 233 222
22.695 -22.5994 1222.81 255 221 199
-38.8225 216.174 1176.17 255 242 222
-16.0235 468.235 1251.63 233 234 225
-15.8203 399.016 1272.16 37 22 19
-3.25281 353.25 1140.67 255 254 245
-16.4669 378.731 1217.43 250 244 226
62.3591 -8.93454 1207.96 103 36 16
56.4595 -13.6072 1230.01 112 48 30
11.7921 369.472 1252.09 246 248 247
9.95722 397.447 1242.97 235 223 224
-34.6074 378.911 1242.5 233 237 236
2.49058 387.755 1251.2 255 252 247
-28.5039 390.204 1215.72 251 233 209
-40.9734 202.771 1096.87 55 42 25
8.2847 334.48 1148.78 255 249 244
51.1503 111.817 1240.73 167 125 101
458.928 244.183 1771.99 229 250 251
105.223 408.358 1317.15 85 84 81
-64.4343 58.7978 1065.48 135 97 83
409.554 -189.335 1587.65 211 204 191
-43.4269 72.3057 1070.52 115 110 105
-20.4013 357.839 1115.63 172 136 118
-53.3442 277.374 1176.9 89 72 72
419.575 -92.4063 1609.09 227 216 209
426.603 23.1586 1633.79 110 106 107
57.5628 139.811 1244.42 252 234 223
-79.0404 170.871 1164.23 35 10 11
2.62915 310.082 1102.74 170 148 126
377.614 198.984 2098.36 204 198 190
43.8851 146.314 1301.1 237 206 189
-1.37423 277.901 1161.07 149 142 142
-125.241 503.179 1428.51 211 207 199
518.145 -255.283 1660.81 200 225 228
449.584 239.535 1769.9 67 93 103
51.6718 195.642 1247.95 127 107 97
57.6047 146.014 1244.97 165 123 91
-22.4235 449.456 1221.72 137 111 91
394.832 261.966 1865.97 29 57 52
41.858 114.735 1239.17 129 76 58
-4.26657 -10.1311 1166.19 252 228 207
51.1104 105.642 1240.17 252 239 213
51.5969 183.175 1246.92 255 241 225
42.0673 151.84 1242.41 255 249 235
-16.5168 344.803 1214.55 117 64 64
-61.945 157.046 1071.75 88 60 51
-77.425 34.9852 1061.38 255 245 217
-31.4927 255.003 1129.79 90 83 65
-30.176 69.8796 1136.38 154 125 128
541.503 392.951 2167.57 219 241 247
67.1665 171.147 1248.96 255 249 229
26.1229 311.386 1195.74 226 220 204
-67.1225 103.711 1067.62 254 239 240
-75.3816 58.5442 1108.29 253 211 186
397.439 23.1138 1630.53 172 175 165
-23.4578 454.916 1310.72 176 163 150
8.29908 325.364 1192.92 242 221 206
2.55621 419.28 1253.04 133 127 125
66.0305 139.258 1340.67 151 100 74
-72.3105 79.8266 1065.14 165 73 56
312.751 -195.711 1576.08 86 89 89
-73.4704 46.3815 1000.01 252 199 164
505.952 -39.1002 1712.99 240 227 218
-70.772 79.419 1095.03 253 216 205
518.644 -43.3113 1712.91 137 128 118
-31.4776 288.98 1131.64 177 143 127
-24.145 368.175 1188.45 95 80 69
522.219 294.743 2009.97 149 164 175
12.661 266.978 1115.87 136 114 108
-67.0839 79.9057 1066.22 254 229 217
-90.4318 176.276 1162.01 218 185 172
63.3198 415.452 1237.11 249 253 255
-4.27047 422.974 1223.66 255 252 243
429.592 -35.4456 1542.39 255 249 234
-48.1471 217.965 1218.02 224 215 196
89.9011 160.433 1311.62 181 155 132
-48.6898 56.3305 1068.49 115 97 107
-64.5689 151.671 1070.89 196 194 200
-28.7549 47.1134 1160.77 153 133 139
-0.886932 -13.2042 1185.42 195 160 137
55.2111 148.295 1190.36 200 184 174
46.0881 115.56 1186.09 255 247 226
10.9729 424.146 1227.03 122 110 85
40.6073 578.182 1325.55 183 209 199
48.4009 170.63 1245.25 255 248 239
67.5392 176.937 1215.23 182 182 175
-33.0929 135.869 1197.62 219 184 173
57.242 93.4025 1240.25 182 135 111
384.082 -68.6579 1610.35 149 127 117
1.78861 85.4607 1175.13 255 254 237
-37.6761 372.449 1241.42 216 209 204
335.385 -229.397 1651.93 223 194 188
458.558 -61.0825 1619.38 239 226 211
476.121 -116.778 1705.71 211 202 196
-61.922 200.581 1170.08 240 225 205
-9.31682 103.876 1124.87 255 244 228
101.933 181.483 1256.4 162 136 126
-56.1664 200.829 1171.36 246 245 222
544.041 219.025 1999.61 140 144 133
-47.423 61.5593 1163.19 171 148 153
64.3228 158.605 1212.65 192 161 139
-51.4213 202.897 1076.42 255 250 237
401.871 -44.9599 1617.17 213 166 149
40.1864 121.348 1185.42 170 133 114
-16.3744 443.745 1222.62 105 85 80
285.46 -247.759 1725.17 192 190 188
66.9971 551.692 1305.85 186 198 191
-61.914 194.727 1169.69 142 135 121
6.40273 292.679 1180.06 127 106 104
-81.9075 169.749 1102.36 204 167 156
413.286 -60.8957 1615.08 236 196 186
452.076 10.3617 1553.16 215 191 182
-72.8034 124.776 1113.19 177 143 137
-52.0821 242.046 1044.6 210 222 225
-12.4776 279.475 1185.86 252 241 251
10.5831 91.4428 1177.34 254 244 255
489.526 -26.4058 1714.71 249 239 237
93.3658 57.2781 1189.8 255 244 218
20.7047 235.05 1244.75 237 192 184
481.956 -21.2207 1629.91 234 206 194
-17.3643 321.161 1141.81 157 92 90
-85.4176 113.947 1064.39 89 48 27
-46.4596 55.2005 1097.3 244 255 253
35.4403 103.947 1293.79 247 210 189
64.2689 205.433 1251.22 172 147 134
-0.966712 367.633 1120.27 205 201 196
-50.3727 165.958 1170.23 162 120 99
112.736 56.4463 1375.85 197 128 106
-31.4664 273.149 1107.41 189 170 168
377.553 -226.13 1657.19 117 103 104
-68.3589 110.042 1103.74 140 64 49
4.25921 231.42 1158.24 226 208 207
59.1841 -58.9416 1226.02 93 71 57
464.753 -76.4169 1914.49 67 30 20
274.034 -164.76 1577.34 29 31 11
-33.0028 239.981 1178.99 253 241 221
380.056 -84.516 1405.58 150 158 162
542.539 -118.329 1696.03 242 244 213
-30.0852 246.046 1180 160 104 82
-175.945 224.678 1255.96 101 40 17
375.842 -94.4201 1452.85 39 12 3
-42.6238 172.917 1122.63 236 223 182
411.299 -80.5622 1532.07 213 193 196
-12.829 -7.84195 1007.56 184 160 133
-128.212 113.006 1323.28 82 47 30
-20.2663 289.565 1134 255 252 246
-6.04041 315.952 1143.41 255 231 209
56.5232 588.92 1369.56 175 193 179
-31.4676 335.667 1152.72 167 164 163
409.327 -22.9592 1468.37 238 231 229
460.977 408.848 1907.05 127 139 136
-34.5082 402.058 1215.34 130 128 122
-37.0867 89.4389 1118.33 175 157 150
-41.5152 439.8 1164.61 103 96 86
55.5059 318.348 1257.88 175 164 141
459.32 330.448 1789.15 98 120 140
504.716 59.0928 1736.14 255 254 238
-21.711 92.6557 1140.24 254 228 210
391.208 -83.8626 1456.21 255 250 249
-13.1639 37.5936 1060.96 188 113 113
-37.0675 277.355 1129.85 254 245 253
-30.0517 334.808 1159.59 237 235 236
569.144 89.7635 1748.42 243 245 224
452.553 -119.137 1567.52 234 211 187
83.5674 590.998 1410.7 140 167 155
7.54445 -61.0454 1272.54 123 146 143
-69.7769 124.929 1068.3 162 142 142
550.733 -122.484 1695.45 159 160 142
376.603 -72.8751 1529.9 204 187 173
113.811 193.519 1225.26 196 167 163
61.8007 597.8 1398.18 96 112 100
-101.69 158.591 1158.2 89 38 18
-30.1553 102.362 1169.92 217 193 169
102.051 418.379 1317.96 85 87 83
30.8844 33.3041 1176.53 255 253 236
41.6193 283.368 1115.45 126 122 101
523.875 -85.0803 1703.07 253 253 225
381.274 -234.103 1655.69 227 200 200
-38.8222 251.556 1178.47 211 186 153
32.4791 96.0909 1235.68 206 135 131
489.885 81.0718 1622.78 252 251 228
-28.7644 364.455 1062.86 81 69 59
38.4802 40.0004 1291.52 205 179 183
-6.37826 52.3533 1282.49 248 229 213
403.598 276.251 1592.96 114 131 142
-4.06695 76.6038 1173.27 212 152 147
-129.572 115.225 1388.18 118 84 66
-17.0519 111.022 1320.58 213 135 116
103.623 206.886 1318.68 255 245 212
6.37781 300.834 1337.9 255 253 251
16.4716 97.3888 1178.96 219 157 143
-48.1111 97.5806 1116.62 224 190 203
506.21 204.355 1768.9 185 193 192
27.8177 320.259 1336.22 240 230 218
-31.5235 245.945 1165.85 163 79 52
327.222 233.379 1650.06 64 78 79
25.1486 34.3184 1119.88 179 142 140
14.0048 242.022 1188.96 221 201 179
284.935 -191.46 1573.45 107 104 79
-1.0885 19.9343 1237.89 255 238 214
-34.668 423.046 1268.89 51 49 43
-40.8014 224.917 1079.73 174 175 149
385.702 -101.549 1401.22 164 140 125
