-24.627 -40.0472 1088.48 248 254 249
141.841 186.191 971.832 249 234 222
-22.0052 -32.7333 1066.89 248 255 255
64.8346 -36.5141 979.41 237 239 236
-344.63 208.461 1413.82 41 18 16
144.948 252.758 976.327 213 213 206
-31.2746 -36.721 1109.57 99 111 106
70.9479 225.296 899.251 63 63 58
-36.7824 -39.4144 1108.3 246 255 254
-450.562 -4.05861 1269.83 233 213 196
159.909 253.339 978.411 238 224 210
-335.813 102.52 1472.48 244 246 244
-343.76 371.242 1519.8 232 236 228
-51.5322 6.15759 1022.72 251 236 219
-503.572 570.285 1783.25 50 56 51
-353.614 243.447 1487.56 88 60 46
-28.991 37.9866 888.312 51 59 55
204.251 -61.6376 979.34 34 29 26
-32.2575 70.8325 859.366 252 251 240
73.2429 229.906 899.896 237 235 229
-246.785 280.417 1448.53 218 205 178
164.365 204.006 976.073 233 202 194
-442.192 -4.02171 1273.04 237 211 193
77.1742 -62.4717 1081.27 246 246 233
-57.3371 7.20344 1000.14 255 248 223
210.396 269.905 1022.77 211 211 205
47.1824 90.4623 832.863 181 175 160
-308.615 69.4984 1399.85 243 230 221
-350.431 75.5497 1386.16 186 180 174
154.873 458.616 1024.52 96 114 104
-281.277 182.952 1431.14 170 139 127
129.92 198.139 937.363 192 181 177
-424.881 -16.6509 1278.1 207 185 165
-269.678 313.864 1589.59 12 10 3
72.2188 222.608 910.938 120 120 115
-23.3313 39.8172 905.538 252 254 250
60.9516 -51.8749 1079.72 240 237 221
18.6181 71.2765 839.39 222 225 222
124.283 -55.6937 1046.8 227 248 240
-19.5265 317.407 1088.65 79 63 56
-86.1122 43.0041 926.496 198 192 185
83.2088 -45.535 1128.95 98 108 101
-469.823 -0.62975 1358.46 212 189 172
-432.866 53.2255 1283.35 203 194 188
-336.684 253.017 1468.29 62 45 40
-376.362 366.763 1359.71 230 226 212
-461.666 306.286 1519.14 162 132 114
-455.9 188.143 1362.23 124 99 78
-27.7091 1.38994 1019.28 212 194 191
107.119 334.044 941.306 239 234 223
-49.4958 5.83363 1125.51 217 222 207
-312.8 239.547 1420.89 96 77 74
-156.407 51.2321 965.189 169 163 152
-344.872 219.64 1407.33 241 211 194
-378.675 74.8882 1375.9 43 25 16
22.8113 90.3034 840.477 253 255 242
-37.8611 -22.185 1064.73 255 249 249
-3.95504 -23.1427 1045.16 255 236 230
-38.5025 -12.4939 1001.34 255 245 244
-357.424 376.768 1505.26 182 187 174
-26.9092 91.2077 890.761 244 255 251
-331.987 87.8604 1471.57 53 44 35
-434.168 3.43068 1220.29 183 161 141
-431.533 185.783 1299.67 255 248 227
-358.312 331.219 1240.52 139 139 134
93.8091 348.016 974.278 250 255 240
-401.516 278.875 1335.72 216 194 181
-286.373 186.705 1502.7 68 39 27
14.7773 -6.18306 1033.52 102 67 56
-84.8901 260.823 1051.51 255 244 243
-45.6719 248.523 959.904 254 247 242
-329.048 -6.79669 1382.41 154 175 171
30.6574 104.596 880.449 228 226 213
-364.878 232.31 1410.79 175 144 126
-459.337 45.9703 1341.18 186 171 154
-63.4114 59.5466 899.745 246 224 206
-494.391 136.074 1397.15 248 234 219
-43.1646 -3.77126 1065.02 65 73 57
-385.101 81.5249 1374.48 158 149 142
98.7912 358.22 975.475 208 209 199
-428.973 195.76 1301.79 144 106 87
-78.7954 282.419 1121.44 243 232 219
64.9992 338.049 1085.69 93 109 92
-411.085 310.411 1395.39 251 240 221
-409.888 264.548 1330.35 255 244 223
-326.427 260.192 1418.91 162 138 122
-59.5658 52.9158 883.931 133 118 104
294.115 226.626 1105.28 203 160 146
-413.583 453.147 1429.7 89 91 87
249.104 163.307 1079.16 134 120 110
-307.51 66.3021 1476.84 74 46 37
-395.148 200.771 1262.35 230 200 189
240.316 73.3905 1010.26 66 38 31
-100.627 275.405 1116.39 36 35 31
-336.694 355.64 1442.25 181 182 168
203.511 262.255 1037.75 182 181 177
-352.423 200.536 1457.39 96 62 53
86.2479 -15.6001 968.4 6 65 60
-105.676 61.1364 940.828 221 214 193
-51.2887 284.013 1060.19 234 225 211
111.921 339.095 942.242 44 37 36
-142.903 119.553 970.829 251 247 245
-581.519 494.403 1837.82 94 93 93
218.297 272.842 1023.88 193 194 188
10.4084 30.3314 988.754 14 40 36
-458.627 181.104 1360.22 250 241 223
-97.923 14.3398 1055.43 216 199 175
-430.891 205.609 1313.11 254 250 236
-443.248 244.401 1453.94 182 157 137
-92.7031 41.1725 889.443 138 139 134
-489.876 260.459 1618.15 109 105 105
106.733 383.834 963.378 253 254 244
-315.387 103.018 1479.87 134 134 134
-328.025 56.5133 1460.99 193 157 142
-335.15 80.5188 1469.25 182 169 157
-458.455 122.059 1288.57 123 80 67
63.9075 124.052 863.996 27 17 11
-20.9766 25.7643 920.714 234 255 255
-611.536 151.535 1538.29 136 106 87
-415.239 250.58 1326.11 255 244 230
-307.186 13.9583 1392.71 46 34 42
-136.067 229.602 1126.65 133 122 109
-499.985 121.884 1393.25 232 196 176
-463.117 244.767 1511.01 81 60 54
-70.21 166.101 950.957 251 247 225
-419.455 79.2729 1291.45 130 123 111
-30.003 55.9321 846.826 84 90 93
-340.945 322.334 1302.62 234 220 220
-140.493 171.313 1074.62 160 149 149
-204.727 315.58 1331.66 14 18 5
-322.225 17.7461 1534.98 48 51 41
52.8562 173.331 884.997 227 224 206
-445.883 161.155 1362.53 64 63 38
-483.051 55.657 1263.98 255 225 189
-66.9333 170.427 989.348 255 249 229
-289.477 375.871 1810.43 22 21 16
-39.1499 283.852 1021.95 159 141 136
16.4747 148.644 858.202 241 246 238
52.0241 296.75 965.035 104 114 96
116.35 -55.6735 1045.71 168 175 173
-399.572 -37.2187 1352.93 162 142 127
-6.49912 71.0708 874.076 231 243 217
-280.421 178.403 1298.2 201 174 163
236.432 129.443 1014.68 71 74 77
-57.7286 112.319 966.06 244 235 223
-514.153 545.111 1773.59 182 185 179
143.393 175.255 921.519 48 24 22
-476.028 392.024 1473.13 133 131 132
-335.137 195.569 1487.05 225 206 191
-112.537 63.4421 939.512 206 191 169
-78.4988 -0.131259 1033.56 222 214 215
29.2961 236.885 984.589 98 98 82
15.3217 141.347 899.506 251 252 254
93.2026 301.334 924.423 239 238 228
-12.8533 -1.21439 990.286 154 139 127
75.3444 239.819 871.128 222 224 212
57.9125 307.606 951.461 103 104 103
-506.117 149.48 1443.44 180 152 138
-24.3465 98.333 957.4 234 253 241
86.0727 90.7717 894.171 52 62 56
-557.972 129.405 1387.48 255 244 231
-112.763 222.256 1042.99 254 251 251
53.5385 115.575 835.001 57 58 46
47.4309 -56.9426 1077.03 216 173 162
25.8019 140.729 888.211 252 254 239
115.83 223.714 936.838 204 173 156
85.7157 323.182 938.048 246 255 238
-32.8741 52.2524 780.478 209 229 237
-32.4248 -1.30524 986.884 113 85 55
-495.295 20.8415 1255.01 230 216 183
116.151 266.215 939.216 157 139 129
17.0336 198.308 889.65 210 212 191
-419.003 -22.9894 1279.55 164 143 123
-569.422 -0.710274 1287.63 252 248 235
-47.4607 188.504 993.862 244 242 220
-402.853 382.09 1422.89 218 217 205
58.4479 186.583 934.088 159 156 147
-50.0357 31.3385 949.69 172 224 223
-351.244 58.1351 1459.94 133 117 108
80.9037 306.342 936.69 248 255 235
-418.207 272.519 1467.84 218 201 202
-285.683 188.909 1436.52 154 112 86
-280.387 67.1609 1387.21 182 180 173
-311.285 -1.44638 1449.27 83 79 71
-234.384 199.666 1449.49 118 95 81
72.2948 240.808 911.656 242 245 232
-485.994 1.80914 1194.23 255 250 231
81.0112 332.422 937.482 237 255 244
-23.381 135.874 925.281 211 204 192
-362.948 353.027 1432.51 235 221 212
54.8105 260.525 930.162 242 255 243
226.726 285.332 1128.55 69 89 88
-478.161 71.3872 1267.93 255 245 224
-316.581 25.8369 1467.25 141 142 135
33.4599 242.535 973.586 118 130 107
-83.9749 6.05411 1016.38 61 59 51
48.3616 -39.6387 1036.71 95 81 63
-558.344 136.312 1388.5 163 144 128
-251.52 211.103 1518.18 63 31 17
-519.899 79.0769 1395.75 191 159 138
-345.162 232.006 1348.66 144 125 109
-120.372 232.857 1041.77 224 217 215
-0.826278 149.435 915.371 117 111 98
-4870.78 -505.926 9732.69 130 132 117
-450.052 142.439 1287.61 237 214 206
-120.404 141.195 973.026 255 250 245
19.8327 161.738 900.888 239 241 242
-11.4515 78.2122 892.765 176 183 163
55.2347 128.147 863.023 137 139 125
-491.917 576.049 1780.34 145 153 147
72.886 405.933 993.846 168 165 140
16.4617 129.31 857.315 253 254 234
-452.24 77.3472 1215.41 126 97 78
-61.192 394.476 1085.11 159 157 153
25.057 148.949 859.435 255 255 240
-473.123 84.1206 1271.5 249 229 209
30.3519 187.671 891.128 252 253 243
-543.352 11.1355 1362.06 244 235 207
-0.706411 135.43 884.007 114 122 113
-133.98 117.134 933.713 255 254 249
7.53185 -55.5271 1163.56 173 151 136
-93.6868 212.029 1006.48 255 245 228
-1158.33 130.119 1833.82 227 233 230
88.9331 357.584 973.895 233 242 235
66.493 269.913 954.843 252 255 245
-67.3754 2.58098 1038.62 199 136 130
51.0766 377.41 954.424 152 153 143
-557.523 85.8965 1305.81 186 171 163
-62.2528 325.623 1036.66 230 230 208
77.4358 79.0261 876.564 30 36 31
-614.278 85.2918 1424.69 145 137 134
57.7622 -42.6924 1125.08 191 183 172
-2.12517 136.445 876.399 94 96 83
47.8798 276.514 929.759 150 152 150
61.7367 -6.20497 1002.11 41 86 75
49.9435 15.3048 965.281 230 225 223
-296.914 55.4325 1478.79 129 121 113
-84.0214 172.562 1087.15 228 211 188
67.1988 85.5001 874.8 50 56 49
-457.719 -2.6111 1210.15 63 55 33
-673.662 76.4995 1488.58 255 250 245
-549.064 317.18 1603.75 170 172 173
-270.088 46.1555 1330.12 87 84 78
35.6521 180.36 903.796 244 255 239
21.3483 115.096 869.206 250 254 237
-144.573 134.943 1051.88 255 250 248
-66.0199 131.747 935.332 203 197 182
-531.084 183.862 1408.22 229 224 217
-393.939 -23.851 1356.86 204 187 167
-518.073 137.015 1330.15 147 126 108
93.9404 370.144 975.405 236 240 233
87.4406 422.512 1012.94 229 229 206
-501.803 93.1581 1354.14 252 237 219
-37.5641 236.065 981.382 165 160 156
-92.2645 193.79 983.531 236 218 192
-94.8348 204.585 1024.92 252 247 219
-39.8411 30.2452 987.626 126 136 128
-470.384 408.189 1478.6 201 200 198
-383.688 132.451 1149.02 193 170 152
148.42 -68.624 1091.15 88 103 94
-61.2028 311.119 998.669 229 223 206
69.6116 426.259 1010.06 250 250 246
-302.59 -37.8673 1320.66 67 58 45
-649 58.4179 1411.34 254 254 251
-518.266 176.883 1381.19 164 149 131
-468.789 148.515 1355.05 160 116 100
-301.653 196.41 1426.69 66 35 19
-486.216 239.253 1501.12 192 181 157
90.5935 404.405 1097.7 177 185 169
-398.395 202.074 1289.45 99 97 98
-607.853 55.5991 1351.85 246 245 238
26.3163 159.321 880.871 167 169 164
-475.7 5.23365 1261.11 149 139 120
210.481 176.864 1034.01 145 127 120
-429.026 324.443 1559.99 217 229 224
-112.828 232.685 1043.75 227 221 223
-458.01 433.311 1665.56 186 163 143
237.597 136.018 1075.85 124 112 98
81.4569 332.385 971.92 249 255 238
71.3026 277.709 933.521 250 255 228
-49.7699 230.749 926.718 255 221 214
35.4962 130.456 843.611 153 154 142
-21.9526 208.619 962.644 182 176 160
-1151.24 83.2195 1764.89 129 134 129
-77.3487 208.94 1003.67 251 233 207
-556.271 201.299 1484.22 183 185 186
-1043.28 -120.175 2019.7 142 146 133
18.6118 98.6589 840.159 247 254 234
105.876 478.444 1101.25 249 254 245
-549.065 86.5197 1228.18 255 254 249
-82.3447 245.769 1001.05 255 234 236
-11.1399 288.098 1106.25 200 186 176
-115.034 261.656 1088.37 228 225 226
