-371.322 434.684 1180.68 32 27 23
480.119 -165.762 1034.35 238 238 235
497.278 -151.156 1030.34 218 227 223
389.406 93.842 1149.75 255 245 242
-287.27 193.587 1051.4 99 80 54
444.762 63.1422 1135.86 255 246 239
391.064 -156.124 999.3 179 172 160
-297.047 192.289 1080.52 249 227 201
333.087 -189.474 1194.81 242 226 230
-101.361 388.874 1131.5 215 209 200
-444.634 189.233 1079.48 60 50 40
-299.226 153.143 1032.55 246 219 194
316.875 -43.5384 1043.53 251 243 247
-370.753 429.628 1199.18 223 222 219
327.781 -46.9576 1126.5 255 248 247
-321.633 188.242 1072.84 239 211 191
-343.778 452.088 1154.36 38 27 23
-339.247 383.012 1107.44 235 222 212
-291.956 232.576 1133.61 255 250 240
454.054 -114.246 1041.43 204 189 187
303.897 13.7392 1089.39 251 255 252
-195.91 473.02 1254.88 119 121 151
411.839 -33.6038 1092.96 237 232 224
-307.228 244.717 1094.39 98 78 72
-167.755 457.257 1266.86 53 47 44
434.787 -38.819 1171.2 254 255 244
-190.952 104.849 1058.22 244 234 215
572.931 -104.399 1083.46 240 253 238
-330.869 163.673 1068.02 255 240 220
-189.781 122.335 1085.87 252 236 216
-372.79 389.268 1175.72 106 100 93
-228.149 277.472 1187.6 255 246 233
-260.035 220.238 1141.9 140 122 100
-208.55 235.778 1077.81 119 95 88
-360.895 39.8049 1034.2 100 91 74
-219.119 106.516 1062.32 252 233 206
428.86 89.4397 1114.22 233 200 191
-199.164 75.8612 1036.41 225 220 206
-360.406 295.96 1069.74 121 115 106
329.616 85.1426 1127.5 209 197 193
-190.67 82.3412 976.84 250 230 214
-345.439 428.931 1134.71 124 124 119
320.027 70.6685 1097.5 214 208 209
296.857 22.478 1057.87 113 95 91
302.204 22.4776 1058.22 216 189 187
433.429 93.0848 1108.67 117 96 84
-157.939 189.959 1044.8 253 243 225
-164.083 436.538 1205.49 209 207 201
-359.457 370.248 1139.57 250 221 209
-215.067 78.8033 1076.92 252 239 218
416.762 88.4752 1136.11 207 209 201
-186.781 84.6983 990.401 241 232 217
609.901 15.3042 1139.39 240 254 247
-421.084 42.7618 1111.02 223 217 204
391.852 106.719 1107.61 200 181 166
-233.459 432.726 1167.72 226 224 220
354.747 115.543 1196.75 204 190 189
-349.387 33.3722 994.369 250 249 239
396.499 91.1654 1134.6 203 179 167
423.127 -28.2535 1094.06 238 228 227
533.208 -6.69705 1059 82 87 63
-242.846 87.8831 1043.58 255 243 243
-209.915 73.5883 1077.91 255 250 225
305.836 13.199 1049.2 246 237 242
444.538 43.5909 1102.72 224 212 207
454.411 54.1899 1183.44 227 209 202
-319.834 322.009 1133.19 143 140 142
-378.972 327.479 1082.23 245 231 225
332.768 4.44139 1120.26 232 212 204
559.182 -39.3108 1136.97 231 230 208
477.824 102.834 1156.53 121 107 94
458.164 -107.945 1041.97 69 66 59
464.032 -200.103 1068.86 159 170 170
362.924 -31.5268 1119.38 213 205 201
-238.128 100.978 1045.77 246 240 232
-189.049 446.458 1180.76 1 2 12
-139.198 293.477 1146.86 248 227 214
-407.865 427.675 1185.54 108 106 84
-348.4 333.66 1125.36 147 119 120
-180.918 156.514 1109.54 232 211 183
-444.281 178.418 1078.57 115 91 86
-488.329 109.391 1042.64 226 217 205
-316.851 182.992 1121.5 163 129 105
-312.914 239.715 1127.9 218 191 180
598.391 15.3178 1139 219 237 232
-205.731 72.2882 1022.47 255 242 213
-320.963 199.783 1085.15 216 186 170
-390.067 309.985 1037.2 153 131 131
453.064 -185.506 1031.35 95 123 117
-175.728 444.615 1203.26 185 191 204
-282.659 204.441 1053.83 139 129 120
-170.118 581.254 1274.51 113 143 132
-307.474 218.755 1079.58 222 186 172
-299.608 206.053 1048.91 138 114 103
-341.871 279.525 1043.02 142 111 98
356.873 -132.269 987.843 220 216 207
450.684 104.32 1188.57 255 247 235
322.036 26.6102 1121.33 250 245 241
-306.431 164.841 1075.51 117 79 51
-224.416 185.308 1055.49 133 85 66
575.075 -80.6311 1087.25 238 255 245
354.034 -203.854 1151.35 182 147 140
392.787 -139.92 963.825 211 207 207
-173.03 124.594 996.885 239 224 186
515.213 -190.03 1070.56 158 196 199
-188.749 564.69 1212.16 162 180 173
-267.63 234.917 1092.48 152 146 137
-335.481 152.797 1065.71 255 231 218
349.306 68.4693 1128 195 189 192
-316.098 202.821 1087.02 139 91 75
561.304 -114.894 1081.87 211 232 225
-267.511 199.768 1016.76 236 223 221
419.936 -23.8905 1019.43 242 219 200
300.942 25.5111 1075.43 224 212 216
368.242 -148.066 1115.23 174 173 159
-325.063 352.059 1100.45 217 224 208
369.998 28.2229 1082.18 253 233 212
418.891 84.7577 1106.71 73 43 41
375.558 -45.2394 1051.63 243 207 185
607.531 103.225 1117.67 201 203 201
-236.962 76.6801 1014.67 255 239 219
-372.719 132.119 1008.85 246 234 221
-499.727 135.29 1053.77 255 248 237
-212.607 107.678 1011.6 218 166 143
524.569 97.0183 1245.35 228 200 192
-344.432 287.26 1042.97 113 103 94
-288.442 372.385 1168.42 160 150 130
-122.844 332.707 1155.14 227 215 205
-299.149 40.5837 1052.22 120 52 35
307.072 70.5157 1017.54 164 160 165
-169.419 185.494 1094.59 255 244 222
-178.385 167.708 1111.11 239 207 190
384.024 45.3309 1142.9 255 253 235
592.837 72.9727 1099.12 211 222 204
-456.72 201.997 1076.37 133 100 92
-161.334 201.636 1072.67 239 227 214
-328.779 383.049 1156.98 246 247 232
379.356 24.5147 1096.34 255 252 229
-317.908 366.918 1104.27 200 199 180
-149.387 328.525 1270.99 148 115 99
509.583 189.673 1218.24 236 234 207
-360.12 284.548 1081.79 226 184 173
-415.175 325.245 1154.87 149 147 146
-222.414 460.259 1245.76 133 119 101
333.671 -11.8868 1093.81 233 224 228
504.123 -250.917 1241.93 32 77 71
-176.257 583.745 1273.11 207 237 224
-197.968 575.081 1224.77 78 95 88
-313.301 285.924 1096.98 156 156 151
-200.905 96.7282 1055.12 241 224 222
-204.898 153.254 1179.02 250 225 194
-295.185 263.779 1135.46 147 144 145
-314.338 638.579 1361.73 129 131 127
-475.111 200.747 1069.51 238 239 242
-422.514 243.728 1055.73 237 212 179
-337.925 651.654 1408.14 135 135 130
293.638 -190.676 1175.12 204 198 204
-279.951 64.341 1058.92 126 56 32
595.306 -132.894 1121.19 208 234 210
348.671 -37.3051 1086.48 225 216 216
-389.847 304.679 1036.57 167 158 156
452.42 71.0861 1150.69 188 171 166
-268.929 352.021 1117.56 239 229 212
364.877 83.2116 1178.51 197 190 197
-312.333 465.319 1165.77 74 71 69
-211.578 311.529 1194.45 189 188 173
456.54 305.149 1240.35 171 209 224
-161.674 372.846 1421.27 242 238 219
475.488 -26.5433 1135.53 221 201 185
-187.822 142.858 1109.93 233 202 177
-284.386 182.139 1083.4 161 118 85
-389.36 348.553 1085.36 158 161 156
-364.022 353.045 1180.7 224 176 170
-308.997 170.715 1030.97 161 126 103
426.074 19.8806 1141.97 231 200 181
-368.783 342.959 1133.12 129 122 120
-264.034 81.4453 996.599 255 220 196
350.372 100.698 1178.71 248 246 248
-389.507 358.076 1127.92 255 235 213
551.85 117.04 1313.74 100 83 74
366.784 179.039 1206.11 155 148 129
-457.798 142.943 981.362 228 217 216
-373.679 401.35 1140.05 115 111 103
339.849 -181.917 1147.1 229 164 142
-237.394 87.0909 1004.63 157 115 102
402.526 180.875 1161.79 228 232 203
383.74 25.5403 1083.09 162 127 113
299.448 57.4423 1053.54 232 213 209
-180.108 279.088 1134.74 255 239 228
-201.63 317.287 1166.85 190 172 152
269.81 -110.576 1060 151 147 136
505.236 -2.73677 1098.48 255 255 233
-432.17 449.844 1281.79 255 253 239
-199.103 159.975 1060.21 184 146 115
-217.116 299.131 1192.11 204 195 177
-358.598 306.076 1007.39 245 254 240
413.567 188.695 1211.5 200 205 179
-117.141 418.163 1501.7 49 41 30
-363.561 317.419 1084.27 147 140 139
546.651 -53.2776 1050.15 228 246 229
345.79 -37.6716 1097.76 255 249 252
-502.913 160.325 1091.11 100 96 87
-465.464 262.377 1130.08 223 208 186
303.067 -7.733 1086.75 252 243 246
-197.986 215.206 1122.96 255 244 237
-229.239 148.197 1151.34 255 253 232
414.013 29.6046 1189.08 253 226 210
-442.427 228.741 1046.77 214 218 194
573.88 -93.8391 1085.14 195 222 199
366.175 -192.862 1153.48 205 206 201
383.363 167.903 1114.12 219 218 191
-463.838 206.946 1074.26 134 115 102
-162.647 285.441 1094.64 175 139 110
-242.821 72.9405 1069.4 184 165 129
-325.826 287.618 1093.22 165 154 152
-164.46 234.312 1169.35 229 201 180
511.157 -55.5275 974.611 202 226 199
-467.071 166.653 1022.91 239 241 236
-474.437 148.085 1025.35 249 253 250
425.674 114.162 1155.01 128 106 84
445.003 -80.2818 1085.43 164 163 159
-225.853 140.017 1077.78 255 248 235
262.341 -199.469 1239.39 169 151 148
-485.987 125.392 1058.07 169 158 147
-421.358 125.347 1035.5 254 233 228
424.287 64.4411 1109.86 212 187 174
347.529 18.335 985.144 153 140 113
626.711 -62.533 1177.25 236 255 234
-285.942 -93.5985 1255.21 88 71 60
-141.322 261.885 1097.67 233 216 192
-198.578 143.468 1017.42 246 231 192
354.563 -25.9818 1119.23 194 193 195
-234.575 7.07239 1067.67 238 214 176
402.013 23.2574 1102.24 248 228 212
310.595 -26.4939 1085.09 252 250 249
389.183 51.769 1130.14 251 249 253
305.84 -124.391 1022.11 145 137 121
-124.429 243.51 965.766 187 149 121
321.344 -24.892 1072.87 237 233 236
585.905 55.8607 1108.77 234 245 234
-185.443 178.626 1164.17 215 171 139
267.123 -222.48 1240.18 81 78 71
-436.36 413.96 1213.91 254 249 255
503.704 -20.9176 1055.21 255 255 226
-220.006 138.562 1097.85 243 208 177
-205.311 213.673 1107.88 253 242 222
-210.326 117.817 1012.83 254 230 209
-485.21 114.837 1093.86 171 173 169
260.235 -196.902 1187.04 167 156 146
-435.87 234.599 1049.85 199 188 166
332.978 81.7834 1083.47 144 142 143
511.139 -104.299 1083.35 150 148 142
-221.147 229.589 1073.79 251 255 253
-251.669 271.168 1113.99 255 255 244
-173.67 313.432 1173.97 251 223 187
382.248 263.081 1169.3 94 94 89
423.809 47.4238 1231.56 216 196 184
332.298 -9.35245 1118.86 231 211 221
-436.916 293.838 1143.89 155 114 96
-304.03 317.577 1103.28 249 226 228
454.95 -188.403 1019.15 128 158 154
-228.496 116.891 1049.46 255 215 191
350.181 49.7017 1056.83 210 204 200
-427.031 105.027 989.161 241 235 234
575.82 -60.4729 1086.08 215 236 206
509.618 -115.716 1041.67 137 138 137
-117.902 336.283 1110.55 254 228 195
-474.675 183.266 1052.88 226 224 228
-173.097 369.709 1146.14 163 109 82
589.635 -75.4547 1130.95 211 235 217
393.719 23.2718 1101.97 220 199 181
-368.225 311.388 1082.07 225 221 224
573.035 -43.3019 1093.21 235 242 223
-374.876 102.527 1011.57 247 229 214
437.753 163.71 1204.25 136 128 112
