56.5013 288.975 910.391 241 241 232
34.4081 -15.6003 918.319 249 249 240
-200.966 -14.1293 1368.98 244 238 239
23.7844 233.328 872.893 213 207 194
-133.672 54.5023 881.067 201 188 176
-242.682 -19.9676 1470.66 108 83 70
-15.3459 -41.8515 1005.9 234 237 229
34.1213 211.794 852.368 230 213 202
-66.2458 122.879 787.518 171 168 165
145.208 -12.9443 825.354 37 32 18
30.9443 278.754 882.613 148 153 149
-27.727 -40.0707 1029.23 239 255 251
42.8157 -20.3285 953.974 61 68 59
-242.534 -53.2218 1432.77 198 175 160
-97.7773 98.5548 769.248 190 195 184
70.0997 244.087 911.142 191 160 160
70.8263 227.695 887.738 226 194 188
-154.737 -15.7457 1344.47 170 162 146
-69.5454 -4.26331 935.308 214 201 204
-69.6747 -4.90983 997.368 116 121 124
140.922 -13.9981 834.384 85 84 72
-315.499 -95.0431 1290.7 169 141 122
-33.342 41.174 838.979 220 215 210
-24.0341 -31.9671 1003.92 195 213 208
-84.9237 7.98504 921.98 255 191 180
79.792 -35.416 947.545 183 187 182
111.89 303.504 919.001 153 136 137
80.3756 257.332 921.591 231 218 207
-72.3198 49.192 851.333 49 88 89
42.7977 -27.3269 953.824 213 212 201
263.814 359.807 1019.86 59 40 27
-73.1994 9.42962 891.359 80 87 78
7.80242 -53.6713 994.542 175 160 156
55.5221 212.687 855.481 216 197 193
-105.22 59.851 919.415 95 114 108
-295.491 -109.407 1334.27 159 139 123
170.173 160.018 899.821 183 157 149
-62.3776 152.615 788.38 144 156 149
-86.3518 -2.23769 908.292 250 249 251
-45.3086 -21.0171 1015.37 217 209 213
-285.475 183.507 1396.94 152 138 126
-276.231 240.068 1433.63 255 242 222
-232.245 -40.4609 1341 62 38 26
84.613 -26.1075 948.587 67 85 78
-50.1194 232.335 805.56 174 176 171
146.768 164.577 866.877 132 128 115
-371.073 86.7869 1586.68 146 117 97
-293.399 -113.511 1366.2 170 141 118
-128.098 -32.807 1468.15 109 89 81
157.53 170.683 908.688 17 10 0
-317.559 -9.28456 1205.74 248 231 208
-119.722 76.6952 832.082 176 211 205
161.184 195.749 899.402 190 174 166
-297.763 160.172 1416.31 251 227 206
-17.8275 -31.9816 1005.87 43 0 0
-50.0306 -12.2599 1000.8 104 69 61
-327.883 -100.674 1401.52 167 142 121
179.42 173.772 901.256 129 133 134
-355.366 37.1094 1439.03 133 105 84
-387.86 -1.65726 1516.57 224 204 186
-351.981 -5.78619 1357.26 135 116 96
144.583 168.847 866.682 56 43 26
-248.388 -110.428 1348.54 186 172 154
-349.158 7.70962 1359.51 130 108 88
-349.257 27.3049 1404.29 205 185 168
-8.1809 19.98 850.247 36 102 73
157.546 191.31 931.113 94 51 27
228.235 270.182 967.053 162 113 105
-303.991 145.753 1412.34 253 227 211
-18.7883 254.686 838.017 196 173 157
-298.619 260.765 1509.87 106 107 103
-86.7622 9.64762 994.575 252 235 222
47.704 -49.831 928.089 70 44 39
-356.166 -98.7803 1346.86 42 27 17
-348.825 -20.5961 1323.25 141 116 99
170.253 175.782 900.16 41 41 39
130.76 -9.93182 819.491 163 188 184
73.3392 228.772 900.132 163 154 143
-95.4185 100.954 752.952 176 177 164
-270.886 157.455 1299.38 146 123 103
-54.0422 161.697 803.015 148 140 132
-246.071 -39.0757 1432.78 138 110 105
102.345 284.687 892.922 145 150 157
-52.339 148.59 777.969 24 33 30
198.881 302.713 964.435 99 63 52
56.1837 -52.7402 999.364 183 149 136
25.6461 253.934 851.745 157 134 122
-144.204 73.4405 895.373 69 79 74
-51.3227 -9.96072 946.828 20 1 2
-179.777 -36.8629 1408.33 109 90 80
-16.0002 -17.365 1047.8 194 167 159
172.679 205.089 901.015 141 146 146
11.4013 -42.1325 937.002 215 164 146
-266.246 136.114 1241.14 154 118 88
141.303 177.562 877.363 146 114 95
-329.282 -84.5995 1223.28 185 171 141
17.912 -43.7276 1026.13 159 94 79
-30.2584 -14.5799 931.04 251 152 127
138.611 286.534 897.769 221 158 152
114.95 307.206 961.832 50 61 69
183.979 167.106 901.678 151 144 141
-21.4105 118.506 788.959 57 78 72
44.0519 238.706 896.067 63 65 67
25.4131 14.3163 865.939 14 72 64
25.5367 -13.3993 960.503 41 53 34
-311.731 -50.2324 1333.21 138 123 107
-13.5287 237.236 791.983 120 93 80
-10.4699 250.912 839.26 185 159 140
143.006 219.732 897.478 43 47 39
-116.205 70.271 790.153 91 122 114
17.1513 257.723 850.541 71 49 36
46.9792 240.049 854.662 206 209 199
-50.0628 217.918 764.082 61 61 56
-313.701 -42.8258 1366.55 154 152 139
-20.8087 -13.4389 957.845 119 94 93
-31.3603 7.48948 898.474 158 145 130
-367.518 -28.0563 1393.78 183 163 144
122.724 301.325 895.82 95 89 95
121.467 251.54 908.232 17 42 45
-248.179 -127.985 1378.88 138 110 91
-127.626 -37.3881 1517.73 176 171 158
79.0622 140.976 857.521 198 136 108
53.5354 242.803 914.966 96 96 92
-79.9499 52.7313 804.421 135 162 157
145.208 197.445 897.384 130 103 88
-50.5836 129.341 784.622 88 83 77
114.476 304.368 928.368 115 132 130
136.615 296.996 930.026 187 153 141
-2.31512 301.437 901.279 138 128 128
215.727 244.378 974.44 41 15 9
14.6545 -12.2976 845.45 212 167 157
159.587 224 891.885 6 30 29
-302.054 -29.3119 1367.32 137 130 127
207.505 132.304 970.6 99 78 68
79.9237 19.2622 873.728 130 160 171
-136.86 64.3067 821.487 157 128 117
-117.224 82.788 773.015 215 221 204
-163.277 56.3256 875.286 171 171 158
87.6506 223.049 882.155 70 48 36
-89.9802 1.38028 1007.32 172 104 96
-35.8621 6.58927 907.327 215 194 182
205.679 254.815 930.034 66 14 6
-85.4549 48.6671 859.222 136 176 175
-42.7471 107.103 725.787 176 170 168
201.497 319.504 1001.56 162 132 116
-2.1232 133.231 810.512 104 103 103
-56.1583 134.781 777.007 51 51 45
-89.6456 44.3438 858.412 73 114 106
159.947 196.199 943.014 163 124 100
162.231 223.648 899.097 5 42 46
-180.4 -100.047 1447.72 97 126 118
-49.756 255.064 832.922 198 198 189
-89.7914 20.1639 983.537 129 136 125
96.0579 225.271 903.32 53 32 15
38.411 229.015 853.261 112 109 115
89.0136 125.522 809.568 113 62 33
-150.171 199.166 1033.01 238 238 237
-121.746 49.7919 860.993 28 56 49
-93.1305 84.8316 677.837 154 162 146
-169.649 62.5495 924.86 117 112 108
62.7855 -38.2707 965.693 174 169 164
-164.891 175.94 1038.33 91 75 65
-40.9666 115.771 791.377 81 100 97
-31.1713 110.292 787.35 41 59 58
116.615 206.632 885.663 109 107 99
-46.0727 37.6431 801.399 145 130 126
-176.859 -64.9915 1334.13 133 101 86
-62.2858 8.07354 926.083 164 139 128
209.906 201.349 928.584 44 26 10
-155.782 -128.935 1452.42 79 75 58
-110.931 71.5398 693.925 138 135 125
-327.594 97.4861 1416.75 199 168 146
140.267 321.231 957.033 61 54 56
185.609 210.289 908.504 45 46 49
220.095 269.453 932.253 93 64 47
-52.5009 2.48787 1000.88 206 178 158
-16.6972 280.139 838.967 165 143 130
-31.4417 1.99951 966.693 163 150 133
225.29 226.402 965.006 62 34 23
-10.0899 -53.5774 1020.92 78 71 62
228.151 235.137 975.802 55 27 16
181.656 285.317 935.784 47 50 60
-152.637 -33.597 1416.34 133 102 90
32.3644 215.854 802.465 77 76 74
-238.833 -110.63 1351.36 174 159 141
191.166 219.22 885.707 169 125 106
151.687 121.432 896.606 160 118 105
136.691 233.976 963.716 32 16 16
-324.419 104.538 1418.32 249 241 218
-431.771 46.017 1796.98 163 134 119
-172.575 -34.4983 1695.93 28 6 1
-298.319 -15.8747 1374.18 120 117 120
