-13.2285 -50.3292 1246.93 255 246 232
-67.886 352.126 1178.32 253 246 227
-22.305 372.016 1245.28 255 251 243
446.362 -156.714 1448.36 254 250 240
304.203 98.7623 1721.3 33 32 24
-74.4289 338.829 1198.01 218 219 215
26.1161 -39.5294 1198.88 74 35 21
-72.6099 46.8379 1108.02 42 14 8
497.638 211.979 1679.2 56 100 102
-7.53054 12.3587 1220.06 63 47 41
-21.5849 -45.351 1159.76 196 175 165
30.8251 128.335 1296.85 133 81 60
19.3559 75.8773 1177.85 252 237 218
-28.491 315.453 1240.21 254 247 225
23.2155 85.5345 1232.97 90 57 36
30.8026 -32.1575 1147.88 109 77 71
-56.0555 435.225 1241.4 235 227 215
37.3754 -31.8698 1138.5 147 56 20
512.311 -102.948 1712.95 72 47 31
-108.397 39.4557 1055.06 253 252 234
-42.8092 -31.7214 1133.62 255 244 226
-109.346 57.2519 1124.29 121 82 76
-107.54 54.1877 1118.43 96 69 64
411.158 132.709 1838.37 191 188 180
-125.508 25.5423 1071.52 254 214 194
89.978 165.59 1312.35 91 74 64
-27.2551 -42.0753 1188.04 179 160 145
535.041 207.889 1805.07 73 104 118
467.869 -236.996 1591.66 198 192 193
38.0758 -45.5269 1200.75 119 30 3
-62.1198 403.574 1238.17 183 169 156
480.116 -89.2437 1617.69 244 230 210
-0.204979 17.8652 1423.55 145 94 82
508.232 301.283 1790.21 45 60 84
-33.1241 -39.1139 1187.02 247 233 215
530.958 -14.3158 1731.06 232 217 218
27.8145 105.073 1266.69 252 235 211
20.3541 137.686 1236.98 109 84 62
31.0243 117.708 1268.19 250 231 208
-121.605 32.1302 1027.71 111 29 8
20.4501 162.408 1239.09 255 249 243
38.8617 145.541 1213.08 241 238 229
21.4778 98.6667 1264.95 194 156 136
499.77 190.36 1653.37 230 255 255
591.06 -276.199 1579.18 236 244 234
-80.1724 340.276 1229.99 225 209 207
98.8907 392.82 1371.54 89 89 85
-56.2023 249.594 1174.76 137 129 135
552.006 309.838 1896.63 217 247 255
-20.2272 440.212 1311.15 85 87 89
453.138 -81.7007 1588.38 210 192 186
-33.1281 400.357 1271.82 132 132 130
11.0341 112.898 1232.93 253 228 203
-54.984 366.622 1263.51 255 251 244
-29.9898 347.334 1302.39 113 92 85
-23.5387 354.283 1304.4 226 216 202
-39.6365 389.348 1303.2 116 113 110
-113.033 55.1522 1031.56 177 87 64
11.5693 99.9559 1205 165 146 131
-121.056 54.5722 1097.97 234 165 151
18.4839 152.078 1267.75 255 249 233
-57.1264 261.658 1217.46 94 63 53
-144.712 436.249 1346 136 128 123
-73.5291 275.115 1172.51 124 110 110
-125.547 36.1245 1072 214 147 122
-115.283 84.0809 1076.42 251 229 226
26.6624 168.76 1240.89 88 64 50
392.626 -277.27 1575.65 215 184 173
455.487 -140.239 1521.9 119 91 83
-93.9518 56.9672 1147.17 126 122 123
-74.3661 273.087 1195.37 130 102 111
10.3439 114.6 1129.46 253 230 219
-3.88745 298.101 1244.42 254 255 240
642.698 296.238 1900.8 125 137 133
501.831 -35.6084 1628.79 248 235 240
-97.6567 254.122 1189.22 61 44 43
-27.0703 272.493 1205.7 101 88 82
0.938447 75.0551 1142.95 253 216 205
630.925 -69.5624 1836.08 232 216 203
612.247 -219.562 1592.84 251 255 238
473.693 222.251 1867.58 34 61 56
5.28783 44.2142 1147.58 136 129 130
-3.84977 316.851 1245.72 230 222 197
45.2301 156.9 1243.62 166 156 144
-36.9181 216.516 1102.12 251 230 216
103.458 391.08 1401.63 134 134 129
370.218 -247.562 1571.64 85 85 88
522.294 -81.5736 1623.93 254 230 217
-16.331 210.605 1235.23 251 227 231
-26.847 230.116 1293.66 206 184 183
-131.712 444.106 1350.12 166 155 150
-124.072 145.398 1152.13 45 15 15
-43.3973 223.453 1197.72 111 82 69
90.1654 185.281 1314.29 250 242 223
504.209 51.2768 1642.25 173 168 148
584.529 -83.6834 1707.25 239 234 231
-97.4025 144.942 1183.89 146 101 82
-128.656 71.2676 1172.51 255 219 202
583.77 -27.2205 1734.97 255 246 231
79.6108 113.156 1305.09 151 122 105
81.6286 27.9444 1238.63 231 161 131
507.065 282.968 1786.37 69 120 128
-73.6041 319.306 1175.14 148 135 134
-61.9921 345.314 1294.71 136 124 118
451.796 -60.254 1539.93 218 216 211
48.1279 564.442 1402.25 176 194 186
577.195 -298.487 1573.71 196 224 227
31.6665 308.108 1313.11 155 155 135
518.643 -101.823 1595.93 244 228 209
-82.8139 198.883 1219.31 251 228 197
-119.386 21.1993 988.9 164 96 68
25.1823 64.2855 1178.02 146 112 81
-26.7208 423.209 1308.53 116 90 72
571.439 -78.119 1724.35 243 228 228
-56.2297 276.027 1176.45 246 248 248
35.8895 185.964 1367.71 106 88 82
6.67284 357.753 1187.88 228 227 203
19.6173 290.208 1217.61 178 173 159
481.164 -146.241 1525.33 255 251 255
-91.1439 51.5461 1121.83 136 103 89
-112.848 139.971 1154.39 255 253 255
526.594 -62.2494 1698.35 246 246 242
-81.7415 123.44 1160.35 154 108 100
-118.588 95.5237 1101.19 87 22 7
586.339 -85.458 1700.44 161 142 141
-66.9743 34.4841 1063.38 255 243 236
569.143 166.226 1862.57 69 61 43
-73.462 239.954 1170.29 152 88 69
75.3524 21.8008 1236.89 251 241 208
-65.041 316.4 1231.97 146 135 134
-40.7237 274.485 1234.6 125 112 112
501.637 -20.2871 1699.13 152 145 139
707.338 -356.515 1904.79 67 76 71
497.053 -30.0493 1549.62 249 241 234
-13.1812 269.623 1240.36 166 149 144
-17.7561 137.272 1247.22 68 46 42
-95.3097 135.945 1098.82 161 109 94
64.6208 15.4717 1110.86 250 241 210
-22.4239 235.072 1235.78 180 152 138
-68.1216 353.44 1233.67 132 121 120
-88.3161 31.353 1045.77 250 253 252
-37.6729 349.195 1240.38 86 85 84
-31.4408 374.765 1154.2 193 176 166
426.077 -23.2342 1370.87 249 241 246
479.464 -157.001 1450.71 218 191 168
-75.6172 204.156 1188.58 255 228 171
-50.7446 87.031 1191.14 254 210 185
616.012 -238.2 1668.74 188 176 176
488.187 -25.0002 1475.31 138 106 95
451.943 -179.048 1516.63 138 133 119
558.816 -33.3097 1718.48 165 132 121
56.247 544.971 1366.49 73 91 81
-17.1458 195.584 1163.84 171 164 157
32.9209 181.34 1243.21 181 167 161
-118.614 100.991 1101.54 145 85 70
657.032 -224.359 1703.89 179 190 165
593.594 -23.3558 1769.04 174 149 132
639.798 -170.008 1686.88 138 140 116
607.368 -132.879 1717.71 255 248 240
-207.53 6.23045 1121.66 156 130 112
28.3022 -42.0648 1075.91 253 228 204
119.69 71.9762 1346.39 249 233 220
18.5161 597.171 1448.97 12 23 15
-19.9861 213.525 1167.66 251 201 189
537.661 31.8799 1593.14 144 145 137
-37.6762 249.875 1233.5 170 177 160
434.675 -18.493 1546.31 160 139 120
13.2709 578.499 1395.39 178 208 197
-49.5923 -2.60113 1209.89 194 126 104
519.976 -125.991 1868.7 55 14 11
45.544 -94.0683 1276.19 98 70 50
38.1395 288.608 1312.92 224 224 219
631.793 -165.939 1687.76 230 231 199
-97.5397 200.934 1186.72 253 249 252
-50.2408 17.7414 1082.74 223 160 146
-85.9752 259.813 1223.12 156 157 139
-121.985 140.683 1093.21 195 165 153
-20.7364 476.813 1480.07 109 84 66
-137.294 100.173 1172.07 87 31 33
-28.7776 63.8149 1118.21 255 238 233
486.184 -53.5149 1624.11 93 82 82
17.009 155.394 1121.84 190 180 172
-30.0008 324.378 1300.65 252 228 205
31.5949 291.612 1311.76 167 168 152
-64.4582 52.4061 1110.11 255 250 250
-84.7146 169.645 1162.97 244 224 189
-76.5189 198.364 1138.29 253 222 196
501.259 275.167 1883.26 83 110 102
-34.9148 81.3325 950.436 109 99 64
603.556 -227.133 1590.84 120 126 109
35.3286 397.749 1320.66 155 133 117
83.7214 -94.5878 1262.48 232 219 192
500.088 -62.0772 1694.27 116 102 98
660.529 -183.189 1712.49 183 187 169
92.1458 55.0112 1301.36 255 238 212
430.298 138.977 1747.06 63 73 65
-76.0211 109.16 1160.58 164 134 126
-53.2981 232.128 1174.25 186 136 104
92.0765 48.5657 1300.65 210 150 113
-35.214 439.215 1434.68 249 250 244
620.443 50.2647 1752.62 252 252 228
38.2022 301.827 1314.01 240 237 212
515.168 -38.2743 1656.9 133 108 112
532.839 -320.469 1771.22 105 82 73
584.811 -31.2518 1719.62 160 130 117
-86.7296 254.128 1118.05 68 70 72
-75.9104 66.0328 1157.37 250 249 245
127.196 142.491 1353.38 255 245 222
343.707 -259.532 1661.28 161 165 147
-121.899 448.073 1353.13 94 79 74
98.909 61.4341 1373.37 255 243 214
-31.4991 270.857 1166.58 237 205 199
653.027 -87.5714 1834.42 155 140 134
569.95 37.0951 1649.63 235 233 213
454.167 -22.3482 1547.44 156 135 125
492.909 -63.9506 1583.42 135 118 114
92.6741 35.5169 1419.45 255 237 213
-37.2069 58.0068 1139.82 218 202 186
-92.7593 37.29 1151.45 178 183 174
66.1262 131.058 1276.19 203 179 164
-33.0337 29.0559 1163.59 255 236 222
-21.413 130.667 1173.93 161 138 124
-64.3297 277.612 928.945 48 24 16
-51.4244 1.87613 1227.75 194 130 109
427.496 -35.688 1468.14 109 89 89
-50.2331 34.7012 1160.47 255 243 240
124.846 109.129 1377.08 249 234 212
516.018 -199.172 1370.99 178 186 174
-28.7354 94.8742 1143.5 173 126 92
-57.7788 2.90732 1013.43 255 203 175
-32.7371 88.0438 1029.78 167 124 77
88.7668 -95.544 1318.66 218 206 176
477.588 -186.314 1282.58 84 84 74
-67.4191 336.04 1079.65 62 48 41
662.529 -141.039 1823.65 234 235 221
