-101.841 198.59 1160.69 71 18 16
523.629 8.1153 1190.58 255 248 240
-177.031 148.314 1090.56 77 32 17
-242.913 319.697 1076.33 47 34 33
-166.711 175.54 1116.43 255 250 232
-312.663 133.351 1030.27 32 6 2
-179.574 140.072 1089.45 253 221 203
408.473 -98.5221 1115.75 247 239 239
-189.67 104.496 1084.86 255 235 216
-219.073 -15.2457 986.479 54 30 19
-259.024 367.791 1211.12 233 222 210
-171.887 159.427 1092.46 70 59 40
-197.181 130.784 1039.81 255 248 223
-113.943 133.436 1059.21 64 35 23
-118.503 145.904 1153.3 76 32 22
450.699 -83.0638 1150.61 244 250 246
413.872 -39.7216 1169.68 255 243 254
-193.271 163.379 1109.47 66 43 28
-321.727 365.995 1255.7 80 55 44
-202.745 125.754 1082.85 76 56 47
422.953 26.8852 1177.97 235 225 224
668.791 64.3612 1201.56 226 251 237
-65.1438 392.245 1235.96 182 175 172
441.21 16.201 1229.36 245 235 238
-314.278 64.1774 1026.96 54 31 24
-276.308 406.1 1222.59 22 9 6
434.524 -102.513 1163.62 253 251 250
-159.904 155.578 1049.97 255 244 225
441.512 22.2921 1230.13 87 76 76
579.2 272.018 1464.9 214 245 253
-243.727 352.641 1108.24 193 194 188
578.312 279.816 1458.43 186 208 237
-260.36 402.923 1157.54 255 253 246
489.557 37.7077 1235.65 199 185 184
-326.865 207.306 1101.91 232 210 177
-236.882 221.674 1079.58 249 228 223
-77.468 52.3604 1062.43 248 239 204
377.411 -160.41 1106.65 169 168 155
502 34.6328 1236.13 212 192 183
-285.915 480.361 1270.41 52 50 46
-195.223 150.378 1086.17 91 54 45
-223.685 -20.0995 985.168 199 180 164
-150.987 182.202 1098.81 110 102 87
-166.46 132.386 1092.19 90 44 20
-239.227 49.7732 1143.52 219 178 171
-358.343 55.7901 1014.34 192 198 189
-215.355 -21.5625 1005.99 210 187 173
-200.361 147.463 1084.72 236 207 194
-253.109 287.786 1128.03 245 241 237
-202.636 113.466 1057.55 118 85 68
-213.26 296.864 1066.24 223 224 203
-177.404 124.788 1063.99 223 184 167
-285.611 367.491 1123.94 139 128 112
-240.862 333.21 1107.56 211 199 193
-299.92 275.93 1114.23 255 244 236
620.362 -90.4878 1173.85 221 229 214
-335.234 53.6663 1020.77 96 55 60
-190.407 127.554 1108.58 115 66 47
-78.3569 41.4525 1082.41 253 253 233
-275.013 257.152 1071.42 113 91 83
-290.715 42.3537 950.22 95 79 74
-83.7687 108.602 1084.18 126 88 64
-116.659 381.931 1167.99 29 18 16
-237.647 46.6276 1166.41 117 55 47
-312.812 280.589 1110.82 142 139 143
-250.044 318.814 1119.47 231 206 193
-301.621 322.983 1138.67 101 91 87
-195.982 174.347 1109.28 209 180 167
-187.714 183.363 1089.95 232 208 194
459.875 53.0196 1269.68 192 178 179
-352.609 95.4625 996.549 255 255 248
437.413 -87.8135 1118.86 245 239 234
485.075 -203.611 1068.76 139 135 125
-114.009 32.1721 1012.15 254 243 230
-107.546 212.905 1160.29 185 171 150
-64.4027 83.1855 1024.89 255 253 226
-25.9024 254.942 1130.68 244 238 222
544.958 16.3106 1236.38 203 190 185
-262.071 378.187 1131.01 102 86 75
590.583 -199.363 1110.68 181 197 184
-182.403 108.716 1062.18 119 68 35
-329.328 148.137 1026.36 42 10 7
570.373 -230.045 1202.32 172 176 174
-82.5909 23.4372 1059.66 255 254 232
-64.3923 75.5086 1024.5 248 241 210
486.799 -11.1199 1229.28 255 250 231
-332.266 139.067 982.333 218 229 223
536.88 37.7806 1238.73 235 213 205
-149.07 30.7453 1045.76 252 235 221
505.328 -35.8002 1182.89 250 220 199
426.42 -241.948 1195.59 205 164 152
-157.452 -6.6657 1019.69 117 34 7
420.726 -82.5993 1165.11 254 249 245
-98.1987 54.8254 1058.23 255 235 202
632.71 341.46 1401.32 51 89 103
555.951 -36.6448 1008.03 237 255 245
444.533 -41.2418 1222.46 227 215 201
580.038 -228.506 1106.63 186 231 232
-84.586 35.203 1128.65 237 217 196
-330.663 61.3623 1022.35 254 253 248
-318.819 48.8755 1025.1 132 113 112
-159.854 -16.6957 1018.77 82 24 9
627.462 -98.92 1384.44 232 239 229
-248.048 584.423 1357.36 17 19 14
-283.569 345.69 1074.05 241 234 219
-298.356 355.354 1142.8 86 74 64
-373.252 81.2307 1032.83 249 232 220
558.858 -207.165 1065.83 141 155 153
-128.135 480.711 1393.7 153 170 177
-323.778 51.3181 962.519 115 67 80
-217.403 76.4342 1052.46 152 139 139
-207.493 273.773 1139.34 136 117 115
440.186 9.40298 1177.36 229 224 232
665.893 37.5331 1196.67 209 228 221
653.101 -131.881 1167.84 244 252 228
-277.627 356.853 1125.51 150 136 116
-253.819 77.1713 1000.26 228 210 201
-50.9023 152.496 1119.47 248 239 222
413.466 -48.2966 1168.64 255 250 252
663.958 348.754 1482.84 70 93 120
-244.499 238.528 1026.54 173 166 139
-336.465 386.752 1252.56 178 175 173
-334.226 205.193 1070.32 252 251 240
-294.165 272.078 1042.5 149 143 136
-328.408 146.341 1006.13 108 84 83
721.138 72.9134 1291.5 95 112 90
-9.08164 427.423 1404.7 72 62 53
-53.6525 146.839 1118.54 255 252 232
557.122 -35.4312 1229.97 137 99 91
436.433 -65.5554 1168.26 247 248 251
-83.606 17.3785 1080.22 255 245 222
571.357 34.7125 1240.22 234 210 197
538.349 -230.865 1105.51 73 97 90
-251.46 262.556 1099.08 237 229 226
-313.889 439.765 1262.26 193 184 170
-302.006 336.837 1105.86 250 246 241
-108.534 65.1915 1056.61 255 246 234
365.262 2.48809 1058.84 188 163 158
-235.954 264.936 1015.66 134 143 133
-90.4866 68.0413 1060.63 228 189 153
450.106 -173.445 925.266 196 203 202
650.704 405.18 1702.18 136 167 190
-93.1308 86.4794 1061.12 255 239 232
398.541 -175.295 1152.36 157 158 146
518.855 -11.382 1286.48 242 225 212
-106.702 41.794 1031.76 249 234 200
449.068 114.534 1241.46 148 145 121
534.943 7.14387 1234.61 231 203 196
-266.674 269.833 1029.32 255 245 235
574.596 -165.359 1161.67 62 61 61
-141.241 222.889 1152.89 255 247 216
-115.476 23.9632 1029.89 252 245 227
-172.762 288.506 1099.41 118 119 96
-310.302 78.1963 1074.95 248 232 230
458.531 -41.6311 1091.61 216 211 187
444.28 -59.8947 1202.78 128 98 99
592.538 43.0933 1342.06 163 138 126
-224.603 108.563 1124.25 210 163 147
464.8 46.798 1234.93 69 69 82
537.396 -186.057 1013.3 173 197 180
525.114 -95.2736 1220.12 235 221 200
436.181 5.6372 1236.19 225 205 203
-335.921 277.537 1184.5 247 247 231
-312.954 65.9096 966.096 90 69 62
658.442 -37.2539 1181.64 219 247 233
571.431 361.546 1467.8 48 71 80
-177.425 328.493 1204.47 231 218 196
488.512 -39.9439 1174.73 122 116 79
569.035 47.0256 1241.73 126 104 98
431.78 -169.172 889.97 79 87 86
-345.451 68.2801 997.274 83 59 41
518.351 -104.171 1218.55 236 217 191
-93.1149 81.1748 1060.82 249 208 182
431.084 -26.2895 1230.99 183 162 144
653.853 -123.376 1169.1 224 239 219
-283.281 57.0784 1034.96 255 227 213
-90.5552 91.8283 1061.96 172 109 86
-183.089 315.94 1202.17 188 191 168
464.777 -26.5525 1156.66 243 204 176
408.437 -28.2065 1170.59 76 50 43
-68.5533 331.359 1198.38 159 88 56
418.605 -168.058 1011.47 169 169 163
-238.513 84.5416 986.224 104 83 73
491.441 -88.0778 1121.84 226 215 198
507.136 -150.429 1034.65 144 139 137
609.956 -228.28 1132.76 186 196 187
519.976 -229.803 1062.2 135 148 145
-243.671 400.104 1129.7 145 132 131
-48.1534 169.448 1121.08 255 246 211
-260.749 410.122 1212.28 143 141 137
548.273 -278.591 1247.84 23 69 71
-142.169 153.634 1053.96 124 88 75
387.096 -68.4578 1117.56 166 141 132
-249.956 307.721 1210.57 128 90 84
591.697 -220.618 1107.84 120 124 108
-127.662 305.027 1161.14 255 252 240
-85.0325 287.197 1170.07 218 218 204
413.87 111.306 1567.15 47 40 28
532.171 -10.9843 1180.76 228 216 218
-113.1 192.32 1157.65 196 201 188
516.014 36.9049 1137.84 253 238 231
533.964 -8.12002 1232.53 217 193 183
-167.701 91.5659 1021.09 153 97 58
-125.164 321.818 1241.24 255 248 244
542.871 -109.575 994.275 128 126 111
-259.839 436.516 1231.49 35 26 24
-353.29 141.529 1042.37 254 251 250
-175.376 309.181 1119.69 206 195 163
665.357 144.915 1444.5 234 230 208
-185.222 182.637 1020.29 167 154 131
464.31 -98.2688 1200.94 220 209 209
528.295 -3.30083 1331.74 239 241 236
675.737 -128.411 1219.35 239 246 233
-56.3921 135.594 1117.26 249 234 207
-367.624 55.4579 990.151 84 55 43
427.6 -68.0487 1217.78 151 138 135
-120.901 140.524 992.033 148 98 63
-233.147 354.667 1217.44 198 198 171
351.03 -196.3 1195.63 2 3 1
648.401 -181.307 1300.24 175 179 173
-318.359 117.558 922.228 252 251 253
543.212 320.405 1407.6 53 95 92
-151.647 383.323 1185.36 177 185 147
605.429 -56.9167 1134.17 123 131 115
-265.994 289.279 1097.18 242 218 205
-366.846 121.743 1060.81 235 229 224
-329.587 68.632 1001.84 106 85 75
-64.7802 342.135 1079.88 251 250 242
-85.5102 150.272 1066.27 248 215 184
-133.576 301.044 1213.83 178 181 176
-315.719 259.687 1133.3 125 57 34
588.636 -57.2701 1177.04 253 253 234
-35.9164 227.819 1177.33 241 235 210
-269.232 287.98 1145.2 148 137 136
-228.467 237.235 1015.86 154 101 97
-166.946 203.481 1096.18 159 121 108
-255.345 257.056 1146.5 161 111 104
-92.0599 294.477 1223.5 219 216 207
-96.8116 30.6838 1078.05 241 209 170
647.835 332.511 1414.76 209 232 244
-222.465 75.3362 899.612 229 203 196
-216.707 256.548 1189.16 180 158 151
-291.972 320.918 1261.79 254 252 242
403.304 -87.6152 1116.62 136 121 109
442.216 46.47 1193.35 199 201 215
-292.777 753.93 1729.85 111 111 104
464.686 -178.414 1013.56 161 161 166
594.729 231.012 1335.38 105 131 136
-18.3472 284.94 1184.65 235 217 205
504.613 247.177 1333.4 99 135 146
-257.716 95.5727 1090.01 210 169 163
508.161 40.6622 1195.4 177 153 148
-306.957 94.2018 1009.45 141 105 78
667.745 353.841 1552.55 136 170 172
-143.177 6.954 1004.7 103 31 5
-277.404 49.7351 918.146 203 186 173
493.511 -5.13152 1179.3 223 198 199
647.279 -131.856 1167.78 215 216 198
-220.742 250.064 1134.4 173 143 141
689.71 8.45854 1240.31 192 220 202
-35.9174 221.913 1176.95 233 223 205
526.473 83.1733 1253.09 242 222 185
-297.005 312.867 1286.09 246 241 241
-187.604 169.138 1137.88 110 74 64
597.652 131.002 1310.77 211 205 180
-39.8556 200.658 1124.69 241 239 227
721.918 85.7622 1292.8 199 210 187
-65.7855 332.487 1257.96 249 187 157
646.289 -143.161 1166.12 209 223 213
-302.116 450.811 1237.02 72 62 42
-288.326 94.729 1014.57 252 235 217
-89.4614 92.9966 1020.34 250 233 202
-185.879 294.789 1068.26 92 67 45
-273.857 368.93 1072.1 238 232 216
-127.457 274.718 1109.46 249 253 252
524.315 -233.415 1104.83 112 142 137
-251.164 620.243 1432.01 97 101 94
512.779 4.06606 1232.9 217 196 202
-25.8901 271.979 1131.6 242 208 192
617.442 -107.694 1123.54 153 182 159
465.791 -242.064 1250.01 185 210 214
-103.465 86.2887 1058.9 252 221 205
-27.1447 278.537 1182.39 230 205 186
-278.906 103.52 1038 222 153 127
-263.7 349.086 1118.65 159 152 144
383.361 -75.8423 1041.96 191 184 189
-112.789 52.6279 1114.15 187 134 136
724.48 26.9229 1300.13 181 209 195
644.95 196.837 1384.17 227 237 235
487.623 33.5288 1299.94 249 249 247
398.868 -76.0014 1084.42 251 251 251
-263.137 270.059 1096.48 218 217 218
544.258 -86.4461 1222.24 186 197 181
-111.213 48.7725 1092.8 250 253 245
679.034 -59.6942 1230.07 219 245 228
465.999 -237.718 1167.06 136 119 114
-128.554 469.586 1352.05 3 9 11
1225.99 -258.851 1865.77 100 95 80
-106.514 3.59001 1029.1 159 107 76
-139.795 330.582 1020.11 158 175 137
-94.2701 34.7797 1016.36 219 189 148
-353.18 170.182 1117.72 104 70 26
-64.8799 258.888 1172.93 233 192 173
607.609 269.161 1459.35 101 138 148
-290.605 89.6106 1013.7 249 226 199
-399.048 71.9235 1098.31 126 73 63
-247.418 50.1539 982.468 241 188 170
-253.829 40.8916 923.744 238 217 198
477.971 -30.3306 1131.89 177 144 141
553.003 286.141 1427.45 166 195 193
-61.8717 97.6291 1068.27 208 186 167
494.397 -146.937 1037.35 72 60 53
500.768 -254.182 1241.47 96 64 58
468.632 95.5215 1148.49 105 102 86
540.426 -5.07184 1233.29 184 164 161
541.328 -155.406 1130.11 184 177 164
467.871 215.354 1310.76 60 64 57
-278.105 244.368 1109.02 210 150 131
438.018 26.8908 1179.18 138 128 138
-302.581 114.499 1011.69 120 96 101
510.546 127.11 1304.36 182 182 158
549.964 -13.8965 1181.26 164 118 110
406.431 -216.257 1107.46 79 76 69
-286.791 213.403 998.743 186 151 126
522.573 62.3759 1240.97 208 188 158
507.98 -23.2349 1229.02 163 124 109
554.39 -108.659 1274.01 231 200 173
-108.555 70.4202 1056.91 240 192 186
525.079 -76.2495 1130.84 200 177 154
510.182 -47.0284 1092.19 174 124 102
-358.324 43.6104 952.512 120 82 62
610.567 231.201 1395.05 152 180 188
-145.256 333.86 1001.68 82 70 45
489.166 -128.347 1163.49 141 141 128
592.189 261.542 1457.14 80 113 122
-111.133 8.26934 1091.55 248 203 174
