-240.772 401.003 1193.5 246 241 238
-257.721 394.311 1213.09 250 248 246
-169.224 152.688 1093.11 44 7 2
-167.28 142.576 1067.39 251 204 180
-96.1922 202.368 1162.9 35 12 12
396.545 6.23349 1138.53 26 21 18
544.42 -53.4492 1038.66 46 52 34
-198.442 145.205 1107.77 215 183 174
-185.065 176.453 1090.68 252 226 218
390.19 -168.166 1152.3 212 215 211
-257.575 393.637 1158.81 92 77 68
-204.413 321.981 1094.18 196 186 166
-59.0712 394.978 1238.9 253 255 248
-226.054 339.541 1193.38 240 242 221
-104.96 139.074 1081.22 53 14 8
-252.37 248.403 1077.66 241 223 219
538.097 5.16446 1234.67 241 226 222
-238.953 321.251 1105.51 255 247 238
-149.876 170.465 1053.48 229 212 201
566.446 264.561 1456.72 213 241 244
435.692 -43.7877 1203.34 255 250 247
430.811 107.167 1202.06 156 154 134
-212.092 -9.92595 988.181 62 42 29
-210.371 49.9362 1049.44 64 25 21
-179.503 130.741 1089.24 88 49 23
-338.086 61.0883 977.884 238 236 220
-177.185 134.9 1112.48 254 236 207
-244.08 400.88 1163.24 210 212 207
-182.421 120.97 1110.55 106 60 31
-231.853 378.337 1067.66 229 228 221
-157.937 186.758 1137.13 253 251 249
746.366 67.3806 1355.11 205 218 202
495.311 -210.681 1106.38 181 167 164
529.467 35.7452 1354.27 255 242 246
-271.116 345.4 1054.84 236 211 205
549.035 -238.994 1150.45 89 121 108
-235.215 354.397 1137.85 230 210 203
425.714 -45.902 1220.41 217 201 190
-179.937 187.531 1092.61 229 207 202
-75.6761 27.4781 1082.33 255 250 225
-242.676 249.807 1055.84 233 224 215
-238.9 422.104 1166.43 26 11 9
-200.13 115.358 1058.48 251 233 217
-207.011 249.065 1110.42 95 72 69
575.294 -257.635 1190.95 188 216 212
-97.6081 225.838 1188.19 220 219 200
712.609 2.0712 1296.2 231 242 234
-91.6152 64.7523 1080.76 150 84 64
416.421 13.6727 1176.05 180 168 174
-150.097 -1.51947 1021.37 100 19 6
-158.813 166.618 1096.48 255 249 235
713.827 14.8589 1298.32 248 254 239
-177.315 108.024 1063.59 222 184 166
-302.857 298.251 1115.67 91 63 58
-277.91 376.153 1127.61 115 94 83
455.542 -69.9984 1219.43 205 200 208
-199.431 104.243 1038.08 239 196 187
463.377 49.9922 1291.13 227 223 220
-216.724 -14.7824 986.857 196 173 158
-237.835 348.494 1136.8 220 199 193
-233.09 231.215 1103.08 252 244 232
600.382 -208.886 1155.66 204 219 210
464.826 -88.3557 1201.74 247 255 254
572.06 -209.969 1108.78 51 60 64
-270.274 467.134 1216.15 70 70 66
-206.243 50.668 1010.79 227 201 190
-4.33944 423.874 1381.15 41 31 22
-73.081 278.252 1122.66 116 108 92
516.611 -37.2451 1227.66 255 248 228
425.676 -104.02 1162.62 254 244 244
379.415 -212.422 1146.2 185 178 177
-308.026 143.004 1032.24 75 33 16
-158.616 136.878 1094.67 81 39 9
650.92 -14.8272 1236.68 88 107 97
-190.115 128.75 1061.44 96 60 39
-306.425 208.082 1060.43 221 188 154
-69.5157 279.416 1100.21 210 202 189
-210.985 43.1716 1009.38 61 23 15
420.131 -35.4076 1170.59 111 66 67
-20.2916 258.244 1132.81 255 252 235
-164.055 163.72 1095.04 115 101 80
-245.539 293.728 1104.11 250 253 252
429.127 -39.8786 1221.44 105 96 96
-142.311 181.251 1055.8 98 90 70
-70.4064 56.8964 1084.84 250 242 212
-320.57 78.732 1004.98 68 50 42
-354.382 105.966 1017.79 235 224 214
409.311 -237.27 1247 53 14 13
-200.321 -15.6359 969.693 200 184 169
-59.2288 91.483 1068.64 251 234 208
-201.619 80.6306 1013.05 134 112 108
466.933 -188.293 1095.25 82 77 75
-293.502 349.804 1159.42 118 86 87
-148.042 23.5987 1083.88 231 212 197
-223.586 -12.2289 978.377 222 204 200
381.784 105.658 1486.65 54 44 42
-148.791 397.166 1217.39 224 233 191
-281.797 318.484 1095.83 124 111 109
547.645 334.253 1463.94 145 169 196
360.848 -159.029 1071.78 155 150 143
-169.386 312.615 1175.15 249 246 228
-62.4558 87.4199 1136.24 245 243 208
397.522 -170.242 1137.77 174 174 174
-74.3091 19.6767 1019.48 255 248 221
-85.3172 51.9623 1037.27 251 227 199
-330.654 61.2189 1022.42 81 67 57
-78.4611 112.999 1085.75 149 116 98
-280.353 388.865 1228.87 71 66 54
-316.667 72.9487 927.99 80 51 38
-173.897 330.36 1176.34 131 122 102
527.242 32.6398 1237.72 233 213 204
514.393 -32.6029 1283.28 254 240 216
-316.978 151.094 1009.9 103 95 92
567.513 271.591 1504.8 26 53 77
689.013 358.573 1553.93 45 69 98
438.382 20.3442 1229.8 68 53 57
-94.2217 51.3812 1079.58 119 86 48
437.411 -176.526 1065.02 172 169 162
-298.045 124.226 1013.67 92 82 77
438.679 26.4332 1230.58 191 174 175
-242.147 87.2619 1003.63 247 232 224
-73.0501 46.1935 1083.78 254 247 233
506.234 -93.0141 1168.72 221 216 202
-238.452 252.731 1102.7 118 85 70
-276.332 395.965 1209.04 200 194 183
-190.451 163.171 1128.68 175 146 129
-308.293 294.388 1138.01 129 108 112
-304.318 63.9246 1047.14 243 229 215
590.294 366.379 1514.98 91 123 121
414.678 -87.6396 1083.25 223 214 211
-112.721 282.225 1133.97 255 255 254
-122.119 283.538 1111.96 254 249 247
559.374 41.8061 1240.81 107 85 71
-242.281 561.195 1292.82 39 39 32
-275.549 265.512 1046.06 252 238 245
-73.0387 38.1731 1083.39 250 245 228
-56.0408 98.6169 1046.49 245 233 207
-314.266 58.7024 958.56 131 101 104
707.404 -51.8886 1287.15 227 251 235
-68.5595 50.1363 1001.23 157 128 105
-125.984 159.754 1077.48 83 45 19
-315.821 204.049 1032.87 255 252 241
-292.611 248.076 1021.9 138 148 137
343.389 -245.905 1285.83 174 179 172
639.445 -253.365 1241.21 152 185 192
-137.626 164.665 1101.39 76 47 26
377.275 -221.697 1292.3 24 26 23
-20.2998 249.798 1132.32 255 248 233
-61.381 320.837 1152.3 123 53 32
635.971 -97.4236 1223.46 224 226 201
-251.038 327.721 1016.19 223 203 190
-179.48 109.437 1162.44 153 102 67
632.069 -145.903 1163.33 235 246 233
-297.309 256.117 1065.92 229 225 209
-350.539 160.959 1067.89 248 247 248
-106.56 35.7618 1047.31 244 219 220
-65.0804 56.9606 1085.94 228 227 202
-108.3 24.6434 1071.46 142 77 48
-137.93 222.116 1104.79 250 244 227
-262.409 -109.505 1182.28 17 21 16
-314.658 178.246 988.884 232 226 208
512.204 -105.825 1217.85 248 232 197
-299.714 302.165 1220.14 252 228 221
478.655 27.6841 1289.34 87 85 88
637.462 -111.136 1442.8 194 194 191
-193.59 268.164 1093.95 148 149 153
484.954 -261.474 1297.57 114 97 84
-246.377 271.398 1101.51 252 246 244
-152.511 -11.5467 1020.43 101 32 12
-247.638 278.187 1080.66 124 121 120
-184.754 377.124 1098.44 175 191 160
-306.319 350.549 1171.45 252 254 255
460.195 -12.5197 1176.26 244 236 218
507.883 -220.991 1076.93 182 211 203
-199.084 249.496 1112.39 161 140 131
-310.326 136.406 925.932 251 254 254
-140.366 31.2243 1024.85 224 180 166
-248.56 267.18 1052.92 242 234 235
-208.708 40.3138 1032.27 244 206 184
536.893 35.7251 1238.71 140 117 99
-254.122 376.169 1036.22 71 62 50
-109.904 27.4008 1075.09 255 251 228
-45.3781 156.575 1121.33 250 223 216
460.641 -9.61754 1180.95 242 231 226
542.883 262.603 1399.2 132 159 170
480.867 8.59649 1286.88 190 188 201
530.847 -10.1302 1232.19 216 201 194
-351.866 85.0367 990.658 222 202 185
-174.156 -4.21838 1059.26 56 26 18
518.958 -96.914 1219.44 231 223 197
-314.497 68.4055 928.38 107 111 99
446.552 -63.9543 1219.61 116 103 105
-299.444 51.7962 1009.42 135 135 127
536.131 -124.357 1430.6 223 218 221
518.024 28.9245 1273.3 215 202 192
-189.113 325.928 1170.85 112 102 76
701.325 373.291 1559.63 90 116 132
-143.953 20.2459 1046.26 87 49 31
622.657 127.504 1373.86 254 255 239
423.633 -24.8476 1222.93 181 172 159
-236.234 565.243 1294.97 138 136 138
-261.146 300.317 1051.07 255 229 222
-89.0269 94.8996 1107.91 245 225 206
-101.683 46.7217 1033.16 249 216 191
-232.734 92.4178 1006.12 247 228 208
-289.814 342.588 1095.43 245 242 245
455.123 -260.84 1295.16 205 167 167
-309.232 74.1586 1046.21 93 83 72
-246.183 246.939 1100.44 207 154 141
393.925 -227.68 1366.64 47 48 45
664.361 250.557 1512.81 111 137 152
714.737 24.458 1299.91 126 140 125
614.291 -144.564 1165.17 55 60 49
-116.763 294.96 1113.81 255 253 234
-270.121 263.283 1073.79 169 158 153
-167.641 310.975 1102.65 254 247 227
-281.665 76.5964 993.354 248 253 243
-297.358 259.966 1087.63 152 137 124
-331.163 172.452 1074 80 60 21
-249.36 -7.76074 1013.86 185 164 149
-161.73 210.055 1098.4 129 112 107
558.536 -102.822 1272.17 76 66 54
711.694 -7.58853 1294.61 243 254 233
477.706 205.79 1311.55 50 35 31
-67.7632 72.9926 1086.15 250 217 195
-100.25 50.3168 977.262 243 221 206
-30.0669 236.866 1222.9 248 243 223
576.905 169.318 1258.01 231 237 223
-108.48 395.37 1198.44 93 74 46
-191.033 178.146 1163.22 97 54 32
-100.82 69.9839 1058.64 254 240 214
-205.761 81.1234 1052.96 121 92 87
-177.367 167.905 1114 142 107 85
-127.209 217.172 1106.99 248 228 199
729.25 5.60616 1357.49 123 138 128
-48.1298 139.887 1119.65 231 214 187
-353.105 130.266 1042.06 254 251 250
-317.996 283.169 1110.31 146 144 146
-293.016 349.664 1144.99 160 158 152
575.052 45.9415 1358.7 242 229 212
413.908 18.5933 1128.99 191 189 190
-188.336 262.998 1094.98 248 243 241
350.862 -208.441 1232.8 169 173 168
-85.2781 84.3926 1013.32 236 221 188
417.782 -84.0344 1164.54 238 232 229
640.936 186.375 1383.47 205 214 205
-175.89 2.3065 1081.96 136 104 96
400.525 -72.5535 1164.65 129 104 98
-44.904 183.51 1197.9 255 249 209
-48.7665 147.78 1160.11 183 158 116
645.788 37.6936 1426.22 222 194 187
-349.459 75.1265 972.087 108 58 45
384.332 -258.601 1351.79 153 161 153
-83.7529 102.199 1084.15 247 224 200
670.827 0.407054 1239.35 223 234 226
400.292 -266.321 1298.93 173 156 147
506.843 -196.832 1053.86 198 204 203
-133.141 9.35536 968.591 142 65 33
510.197 117.813 1303.77 195 198 176
-280.737 115.499 1085.08 215 150 119
702.407 -166.766 1267.56 202 218 208
-107.328 -35.5342 1057.3 176 147 104
386.34 -243.781 1290.69 198 180 171
-255.514 -3.94943 996.81 200 180 146
662.12 329.559 1460.63 203 225 231
450.431 -249.372 1237.71 144 109 98
-277.632 265.464 1071.87 172 161 165
-142.42 375.388 1109.13 151 142 120
-136.18 -19.1316 1021.04 157 100 76
-274.146 46.8127 885.763 222 200 189
-107.175 26.9486 1004.46 207 192 159
-136.554 53.9234 1049.89 191 142 132
-30.0897 225.462 1179.18 237 233 212
-61.9527 224.085 1172.14 177 127 98
-231.97 -16.2624 1002.07 34 14 5
-77.0703 148.338 1025.96 235 183 154
-107.236 299.469 1135.84 253 252 245
-305.243 104.846 1031.29 224 170 157
-295.008 52.2165 970.31 140 118 103
546.917 -52.6234 1134.77 228 220 213
-268.573 311.511 1149.72 236 191 194
-266.016 -114.89 1239.65 119 122 119
-111.512 -36.3372 1044 254 237 209
-140.868 -17.419 1066.18 254 192 159
662.809 -139.144 1217.35 202 220 193
-170.985 431.055 1240.82 105 91 74
-68.2874 79.6681 1187.01 208 199 179
-306.138 337.158 1140.79 198 195 195
-323 109.033 1073.09 255 209 200
-261.235 59.9392 979.442 246 225 217
549.27 -218.475 1097.07 107 130 144
566.356 354.417 1511.34 74 102 122
483.3 -129.722 1162.74 140 146 134
-324.124 98.4684 967.744 145 135 131
-30.0737 224.719 1222.57 168 154 139
-252.802 304.23 1210.65 255 244 236
525.825 -7.27134 1287.66 246 228 233
-276.623 90.244 968.726 245 203 191
612.33 143.381 1540.82 208 210 181
-128.814 399.678 1193.77 128 118 107
-322.114 94.6567 964.984 222 230 216
548.052 82.4481 1301.75 241 231 200
534.55 -215.08 1066.56 91 136 143
