-12.9502 -16.1936 1164.06 255 250 233
-68.7071 393.034 1041.57 255 248 229
134.73 -48.5845 1498.6 244 237 218
-48.6704 23.8646 1066.48 255 241 230
-25.045 32.3079 1047.22 62 0 0
97.7105 418.618 1840.93 35 61 67
121.18 44.2851 1510.6 234 227 224
105.687 25.5026 1504.67 221 180 159
-64.8275 405.795 1082.17 135 115 95
-140.72 127.177 972.237 198 174 171
-0.095558 153.679 785.997 24 40 33
-63.5818 388.164 1042.33 84 62 45
100.695 380.713 1702.59 40 70 86
-85.3477 208.161 970.455 73 50 63
-152.336 112.18 969.102 184 170 156
-51.1247 352.809 1064.03 195 174 159
-99.4597 188.026 966.469 43 22 17
143.356 39.0519 1594.02 133 110 95
-43.7322 450.037 1108.52 187 184 173
-51.9232 371.796 1039.85 60 54 48
-49.3615 377.198 1040.53 252 242 236
-61.7018 415.398 1023.64 201 178 170
123.911 -19.0377 1501.28 217 193 182
147.185 237.072 1627.75 104 104 90
-70.9185 362.532 1000.45 215 199 195
-26.051 190.537 1101.91 112 91 75
-62.1014 310.997 1079.01 110 101 103
-61.0373 473.815 1090.67 212 217 203
-48.2195 334.24 1129.94 99 80 75
117.458 319.943 1726.63 83 108 116
-76.2934 368.583 1038.17 195 175 168
-38.8037 -10.5023 1159.35 90 70 60
-56.2537 14.1864 1109.26 169 157 154
-83.9645 292.965 1012.92 79 62 52
37.0668 -105.746 1470.33 25 23 21
-54.1188 281.669 1079.38 255 242 218
89.566 344.374 1558.23 163 201 225
-66.5891 309.458 1017.44 152 135 130
-67.9982 166.316 986.9 111 60 30
-53.7052 307.009 1060.81 150 144 144
-66.9373 456.483 1066.08 113 102 81
-47.9173 415.988 1112.83 223 210 200
-71.8854 292.521 1056.08 155 127 116
13.2086 209.337 1207.79 23 41 36
-47.9026 385.016 1110.98 208 209 204
-92.0308 68.7589 943.639 254 220 194
-82.9255 133.375 947.971 251 230 217
-71.78 241.995 1052.91 248 226 196
-86.0611 104.129 982.548 114 84 72
136.07 78.7136 1599.48 93 76 71
-92.0642 83.0171 944.208 111 41 25
140.501 98.7416 1603.8 56 34 16
148.208 78.8351 1601.91 232 216 210
-87.3905 192.962 984.931 128 95 70
-53.557 257.322 996.739 148 107 101
-47.7756 379.198 1021.79 88 77 71
-92.0531 78.2515 944.019 215 144 115
-130.208 261.79 963.735 162 156 141
-9.26351 419.858 1119.46 113 113 108
-126.932 189.27 1016.95 89 47 30
-65.1121 299.836 1010.68 222 206 212
-133.675 127.415 973.751 170 153 148
-27.2947 175.688 1146.57 255 248 219
-26.0296 218.335 1104.06 144 133 123
-84.3206 29.6466 1018.11 207 174 156
-193.609 77.0944 958.469 161 135 123
-111.388 206.315 995.861 53 30 13
-94.7799 224.062 1025.37 233 200 174
-15.7998 6.78085 1165.35 212 180 158
5.77031 161.299 1117.01 73 66 57
-98.5343 108.343 1129.13 195 189 177
-229.409 104.672 989.379 50 11 5
-11.8944 6.12334 1232.63 131 107 98
94.0315 3.20275 1498.91 138 113 102
-77.9445 433.062 1107.24 93 90 88
-320.48 71.4 1004.54 56 43 29
56.7671 234.037 1376.44 78 109 111
-31.5173 137.806 1096.59 241 217 194
-94.3143 61.6057 942.906 161 132 100
-74.4566 88.4257 1023.14 250 242 234
-207.679 245.017 997.665 57 13 8
-27.6749 196.344 1007.82 235 222 210
-56.8504 439.103 1084.95 212 196 186
156.404 82.9101 1604.21 119 100 85
-90.9894 160.885 984.009 172 170 164
-71.1841 361.066 1038.74 154 131 135
-30.1132 210.288 1149 227 207 193
45.5207 25.2391 1492.1 21 0 2
-101.713 161.16 964.549 204 174 160
-83.6229 109.977 960.477 242 197 178
18.7702 310.16 1233.47 96 99 91
-209.56 267.757 1022.51 60 11 3
63.9985 81.8906 1584.82 143 121 99
119.403 257.931 1548.47 135 165 163
-61.7853 34.2373 1064.52 190 174 158
122.62 3.58527 1583.69 103 52 50
-31.573 150.932 1163.33 164 128 104
-94.2223 94.9497 977.43 46 13 6
-45.3759 133.829 1119.4 251 246 236
-77.388 458.184 1063.92 161 140 112
-64.4372 109.233 1026.2 255 251 232
-154.508 82.2767 949.057 131 101 92
103.984 86.3262 1594.21 147 126 122
133.158 321.207 1830.62 191 212 240
-95.6823 118.703 981.258 148 59 44
-71.5687 304.01 1016.11 255 249 253
-99.0221 130.408 1051.18 227 190 169
-39.4662 334.075 1084.36 196 194 171
98.4277 47.8938 1506.61 114 88 83
-107.801 279.669 1047.43 191 172 168
98.6127 -0.916694 1352.64 179 147 138
51.0132 73.3162 1426.38 144 121 96
-69.7166 427.319 1069.14 175 173 169
-62.9702 40.8173 1153.31 252 227 209
-35.111 125.34 993.329 222 187 173
127.923 74.6453 1597.15 44 29 29
-72.1267 429.084 1063.64 55 37 30
-95.6325 473.041 1082.81 74 58 46
-69.9329 130.031 974.32 249 234 229
-74.0352 109.383 985.158 165 169 162
-96.6001 56.8268 942.268 221 194 170
140.301 -156.162 1641.88 149 165 162
-47.4193 267.637 1076.81 115 96 85
-68.425 163.211 1067.85 192 155 144
-52.9177 416.132 1088.16 186 179 176
-63.824 131.196 1047.03 249 214 201
-138.417 325.079 1043.18 107 95 85
-110.099 152.798 979.76 106 57 47
-35.2319 131.567 1020.64 186 149 131
-42.1003 256.974 1076.96 190 165 151
-157.176 340.634 1105.69 156 135 129
-104.418 258.442 969.096 111 81 69
-24.2448 247.039 1180.96 197 179 167
-44.6642 487.312 1188.97 35 32 40
-79.7636 248.021 1029.53 232 209 199
-177.97 167.743 802.399 55 2 1
