-3.05425 57.1448 1098.1 20 0 0
-121.962 291.489 1161.82 250 245 240
-113.548 306.606 1164.7 215 211 206
-177.282 310.916 1203.47 254 245 234
-59.645 67.5763 1135.6 255 235 211
13.1208 110.469 1129.57 44 19 3
-58.8757 76.3533 1161.79 72 31 17
-68.3071 31.4847 1101.34 254 237 219
-56.0323 87.9314 1163.26 45 29 27
-132.097 276.3 1214.39 102 90 83
-46.3583 83.6769 1090.83 255 247 234
-129.394 265.922 1181.94 46 33 33
-67.9686 39.4273 1132.39 44 9 7
-67.0242 48.7549 1064.29 111 82 61
-186.834 2.64942 1056.65 36 22 12
-103.023 -29.762 1052.16 24 2 2
-116.767 301.242 1113.42 225 222 221
-174.827 206.855 1094.53 99 98 96
-133.204 290.788 1159.09 208 206 198
-90.1056 42.0476 1127.76 246 223 203
610.213 224.518 1544.31 28 53 63
509.275 -177.19 1310.17 241 233 239
-124.262 181.253 1154.34 89 43 31
-45.3527 98.1563 1117.14 249 240 222
-61.7554 53.7211 1110.76 255 243 219
526.933 -67.7345 1390.19 232 228 231
-70.4497 94.0486 1086.36 250 239 223
650.085 148.958 1635.79 217 255 255
-222.591 -2.56459 1004.9 228 234 222
-57.0445 21.6337 1085.81 39 2 2
-160.869 308.192 1176.2 166 144 135
-78.1225 72.7492 1108.58 233 204 193
-100.43 -22.739 1092.76 255 238 237
474.634 -205.298 1244.95 232 226 226
-126.326 288.547 1081.62 111 107 98
-50.7428 59.1415 1189.43 80 44 13
649.218 -121.981 1464.63 218 180 176
-96.3124 243.366 1164.91 248 252 233
-81.0302 61.6624 1082.73 250 239 218
-124.445 218.772 1156.74 255 247 240
-67.0814 83.0693 1066.33 102 74 44
-201.726 85.6923 1036.34 111 80 72
519.908 -107.55 1394.28 101 107 104
-78.3668 53.6564 1082.93 88 39 13
-154.517 379.589 1213.7 140 136 127
643.089 -94.886 1524.56 220 213 212
-107.646 -83.5177 1026.93 216 199 189
-140.905 288.84 1180.19 84 75 67
-174.885 215.04 1094.98 109 96 79
-37.2149 107.479 1142.28 87 73 54
-181.565 -13.9664 1029.6 100 36 42
-68.0552 109.658 1135.89 244 234 225
-175.206 127.483 1003.36 222 185 153
551.452 -84.3028 1324.64 246 231 213
-127.868 355.316 1164.05 62 61 49
505.305 -170.397 1320.29 92 78 76
-119.058 271.278 1161.3 220 210 188
-133.513 357.813 1162.83 199 195 187
534.802 -77.7153 1324.04 250 247 247
52.2265 293.563 1255.28 110 102 98
-143.261 328.938 1272.59 129 123 115
-15.6823 82.774 1171.33 113 98 73
23.1117 -41.4122 1053.39 255 240 217
-76.3982 48.7963 1038.46 179 150 129
-105.132 -88.6056 1027.21 54 24 12
511.102 -2.45719 1346.28 167 159 135
-212.239 8.40899 989.082 100 85 81
26.0309 -55.7447 1167.54 252 244 225
-212.278 13.2946 989.298 134 120 106
-148.413 197.082 1100.34 253 251 251
-179.187 -8.6296 988.474 255 249 233
11.0805 133.139 1234.44 180 162 138
22.9357 -32.9645 1075.79 255 247 224
-132.37 181.263 1103.19 230 214 198
-174.739 -10.8072 958.936 146 97 100
-140.592 -78.5572 1063.47 228 218 213
-156.289 255.137 1122.27 114 86 90
-203.708 11.3484 1025.28 99 106 93
-61.6636 -73.9008 1016.62 93 58 46
-187.238 70.6476 1059.47 109 85 68
-6.27377 -41.8007 1140.38 255 244 238
-149.978 292.632 1155.12 181 151 141
518.609 -191.505 1206.09 248 246 228
-170.25 262.634 1090.51 253 248 245
-96.2505 -82.9545 989.045 188 168 151
36.5455 1.57438 1080.57 255 242 226
12.6634 -25.9148 1119.52 255 241 214
-133.395 331.537 1161.4 255 249 237
517.06 -171.271 1353.45 255 243 242
-159.275 243.296 1100.35 132 114 106
631.789 148.977 1572.98 208 245 252
404.362 7.09128 1547.55 67 61 55
-230.571 39.2088 1026.77 254 242 236
-235.181 21.3043 1018.18 255 238 219
604.614 -85.243 1394.5 237 212 201
-140.984 180.593 1150.28 179 140 124
-225.355 88.9614 1074.91 255 249 255
-124.502 214.701 1106.95 125 122 120
-119.761 341.249 1190.04 43 24 15
493.442 -362.699 1416.98 180 148 132
-182.89 292.409 1200.76 255 251 249
-124.05 -80.71 1040.09 152 137 126
416.464 -311.933 1348.6 7 11 19
-204.717 11.9489 1070.35 157 158 150
-113.493 151.699 1105.77 255 245 234
-35.5041 -40.5179 1064.8 255 224 207
74.7377 309.598 1344.46 92 83 63
-144.406 292.985 1156.5 62 43 32
-123.593 240.003 1129.24 255 231 218
-6.04636 332.743 1212 64 76 97
500.903 -190.506 1248.69 252 250 252
-156.38 282.251 1053.4 244 246 240
484.18 -141.814 1312.23 85 39 26
782.761 236.03 1876.11 131 156 163
654.608 175.539 1676.52 122 145 144
-129.956 201.173 1154.29 240 236 230
36.5853 9.59975 1081.13 247 223 204
631.812 -146.965 1537.95 255 247 233
482.134 -183.217 1307.15 217 202 195
585.646 -81.2461 1327.62 143 102 99
40.895 18.4026 1127.99 255 236 209
-129.819 175.273 1152.61 225 171 152
65.9711 90.5274 1214.99 242 228 207
613.529 140.856 1590.51 60 102 121
7.67311 -29.4435 1095.69 123 90 72
-170.18 -7.33757 976.707 212 202 197
520.112 -138.647 1267.77 235 217 189
-195.078 -8.61042 981.413 240 236 223
-148.507 213.576 1101.26 253 224 192
-141.76 16.7047 1114.88 255 251 251
-179.916 187.499 1092.17 208 190 185
13.946 7.24569 1116.81 255 251 229
-4.70107 -29.229 1087.19 255 191 168
-174.672 185.004 1093.31 115 86 74
-159.439 270.835 1101.81 146 137 134
-200.258 138.605 1059.17 243 234 215
-203.408 -6.37936 1031.04 155 136 146
-46.3124 -77.2473 1082.95 169 78 50
-196.142 203.021 1110.56 178 170 173
501.118 -152.205 1318.08 170 125 118
-29.9928 346.253 1301.62 184 170 163
526.216 -114.974 1359.24 248 234 234
-246.92 -16.305 1014.28 202 129 108
-151.611 37.4447 1045.5 245 202 183
-56.1977 239.459 1173.73 217 202 176
-118.214 89.6999 1149.45 139 116 91
605.521 -86.8566 1338.27 200 178 154
-10.5484 311.951 1212.7 36 22 21
500.362 -154.775 1312.12 219 197 198
-88.8533 8.16939 1078.64 255 254 242
-22.3473 324.031 1241.56 24 14 10
-148.63 235.61 1102.47 252 217 204
-47.2248 -84.4526 1055.42 107 34 18
-166.838 204.372 1117.71 231 217 219
-165.022 10.9143 992.037 254 254 249
-79.3018 191.176 1137.12 171 157 153
-109.442 141.584 1051.77 160 144 133
532.224 -126.198 1318.16 223 197 177
-46.1374 -80.3273 1169.22 252 192 165
-0.850015 357.963 1309.09 8 11 24
21.6403 73.8247 1103.52 254 238 228
-158.536 329.742 1155.17 168 150 133
-204.984 -175.276 1286.31 46 49 39
596.777 -158.602 1388.82 233 218 205
4.41744 10.0417 1120.72 255 241 243
672.214 167.466 1678.93 84 114 131
4.73842 381.935 1402.5 45 53 59
483.541 -345.626 1418.62 194 165 159
-186.363 20.0924 1080.54 223 224 215
-18.4884 345.254 1328.56 95 66 60
529.275 136.718 1374.06 105 145 161
631.896 225.349 1692.51 45 84 92
-46.13 287.283 1081.48 225 214 192
666.323 -106.287 1525.86 132 110 110
-246.008 -24.7058 998.468 206 172 144
679.664 230.029 1696.42 125 163 163
629.543 -139.784 1388.99 162 140 128
594.174 -18.2717 1413.59 136 130 110
-83.5676 2.84152 1079.49 175 116 117
-156.239 -20.885 1062.65 245 188 174
-202.743 -6.2196 990.634 135 128 117
-10.2056 215.783 1236.57 181 171 176
-133.653 -14.1451 1046.56 255 214 202
-102.767 -96.8353 1048.17 148 131 125
773.489 124.857 1750.08 168 194 192
-88.1279 159.34 1066.25 175 161 151
783.458 193.101 1933.14 190 216 224
-5.50356 -25.7131 1111.92 255 238 220
614.314 -142.086 1329.24 178 172 165
-98.3478 -25.0957 918.479 255 245 229
521.656 87.3866 1372.3 70 73 61
-13.8279 363.722 1306.58 6 4 20
-72.9865 21.723 1154.61 255 242 223
-127.386 193.104 1093.22 251 253 250
-34.1267 -64.1203 1042.04 127 51 18
-165.74 152.77 1006.72 142 116 85
-232.664 62.201 1071.44 246 239 233
-5.61026 228.479 1317.69 254 250 252
-51.2861 129.823 1140.4 180 167 155
-115.3 85.2127 1076.43 230 197 177
-152.177 261.729 1176.31 221 132 110
-219.325 131.832 1134.42 255 250 229
-105.09 200.719 1083.25 126 95 80
656.275 193.142 1584.37 138 167 174
-193.594 149.282 1160.63 155 101 70
606.113 107.963 1627.12 159 170 165
-115.805 148.145 1034.47 169 165 159
-191.984 101.362 1039.53 203 170 133
-107.163 121.441 1154.26 185 140 127
-218.819 80.2143 1031.84 236 234 234
-135.599 212.455 1153.66 168 153 149
-187.108 111.81 1041.26 200 175 145
-84.7274 171.131 1162.84 163 149 141
5.83751 13.4244 1166.48 255 231 243
640.426 -136.487 1390.14 147 117 108
-32.9229 -23.8607 1088.33 235 199 182
646.657 -15.8528 1532.36 232 228 203
-95.4555 9.26071 1056.07 195 190 182
618.525 -132.476 1460.9 227 201 196
-120.41 50.4848 1073.81 167 144 114
-81.5467 209.169 1224.89 255 249 245
-172.498 19.783 951.873 193 183 176
-161.605 193.761 1096.99 208 200 197
-207.785 37.7962 991.501 121 48 52
-142.559 233.857 1058.03 137 60 47
623.343 -0.682329 1531.04 206 203 178
714.192 -2.65779 1566.53 245 242 215
19.4193 -5.27012 1147.47 243 188 174
-56.721 219.324 1076.01 115 97 85
