42.6747 181.995 1368.16 24 17 14
-50.1077 422.664 1160.93 255 251 249
24.1236 85.2145 1290.92 145 135 122
262.657 417.341 1876.16 230 254 255
-38.7907 487.918 1190.29 89 93 86
-86.4313 450.926 1234.09 251 249 247
-15.3937 47.5836 1196.23 78 0 0
-54.1454 434.867 1147.74 71 62 59
263.057 -54.1391 1681.59 241 216 211
-78.6896 346.555 1123.94 137 106 106
-169.194 149.892 1092.48 203 176 172
-68.2936 431.818 1147.12 129 108 89
269.807 345.378 1863.29 66 92 103
-67.0955 451.016 1110.66 239 234 227
25.6677 79.5295 1327.57 255 255 235
260.941 98.7928 1704.97 136 123 123
-55.9625 29.7516 1305.45 246 226 219
-127.214 220.508 1106.47 74 57 51
313.767 390.125 2103.57 71 97 112
262.964 427.063 1878.07 53 75 84
-55.6922 308.033 1151.44 244 222 218
-49.9525 498.036 1244.87 86 68 50
-105.151 340.043 1168.31 116 106 107
253.454 -18.9049 1686.22 225 212 210
-34.6043 389.496 1242.61 248 249 227
-79.3022 458.057 1208.68 244 230 209
189.471 342.36 1846.96 19 40 44
145.1 -120.187 1648.57 79 78 82
-219.807 630.128 1491.73 166 164 161
233.137 6.60594 1788.7 181 155 149
-4.32907 253.128 1300 191 194 190
-116.514 134.592 1058.64 161 80 50
-52.4628 404.973 1210.92 124 104 86
-89.3215 197.155 1113.75 149 133 132
-137.692 178.547 1101.65 60 20 18
-198.465 518.571 1239.04 151 150 139
-17.2002 265.619 1298.13 117 102 93
-83.118 253.432 1071.95 246 231 213
-111.886 124.127 1017.13 214 154 132
-84.1357 317.988 1121.37 255 247 235
294.696 84.5885 1716.13 146 139 131
266.526 51.1689 1803.12 235 214 210
-110.814 333.802 1166.64 226 231 218
372.764 -204.635 1999.12 196 209 207
-81.3809 312.533 1121.71 122 90 64
23.5175 478.62 1309.46 136 134 138
-123.215 108.811 1075.62 119 51 30
-125.629 114.525 1103.68 210 151 138
269.139 326.219 1859.26 104 128 135
315.467 285.531 1925.35 114 112 104
-86.9859 410.74 1151.77 221 218 215
-270.311 566.276 1419.5 184 158 141
-7.11165 231.793 1238.27 254 252 242
-125.803 103.377 1074.83 198 134 109
322.019 35.5318 1801.72 255 250 240
-20.352 226.19 1127.64 235 225 219
-46.8704 429.276 1242.08 245 231 218
-24.4073 149.031 1157.2 126 69 50
-67.9456 401.891 1180.03 153 132 126
-66.5168 493.663 1135.98 224 218 207
259.945 60.6711 1699.35 87 86 81
-198.964 548.238 1302.09 76 75 63
20.322 491.941 1310.42 99 100 98
331.195 35.5526 1803.02 135 126 125
-23.7164 171.155 1288.64 255 242 221
-114.115 179.838 1061.55 127 138 115
-120.666 88.7092 1031.23 251 208 183
-236.695 289.337 1185.82 61 14 8
-105.169 110.833 1011.2 246 238 230
267.088 -34.7774 1646.17 229 235 225
303.111 37.9097 1808.05 251 248 229
303.906 69.1502 1928.51 219 211 200
-96.6464 358.312 1171.27 96 91 97
-67.0346 408.882 1108.27 200 188 183
253.385 29.1875 1697.93 235 209 187
238.705 -27.9209 1598.66 81 57 56
-39.0108 26.7066 1190.02 255 246 231
-16.0301 203.628 1262.86 249 238 209
-27.3944 161.107 1112.62 156 110 93
258.629 75.7627 1621.13 239 212 205
-70.2252 50.0964 1157.35 253 229 208
249.442 100.427 1807.74 174 159 152
103.043 -186.155 2070.73 216 219 210
137.349 83.529 1780.82 35 33 11
-21.3554 211.855 1179.3 156 132 115
-36.245 24.7236 1229.82 159 140 117
295.297 450.254 1990.41 120 134 137
236.278 33.3481 1695.96 207 180 158
-114.166 39.2519 1214.06 95 76 70
-34.8758 549.77 1344.74 108 114 113
-42.849 375.525 1300.46 130 117 111
284.73 14.4948 1697.22 239 214 188
224.139 53.6759 1511.85 164 134 128
-122.174 301.556 1111.95 203 189 186
-22.6591 226.401 1201.96 249 242 227
-46.8533 366.731 1238.5 133 105 100
356.65 -183.699 1884.58 67 75 71
-53.4431 465.665 1186.17 132 126 125
-119.104 139.804 1058.35 216 136 105
-47.8699 326.275 1107.22 222 214 213
323.387 368.496 2098.99 211 249 248
-69.2242 344.217 1322.18 171 127 133
281.675 249.252 1725.37 89 73 57
-97.5288 216.336 1113.01 170 137 127
-150.735 216.671 1121.86 60 15 7
-66.0864 332.443 1078.48 248 228 220
-10.7348 279.026 1300.66 170 137 127
-38.8097 33.1424 1162.72 255 249 228
-103.699 290.84 1026.23 252 254 247
-59.0358 362.775 1235.47 150 145 145
153.019 -152.756 1743.26 228 201 201
308.518 -32.5661 1888.4 147 147 142
-128.376 224.237 1104.34 210 175 162
-78.8277 445.568 1128.14 59 54 51
313.084 50.0462 1926.57 154 135 134
13.1772 118.06 1251 240 189 166
-86.5852 191.687 1114.04 225 173 168
418.712 363.624 2449.06 253 254 249
-42.107 297.533 1218.91 143 124 112
-256.387 125.355 1116.67 79 27 18
-65.102 359.249 1233.86 247 252 248
-22.813 467.131 1157.13 46 50 53
-6.15234 228.665 1289.12 174 160 141
-67.3968 158.853 1116.27 255 237 218
-171.022 166.271 1187.8 74 48 40
-99.6843 137.863 1148.4 186 182 182
-109.189 234.93 1185.14 182 145 135
-75.5782 147.439 1113.81 255 246 232
-102.074 266.928 1164.82 241 223 212
-81.1078 180.723 1114.6 156 106 103
-41.2457 272.365 1128.01 209 175 162
431.294 190.16 2106.28 249 247 230
-47.554 302.39 1179.25 214 187 169
-80.7344 4.73541 1203.05 140 159 174
7.71518 112.414 1178.23 249 208 179
-110.408 219.761 1082.62 122 78 61
27.6788 153.27 1298.16 190 153 131
-47.1778 445.53 1266.31 126 118 114
114.505 -88.3982 1746.03 37 29 5
-75.1494 43.0594 1038.89 217 191 159
170.526 332.114 1840.94 101 116 136
-98.1265 271.236 1100.85 183 165 143
-138.863 259.483 1275.99 68 21 9
