74.9289 -37.962 1287.88 255 250 236
13.2502 5.88962 1170.81 255 248 231
317.614 -82.6589 1683.46 255 248 227
321.216 20.7256 1809.05 251 240 235
213.715 293.53 1743.47 4 27 29
68.8683 446.772 1269.44 97 98 99
9.09786 374.238 1217.11 80 63 55
85.0348 77.266 1276.24 250 246 232
9.8447 419.082 1194.99 245 243 242
-50.8827 104.811 1047.77 152 28 17
5.86123 445.798 1317.28 222 218 216
42.7824 -31.4123 1282.57 85 66 51
13.6686 -5.8436 1222.56 228 219 205
-18.4862 414.023 1168.17 250 235 211
44.3851 15.3399 1230.51 142 86 68
-12.3047 418.719 1193.88 108 83 58
16.5829 452.455 1178.17 143 143 137
-9.76718 514.881 1255.73 210 209 208
-54.2671 58.2995 1025.46 255 246 226
-96.4605 285.666 1167.84 186 163 143
7.94199 284.229 1139.65 111 115 113
26.4614 471 1234.3 171 176 179
-25.8269 384.977 1137.77 164 149 150
306.307 -49.5571 1689.37 246 235 230
-118.8 73.2391 1054.76 197 167 159
3.46253 273.803 1131.49 237 207 200
0.873442 400.079 1191.12 83 78 78
-51.3177 81.9287 1069.47 253 226 203
272.997 -24.4846 1690.05 202 179 173
80.6046 62.7887 1210.16 231 220 203
-20.2465 322.63 1135.94 145 138 140
-59.7317 55.128 1086.82 132 110 93
-20.2542 314.081 1135.51 171 152 150
-14.4563 468.808 1143.53 226 222 209
-51.7519 73.0127 969.205 100 16 6
-46.1119 188.811 1076.81 95 59 46
1.88522 430.434 1173.63 130 130 134
-95.1598 327.064 1225.49 167 151 148
40.4633 173.346 1189.56 138 107 93
-0.567117 19.3643 1197.54 255 248 228
-16.4341 417.682 1220.97 155 146 141
-20.3599 424.615 1120.09 42 26 16
-27.1704 386.807 1164.36 255 247 255
43.5149 217.571 1215.15 113 109 99
38.8962 185.988 1297.86 255 244 229
-156.64 62.2607 1066.17 173 154 146
-40.7734 103.358 1072.9 147 133 129
16.1032 309.922 1167.53 153 142 131
7.76027 442.797 1175.7 107 89 77
-11.5323 400.313 1153.68 225 212 200
183.443 -131.265 1570.12 83 90 83
1.42875 286.186 1213.4 146 95 88
-61.9579 193.637 1119.89 96 59 61
-12.6442 447.09 1171.67 216 198 185
-46.1209 207.621 1077.83 100 67 54
10.7888 373.082 1223.18 211 190 181
40.3707 474.706 1264.45 116 126 138
-43.4599 196.975 1077.79 201 184 161
-1.00059 445.065 1174.02 254 248 244
285.99 395.051 1877.69 63 99 102
8.01172 315.652 1141.34 136 140 128
9.24556 311.526 1136.61 252 254 242
191.073 -142.784 1569.18 103 106 101
194.03 355.329 1740.99 29 45 44
-48.7307 140.532 1073.52 115 37 26
-102.277 118.929 1080.75 171 147 141
-10.2606 486.643 1227.54 82 69 53
-52.4549 109.995 1060.24 226 172 143
40.521 185.232 1190.45 159 140 134
23.2386 345.998 1197.46 216 219 205
251.416 360.028 1864.21 77 105 109
244.79 70.5448 1821.74 28 15 2
-9.00636 297.615 1136.95 151 134 136
45.2895 169.103 1244.68 244 229 206
-3.79239 201.568 1182.73 72 40 20
40.5658 231.365 1328.38 238 228 228
43.9333 151.198 1301.76 186 150 122
229.386 320.211 1959.05 140 154 171
-16.7172 481.277 1195.45 118 95 71
-61.9895 193.611 1073.79 215 178 166
-51.3835 151.134 1073.61 148 124 89
-46.0488 84.6566 1070.69 134 114 93
326.335 -60.9179 1778.78 177 144 144
-74.3166 219.581 1192.9 170 139 120
-69.8052 145.303 1069.46 113 60 53
-28.7669 102.454 1120.9 140 137 138
277.239 284.561 1853.31 113 137 138
2.90225 422.364 1159.49 248 249 251
-8.98883 18.4734 1143.3 156 134 112
-36.9484 465.634 1118.96 123 119 107
36.9789 146.318 1233.83 204 178 152
258.347 284.064 1849.78 77 105 100
38.7944 130.262 1212.22 242 226 200
-110.44 -30.4054 1249.6 142 157 157
-23.1226 237.345 1130.69 235 222 201
347.981 50.9094 1934.29 154 134 127
-27.1888 212.51 1178.58 251 241 213
-20.8802 148.073 1070.95 148 121 118
13.475 274.505 1214.81 138 113 112
15.9062 257.021 1163.01 201 188 186
51.6742 194.227 1248.04 164 151 131
-25.8846 293.885 1133.28 157 156 150
327.933 303.892 1903.11 216 250 251
195.351 -128.315 1657.74 182 186 177
48.0225 163.899 1263.74 189 146 131
28.1687 155.248 1122.84 255 235 218
-51.3791 145.791 1073.3 165 95 66
-48.2971 7.81277 1225.25 109 79 70
264.637 69.7037 1921.3 150 126 115
-91.0605 286.115 1072.3 136 114 113
-12.1124 86.0006 1123.07 255 244 255
-24.2953 378.167 1164.35 160 145 154
279.537 29.9585 1702.89 145 120 115
-16.6053 291.41 1210.02 249 220 204
-98.7482 128.735 1156.83 107 77 75
-0.993303 136.834 1178.58 248 208 194
-23.1724 169.699 1126.52 158 130 128
-9.40822 320.954 1115.6 193 171 175
-17.9647 93.3463 1095.62 185 172 165
301.17 -146.193 1674.39 103 90 83
409.152 65.5273 2017.06 243 222 205
199.385 51.206 1520.81 43 24 7
22.3198 72.4773 1247.52 171 134 128
-51.4291 210.103 1076.87 168 126 104
-30.1728 76.8864 1073.34 255 252 252
28.3869 368.588 1243.68 140 146 111
27.4364 375.401 1256.15 217 213 183
20.5132 78.9295 1205.55 179 179 171
-28.7281 86.165 1162.15 176 176 181
