-55.3809 34.2836 883.732 242 242 231
160.204 438.015 1024.66 4 3 3
-61.8836 35.5769 914.197 247 247 230
-25.9493 -53.4677 1157.32 255 255 245
-277.991 291.318 1520.7 255 248 232
207.346 569.597 1148.19 34 58 72
-331.06 67.3124 1392.36 224 215 208
167.755 239.834 993.92 237 211 202
-25.6923 63.0074 921.683 245 246 226
-357.081 202.384 1400.83 73 42 36
61.5699 282.869 1002.02 102 104 102
-329.42 182.966 1268.8 24 2 0
-54.8835 44.0944 949.605 36 26 20
-371.715 199.454 1369.37 194 181 173
139.37 185.24 952.249 222 209 208
85.6845 135.305 868.19 195 189 182
-179.452 44.6948 998.481 19 18 17
15.0306 15.0413 894.331 0 14 8
-14.3146 26.8413 921.986 255 252 250
67.9608 -48.6122 1019.13 226 219 220
-37.0863 -24.0344 1110.34 99 73 65
50.8151 1.89876 898.986 247 250 250
-302.055 67.8201 1402.35 219 210 206
-387.827 73.0628 1372.77 227 216 207
-341.186 87.8584 1391.53 211 197 188
-483.946 83.0493 1267.45 250 231 213
-37.0856 -45.9006 1108.73 206 224 219
-426.266 306.873 1388.78 255 249 238
-338.528 200.325 1486.53 219 196 180
-46.683 -4.92066 1023.46 255 234 224
-388.139 77.3416 1449.54 199 182 175
-14.0979 17.0112 934.716 29 50 52
84.9387 218.693 921.63 254 253 246
13.1533 156.816 899.584 254 253 239
-398.922 35.5888 1363.66 218 202 188
-15.344 77.6571 862.254 240 250 233
68.9951 -51.0209 1016.66 58 63 50
33.1342 67.6015 841.115 241 239 218
-148.716 41.185 931.187 180 159 135
-38.1375 -36.3244 1064.61 40 39 34
-36.5798 -30.0018 1023.83 255 245 244
35.2513 71.7642 841.566 22 16 15
-364.878 22.727 1309.45 187 161 150
-453.318 -4.63514 1269.39 171 149 144
-486.445 76.7206 1265.71 99 64 51
-429.123 299.612 1386.79 104 78 70
-345.086 78.2603 1465.7 61 54 49
-407.819 223.174 1529.33 214 200 187
-374.296 27.4043 1302.27 186 165 152
-403.45 379.968 1406.21 206 207 201
77.4021 204.06 870.027 87 86 77
27.3075 55.4309 803.57 239 246 243
-544.712 436.764 1627.98 77 78 78
-77.015 -7.15322 970.275 74 73 78
-488.936 70.3775 1263.97 223 213 195
82.4402 -77.3555 1154.22 240 240 236
-345.31 187.491 1458.43 244 222 214
100.618 326.018 926.632 252 252 245
56.2158 -58.4323 1014.22 187 191 179
-345.291 241.991 1410.01 36 15 6
-70.8528 40.0095 912.769 197 157 142
-533.313 3.37633 1289.84 139 110 75
-97.5676 48.9224 908.175 229 222 206
-349.479 183.398 1375.52 82 60 39
-368.844 195.054 1474.68 241 212 195
-397.936 5.31695 1360.01 179 181 177
-373.958 236.66 1399.16 181 161 151
-386.968 273.129 1325.54 140 138 137
-40.1255 47.4612 886.84 192 231 221
72.2436 -71.0936 1077.38 51 60 54
-431.852 288.917 1384.38 250 244 220
-330.054 97.385 1454.22 164 153 159
105.505 347.255 928.386 224 225 205
91.6657 250.012 903.571 246 243 224
-149.573 117.058 1050.46 252 244 242
-80.4202 34.7079 944.436 133 132 124
-496.481 54.5259 1259.09 255 227 192
-362.242 362.899 1469.77 145 149 142
-456.926 67.9773 1600.18 201 178 164
-40.8333 233.733 959.81 254 251 242
-444.273 1.43157 1210.87 176 157 131
-41.5494 44.1279 828.991 126 151 136
-325.462 98.6829 1398.43 37 25 31
-33.9678 276.716 1040.27 126 111 109
-236.84 251.632 1267.92 41 35 30
155.587 171.429 905.058 216 174 181
138.958 160.455 918.209 174 168 150
-342.467 53.9479 1445.16 164 129 125
-410.81 56.4732 1420.62 97 69 57
-463.661 134.443 1281.44 116 83 58
-445.688 186.809 1294.42 254 243 235
221.898 542.454 1124.37 208 230 250
-351.351 227.431 1406.05 112 83 70
-265.436 384.766 1629.09 81 74 63
205.753 569.697 1168.51 65 119 138
-142.971 107.997 971.057 247 241 239
-52.5518 51.1376 950.356 233 229 217
97.6925 320.088 938.997 245 252 238
-347.814 -14.9314 1375.55 160 187 184
219.348 481.966 1119.47 41 64 79
-380.066 211.026 1638.11 65 49 44
131.29 482.159 1086.3 74 105 121
-116.036 33.0214 901.848 38 31 27
-119.459 227.97 1063.17 245 243 239
-59.2535 -9.89158 1020.79 121 123 119
16.4603 -17.0512 994.992 126 82 72
-121.534 38.2752 972.446 167 162 150
-11.0968 54.4709 862.089 161 169 150
-468.668 118.417 1277.6 107 76 49
-21.6703 45.4219 870.325 71 94 91
-334.622 81.0789 1392.94 78 65 57
2.24085 -34.456 1142.49 121 113 111
-64.2696 -7.38802 1019.97 252 213 206
-467.911 1.4516 1201.95 157 144 128
-76.7539 -9.8288 1017.42 210 201 201
-413.666 44.5157 1167.68 128 123 108
-314.288 209.567 1045.66 126 123 124
-83.1273 256.459 1072.49 225 212 198
-464.155 -10.8526 1264.46 144 129 114
-297.166 59.2396 1403.97 71 67 55
-461.35 -1.65114 1101.82 149 137 120
46.1692 -48.887 997.751 72 59 36
-473.982 111.826 1274.76 235 203 183
-43.1749 20.8474 950.607 168 223 211
77.3618 197.629 869.771 70 69 63
57.3716 78.4336 834.232 153 149 136
-1.81264 -34.3982 1045.89 255 174 167
-322.613 61.4569 1452.9 67 42 30
91.2602 75.1814 877.812 59 62 58
-481.554 92.6035 1269.51 147 113 95
-14.3311 50.7794 807.211 46 52 31
-13.0344 268.679 988.022 254 248 239
-53.5093 45.6406 854.88 220 185 174
-479.038 99.0136 1271.26 236 207 195
103.07 337.737 927.568 239 241 235
-122.288 141.754 1035.5 255 248 238
-88.6668 33.3388 909.223 173 172 161
-37.5446 228.283 997.51 253 243 241
-428.281 310.301 1485.95 46 39 34
-10.2212 -14.0919 954.511 194 137 129
-331.791 95.0315 1395.76 189 187 185
-40.7682 -15.3848 1065.49 24 23 20
-45.8438 273.131 1060.77 248 224 213
-452.016 39.4139 1274.92 199 183 171
-108.036 53.0541 939.915 207 200 176
-453.627 -24.4331 1334.55 140 135 117
-301.554 46.9547 1399.75 72 57 37
-488.898 -4.5555 1255.35 23 15 12
-558.368 108.321 1308.54 255 248 232
114.222 367.919 963.653 203 205 181
-398.467 -42.663 1285.66 179 154 131
-476.514 105.401 1273.01 143 110 94
-498.942 48.267 1257.36 144 95 57
-28.9793 -12.42 1026.27 115 66 50
-548.922 188.629 1400.7 152 161 162
-379.938 227.911 1475.41 234 201 184
22.7875 121.655 841.317 241 246 243
-562.836 168.042 1387.43 144 137 128
92.8276 300.992 937.574 230 245 232
-81.3425 150.484 985.731 218 214 202
129.721 356.302 1001.18 237 232 226
-66.2165 159.054 971.831 236 234 204
-303.517 179.537 1495.8 82 40 24
-312.293 88.5679 1401.62 30 28 28
-534.693 135.539 1322.63 171 142 125
-292.696 362.942 1715.18 99 102 90
-245.224 266.391 1528.07 116 110 85
-448.205 176.888 1292.33 157 107 92
-408.288 306.7 1337.32 148 106 87
-590.375 157.373 1445.26 169 157 138
-47.3806 257.57 996.699 250 226 217
231.716 596.337 1201.33 91 125 132
25.6731 117.327 869.979 253 255 246
4.16902 -20.0738 1031.66 143 120 105
-14.1974 122.859 926.074 216 212 202
-54.9591 152.576 954.241 165 146 118
230.584 462.973 1120.21 170 193 210
101.441 354.159 975.243 246 255 248
-43.8727 101.493 920.081 152 136 122
-40.6763 165.694 942.216 245 225 205
-444.354 -23.4179 1270.71 143 138 110
-443.006 256.655 1375.99 255 251 228
-92.0484 252.337 1066.17 236 233 227
-388.414 341.816 1283.8 151 151 140
-70.8893 248.649 1030.49 250 225 208
35.0657 212.766 909.897 109 109 94
-127.343 148.469 995.432 173 162 161
-421.306 261.821 1325.44 232 203 163
-116.61 254.918 1111.26 251 249 251
34.7335 201.626 921.062 119 122 110
-15.6183 48.9033 911.558 101 117 117
-601.433 135.238 1437.2 240 230 224
-426.878 254.662 1322.2 175 147 128
-45.522 34.851 950.859 106 161 146
-551.519 181.433 1398.4 225 219 204
-60.8872 381.906 1084.25 120 120 111
-322.506 -14.9895 1384.35 91 91 86
-362.518 -47.757 1512.03 86 82 67
-349.407 256.076 1420.6 153 124 116
34.7589 156.511 890.893 254 255 240
72.4059 109.14 865.06 39 33 25
-15.2732 241.818 1002.21 129 114 104
-111.675 217.738 1064.39 230 228 232
88.8841 314.499 971.699 252 255 250
-331.523 13.8923 1251.42 151 125 119
-300.988 179.51 1424.19 146 120 99
-528.304 280.811 1353.99 255 255 247
34.4031 126.3 871.586 227 236 222
-54.0504 177.662 1074.58 235 212 196
73.6334 249.111 932.495 245 254 238
26.8305 194.054 922.464 200 194 169
63.1339 246.158 942.966 243 255 244
124.378 248.307 939.426 178 160 147
-39.3329 106.2 921.064 135 120 111
-91.6085 3.7075 993.348 171 148 121
27.9023 136.718 870.943 237 243 242
-126.88 43.8783 1043.31 97 91 76
-532.878 79.2741 1190.8 179 176 174
61.6133 -16.5588 965.601 52 90 80
-310.014 0.206273 1325.18 84 83 72
-139.744 177.278 1055.97 252 243 236
-124.512 204.149 1060.81 129 114 97
33.5158 195.568 904.009 156 159 144
-636.383 348.989 1658.94 158 157 141
56.1654 269.03 840.228 131 129 129
-125.598 144.406 953.328 255 253 255
-304.964 53.8725 1399.52 152 124 103
120.669 202.94 917.198 183 151 134
87.7575 365.729 1094.55 170 171 166
28.1981 117.927 815.347 163 169 164
-730.242 -26.6339 1341.32 149 152 145
1.6488 -9.50353 956.706 211 195 187
-433.284 225.571 1383.43 113 120 114
83.1017 -26.0614 917.461 35 97 96
-18.0359 -14.5186 989.329 255 234 213
-477.239 497.78 1567.56 160 160 156
-4.80728 60.9993 824.534 157 159 139
-4.11521 -70.7266 1113.05 108 98 97
-52.8778 19.9468 915.119 174 201 189
-270.107 153.338 1321.82 80 50 44
80.9706 220.816 881.059 224 235 218
34.4304 134.841 871.87 251 254 243
-380.97 192.021 1198.72 50 55 43
65.4441 298.442 919.69 225 223 228
-21.1925 151.262 912.259 242 218 197
-444.15 -29.6591 1270.09 146 131 107
-622.78 23.8602 1266.9 232 207 196
-35.923 244.786 930.788 136 132 122
-72.9487 141.391 934.84 252 254 236
-420.461 207.974 1306.2 162 147 118
72.5553 423.162 1049.73 180 181 173
70.187 113.831 837.646 150 134 122
-696.562 75.427 1475.18 255 250 234
103.99 366.587 976.085 249 255 245
99.0442 82.4982 909.557 177 172 170
-515.652 125.092 1252.44 233 213 193
80.8018 344.145 1042.32 93 97 91
-59.6224 121.811 952.12 206 191 188
-13.6029 289.703 1027.3 144 133 118
-369.844 -39.261 1175.55 154 132 109
69.155 272.431 991.133 185 197 177
-134.604 169.559 1056.73 232 220 203
-93.467 205.332 1067.74 245 233 221
-90.7574 193.733 1021.64 255 254 239
48.7882 -26.8336 999.532 233 204 183
-41.0752 176.209 980.446 217 204 179
-598.006 94.0708 1288.63 253 253 242
92.1383 450.875 1097.14 239 242 239
-318.64 331.421 1568.24 169 169 153
11.3388 130.629 908.816 188 195 184
124.917 562.288 1180.96 165 186 186
-457.421 402.936 1400.98 95 95 89
213.258 541.805 1123.04 188 217 235
29.2251 117.029 859.187 250 255 241
79.0091 73.2841 892.933 67 79 72
64.253 248.694 931.001 245 255 255
-606.718 208.052 1450.47 184 165 159
-4.18377 64.6509 844.532 229 235 216
123.324 250.801 940.061 131 116 104
-51.5132 216.956 959.255 252 242 233
-409.779 434.771 1360.37 64 66 63
14.8356 178.002 888.686 232 228 205
81.4918 421.687 1024.26 175 181 178
2.10508 -55.6746 1008.05 175 134 110
-47.8723 329.357 1107.91 170 167 163
5.58253 116.706 828.428 93 99 85
-10.6252 241.7 987.077 255 251 248
-629.337 0.494669 1322.77 235 231 216
91.5975 262.806 863.017 236 239 227
-351.579 22.3978 1587.13 57 53 45
81.0819 64.338 849.895 37 50 50
267.266 639.003 1312.21 86 114 111
-570.317 329.626 1498.36 235 238 217
-48.738 360.955 1005.15 175 172 165
207.753 469.949 1117.14 85 130 153
-329.47 5.63702 1409.1 31 34 29
-257.475 259.236 1587.29 84 66 53
-313.526 8.93878 1390.62 98 92 85
36.6393 143.484 872.475 238 249 236
-2.71325 204.354 965.715 183 183 153
-92.2409 207.044 1025.48 255 245 244
-373.085 -36.5299 1181.72 118 106 85
192.204 231.136 982.428 126 122 123
171.805 537.32 1140.33 152 178 183
-294.671 235.437 1741.94 110 100 92
16.7624 395.441 1146.63 212 209 194
