-609.319 329.706 1396.2 28 29 22
175.589 161.964 967.49 77 84 81
101.07 -26.5895 885.851 238 238 234
13.1101 -111.308 1003.63 247 244 231
19.5753 -94.5126 1009.15 253 245 235
42.391 -54.5783 865.332 239 226 219
17.1877 -135.487 1067.44 9 17 12
262.32 424.835 1243.56 82 97 102
-473.16 166.576 1281.41 79 57 42
36.0344 -58.3445 925.569 242 236 227
168.964 117.943 988.242 44 49 43
-33.6262 -44.1953 896.505 222 214 194
74.4536 -72.1118 911.702 74 73 57
-413.01 383.071 1402.95 180 184 173
-17.9068 -93.8801 1002.88 242 239 237
12.0484 -91.9118 1008.03 237 210 195
158.119 -41.2964 851.699 221 216 204
7.00303 161.769 1002.77 255 250 249
-432.35 301.895 1357.17 253 245 225
-390.729 166.292 1383.87 202 168 154
120.064 -160.957 1106.23 27 38 26
44.9575 -62.6741 1014.8 204 201 182
88.9524 -31.5918 817.946 236 230 224
272.761 352.083 1138.44 26 51 42
-426.201 5.55547 1298.57 182 161 157
58.5258 -2.48907 945.483 239 239 223
144.053 10.7285 892.653 172 187 172
100.312 17.8962 918.726 252 252 239
-277.675 304.174 1382.35 161 157 152
222.547 141.898 946.182 254 255 245
-389.454 31.9843 1476.96 23 6 1
33.4474 26.6118 1030.68 198 182 166
246.904 241.944 1056.44 247 249 247
-377.496 39.7628 1372.07 190 185 180
-559.939 177.477 1247.53 104 102 97
-570.249 419.185 1487.94 77 79 79
40.2368 60.517 966.501 250 249 231
61.0534 -2.41019 912.472 250 250 241
153.235 -31.8569 825.032 231 235 218
49.2624 62.9431 1004.91 255 246 230
-591.708 281.978 1318.45 109 110 96
208.511 96.4819 923.805 114 112 106
-567.236 6.31693 1145.13 119 90 77
45.7013 26.2619 931.329 251 246 241
50.7925 -37.8214 923.998 217 214 212
-433.779 263.422 1307.49 136 97 80
150.997 -44.0254 824.187 77 82 70
187.131 46.7638 888.08 255 253 244
-544.226 178.435 1254.24 116 111 107
-564 176.243 1294.72 255 251 240
194.142 22.656 930.869 135 131 117
15.6326 58.1471 928.182 250 245 233
-71.3348 -36.3521 923.022 175 151 137
-25.3378 -81.487 1002.14 214 200 175
-490.651 163.837 1322.59 225 198 160
51.1553 -113.767 1098.45 233 219 211
165.478 30.1549 915.259 253 255 246
139.267 16.7306 862.721 241 249 237
28.0224 331.716 1145.72 104 103 92
-89.1165 -29.2584 992.528 196 182 178
255.255 271.004 1058.19 254 253 251
59.8634 158.159 1011.67 255 247 241
-327.238 292.063 1503.71 19 25 13
185.149 28.4582 898.212 193 184 166
-633.323 355.936 1476.03 218 221 207
-390.034 230.924 1161.01 251 230 218
155.083 16.4002 903.345 63 80 70
120.014 -89.2752 950.353 205 217 212
-326.942 280.671 1502.2 166 146 129
23.3054 55.5389 942.067 254 251 239
208.578 101.052 924.05 228 231 225
-396.771 41.6838 1231.93 59 35 23
-571.713 -8.87187 1102.53 255 253 242
-391.371 187.094 1386.34 79 43 28
157.491 16.0324 883.136 247 255 238
167.799 -11.7299 926.281 243 244 223
-452.245 256.289 1345.82 126 91 77
-365.86 67.2366 1379.93 158 161 160
-400.652 47.6352 1310.21 186 173 164
232.328 480.711 1218.45 75 105 113
-536.406 136.792 1188.67 155 121 98
265.876 243.078 1018.25 126 121 108
348.506 493.447 1290.49 23 38 35
-682.559 135.921 1460.07 237 220 206
66.4365 175.331 1165.86 254 236 226
35.4616 70.1379 984.244 248 234 223
128.303 29.3251 922.907 163 162 151
-634.654 115.923 1334.43 249 229 215
44.8756 -34.9716 881.647 51 36 35
152.45 109.466 917.715 113 114 99
-382.717 212.005 1392.72 98 70 51
116.533 -33.9513 973.765 248 253 247
257.794 233.943 990.493 228 222 212
232.526 151.193 983.485 250 255 245
229.138 204.436 1012.78 250 254 240
-467.067 489.532 1415.32 100 110 103
-306.964 320.4 1514.75 54 53 42
-355.294 212.166 1329.74 63 47 46
173.197 -28.2432 904.584 194 195 177
-56.6226 104.281 1069.73 250 244 231
-555.58 166.917 1226.59 255 251 239
-363.45 63.7789 1310.15 169 168 164
-466.449 61.8736 1129.06 255 247 221
241.553 471.985 1219.29 224 250 251
296.664 329.176 1077.89 209 225 212
-382.375 213.956 1320.49 187 168 152
10.4776 -137.298 1137.53 39 45 41
-563.525 16.4455 1164.76 117 50 22
-9.74926 21.5264 922.41 223 224 209
23.7224 175.837 1089.54 251 237 226
-399.174 184.975 1358.36 167 135 126
256.157 -191.638 1034.83 60 59 56
225.938 471.044 1216.8 107 130 154
-454.122 -46.0842 1184.15 185 166 151
-361.671 29.2792 1435.57 60 57 46
-62.3195 31.9704 926.782 247 231 230
-572.774 290.581 1327.83 229 227 199
52.1366 190.399 1073.56 255 242 226
-405.689 270.568 1251.48 164 130 119
-49.5699 41.1883 1043.87 232 221 218
-57.0671 96.2558 987.854 255 250 236
-367.949 18.5926 1432.13 52 27 17
-588.179 12.5388 1199.24 229 183 161
-406.061 105.005 1046.14 136 92 62
-544.462 151.232 1186.95 254 252 250
214.222 124.389 936.815 237 243 218
71.1957 83.216 1025.55 244 237 215
160.443 -28.7224 852.62 117 123 102
39.0209 5.58967 919.367 226 211 197
-494.444 -32.7654 1233.07 185 167 145
-30.2294 57.4013 990.95 252 251 248
327.252 469.038 1255.19 101 125 150
151.084 -51.7733 834.007 230 238 222
-489.093 27.5363 1277.43 175 170 159
-48.4558 44.9216 1136.81 239 224 222
234.456 174.196 963.834 227 231 224
-408.52 225.723 1201.57 240 231 215
99.1853 -42.279 873.21 109 107 104
190.214 138.248 968.746 245 252 250
206.088 91.8783 923.291 254 253 252
2.35893 108.169 976.113 255 238 222
105.946 -88.1821 926.717 178 198 204
-383.182 -20.145 1422.28 59 55 47
-444.339 233.148 1300.11 113 86 63
-609.979 290.414 1389.55 239 239 225
197.609 444.778 1210.42 136 159 158
-476.923 50.0401 1145.2 208 194 165
47.3478 -111.068 1047.03 244 216 199
346.624 463.762 1257.61 181 205 212
-55.4133 86.7952 926.361 198 191 190
65.399 -53.7753 944.429 118 150 143
-391.096 18.1237 1183.41 49 33 32
-405.146 210.279 1439.25 200 165 150
224.846 117.158 982.178 147 143 122
-37.5671 45.0631 988.983 250 241 237
172.036 1.79201 866.022 171 175 162
-2.96986 -94.134 1005.42 222 211 197
-437.526 49.9992 1374.66 202 186 174
107.085 -167.535 1122.95 184 180 174
29.4369 252.269 1094.69 233 236 206
43.5808 6.38218 879.088 157 142 128
26.8605 109.935 1003.72 232 223 202
29.1248 -53.6831 924.804 193 150 141
-30.2286 49.0083 1019.9 242 220 213
-22.1664 142.273 1078.84 226 219 222
3.7504 106.335 981.401 255 249 231
-344.561 151.652 1454.86 38 18 6
67.691 -0.123629 966.727 136 126 118
12.5813 244.388 1114.01 95 96 83
-677.26 36.9783 1175.77 248 242 238
-566.415 108.597 1216.89 123 93 76
143.737 29.4929 863.674 235 237 220
-52.8164 33.7566 1015.29 192 174 171
-461.66 -23.5536 1153.54 178 158 133
-516.281 113.738 1093.88 255 251 240
-41.6599 125.965 1031.59 100 84 74
-707.429 -0.664753 1185.52 243 239 221
-40.8348 64.5887 952.967 251 249 253
165.595 39.2115 915.773 236 250 241
272.568 455.18 1222.7 38 79 83
10.71 -55.7299 921.958 153 148 143
203.357 115.494 895.215 225 226 199
-671.897 63.4159 1181.88 248 249 246
-677.922 48.6175 1176.96 251 244 240
93.1992 181.75 1018.2 246 229 216
-546.345 136.329 1184.57 168 132 105
-362.004 43.4881 1437.02 20 19 18
-0.739511 132.075 1082.37 255 246 239
122.43 -45.1212 772.619 242 250 230
18.2441 104.323 1059.19 242 232 207
-396.805 -45.3933 1337.48 122 159 160
131.264 79.6592 913.605 255 254 227
-439.34 287.394 1434.57 176 168 167
-410.999 35.1416 1269.24 135 113 104
-44.8363 -50.1824 904.689 160 163 135
-611.006 236.984 1303.4 157 156 156
-43.8367 -52.9325 913.441 27 28 16
-640.606 91.0732 1200.52 185 137 131
-385.468 353.924 1460.68 228 219 218
-519.017 85.8939 1233.62 171 124 110
238.229 265.796 1042.96 236 241 230
-1.19878 -124.914 1024.04 189 185 172
-323.381 36.3507 1256.21 178 171 165
202.58 138.434 970.329 250 254 246
-481.67 44.3253 1142.92 181 146 111
-374.066 240.631 1399.51 151 128 122
143.089 -49.2049 860.793 112 127 100
-275.399 268.185 1315.12 101 99 89
-505.555 -21.2836 1109.9 243 240 213
-636.57 259.671 1372.17 255 251 245
-419.315 45.871 1352.62 135 120 110
157.847 -8.63464 840.928 220 221 206
-665.768 242.859 1422.41 185 176 171
-349.46 148.053 1299.29 145 121 111
85.5657 191.636 1017.45 149 134 123
79.0764 -60.4911 1040.92 144 200 190
114.898 -42.5783 857.704 92 94 85
-567.361 135.825 1219.02 255 244 215
138.005 86.3667 901.263 226 220 191
221.799 296.665 1066.17 236 235 210
-645.475 224.096 1361.95 218 187 182
144.728 11.2586 852.88 251 253 235
206.542 146.453 870.163 225 225 216
35.6677 127.582 969.001 232 210 200
-349.405 48.4428 1248.84 33 18 8
-0.131683 265.832 1210.77 191 191 183
34.6072 167.497 1007.86 176 159 162
-446.409 119.598 1162.51 201 172 147
-450.721 0.860052 1401.72 115 84 65
63.3282 131.936 957.819 228 210 216
-385.709 233.947 1476.62 158 141 137
159.047 -136.706 988.661 26 76 76
-532.628 -15.4771 1190.25 225 214 180
12.5471 98.5351 988.574 141 133 107
161.282 66.4003 916.705 216 232 219
-7.66264 112.324 1013.1 112 80 59
-403.927 235.633 1288.04 175 166 164
-496.579 442.531 1393.86 149 147 144
-328.753 152.011 1265.87 186 163 153
4.47721 6.73679 937.38 187 167 151
-572.011 102.457 1233.04 149 115 99
-427.282 169.899 1173.78 182 143 118
54.4719 -76.8031 927.187 99 90 90
-645.334 265.778 1369.08 163 153 155
-42.6337 -69.0107 999.613 189 174 143
229.689 308.741 1099.48 186 185 158
-560.714 136.856 1242.17 237 197 168
-599.482 363.097 1405.93 119 114 102
-461.423 449.73 1343.23 53 56 54
193.302 363.317 1142.77 129 161 162
207.657 152.965 971.387 248 254 223
-560.6 38.4456 1326.23 212 167 121
-51.7782 69.6312 1026.63 255 252 254
33.5436 180.557 991.288 224 194 187
240.464 362.902 1115.63 137 166 165
-99.7218 -30.4185 952.914 111 110 104
-17.881 -69.2635 1003.99 173 149 113
-398.446 194.81 1586.51 145 105 84
-383.449 -9.60809 1423.36 30 24 13
71.7262 -118.467 1032.24 147 126 102
-19.427 206.86 1082.96 131 119 98
-50.3166 61.2871 956.314 197 188 192
-559.135 322.379 1278.95 223 221 219
197.147 364.433 1155.15 166 191 189
-23.6612 150.569 1053.13 213 211 214
-18.6077 177.916 1038.67 217 191 182
175.326 71.0714 918.633 252 254 250
80.1147 138.437 1013.97 241 218 212
56.1055 176.902 1026.28 247 206 193
-2.95224 122.158 1101.11 168 122 104
227.525 160.801 982.939 249 255 234
244.509 382.851 1138.05 87 120 133
159.016 56.899 927.869 207 221 198
-471.03 17.1601 1214.62 132 108 91
98.7104 149.037 992.999 240 221 208
35.6904 -104.371 1007.49 144 101 87
140.608 -12.3328 813.402 218 229 206
-478.705 94.487 1207 158 129 111
-631.03 99.6975 1337.37 224 199 182
-424.851 175.927 1175.16 238 220 191
-497.213 105.826 1200.99 255 247 226
-5.92923 237.156 1087.17 110 111 94
-646.839 273.503 1435.49 142 144 143
-64.9857 84.9005 1042.61 255 251 246
-510.186 -28.0229 1296.12 121 98 81
47.1135 140.312 1008.67 221 199 186
234.442 219.609 1013.82 193 196 182
-483.399 79.3415 1203.66 129 100 86
42.842 181.829 1093.39 115 102 98
30.0133 116.549 902.607 146 123 106
-446.174 26.1725 1369.62 148 128 122
125.817 -47.3947 847.893 246 249 245
-301.025 163.196 1415.08 122 105 92
-13.4064 216.886 1041.51 131 126 113
-642.996 273.016 1371.4 250 235 230
-61.8657 49.7645 984.691 255 254 252
180.919 370.581 1192.6 138 169 175
-19.4771 158.443 1080.29 124 122 125
9.94802 90.0078 1015.45 223 209 181
128.657 -157.368 1063.21 69 81 74
-604.422 214.355 1303.08 255 242 238
-492.273 111.943 1203.56 183 152 121
-569.042 433.7 1616.55 135 134 109
-14.4844 199.636 976.459 113 106 90
-16.7616 190.794 1082.62 197 179 166
-655.635 105.405 1195.3 221 225 228
-351.377 158.62 1453.2 122 90 72
-509.987 -34.4013 1295.58 95 76 67
-540.765 141.771 1300.64 254 247 237
-459.399 73.9548 1063.25 190 141 112
-444.038 86.5739 1106.33 230 193 164
-36.6606 152.848 1050.71 227 218 213
-521.561 58.2924 1199.01 170 136 124
-668.956 45.3451 1247.26 249 242 226
170.439 404.3 1227.65 167 190 191
49.092 177.302 1050.99 156 120 113
-775.63 61.1846 1357.56 169 170 166
-516.4 72.5297 1189.97 252 244 226
46.4926 147.867 984.706 239 219 199
-67.5258 66.8016 1041.39 255 250 246
-30.151 174.27 1079.06 210 204 204
42.2472 185.216 1009.99 137 108 95
-294.537 240.846 1507.8 99 67 42
8.56693 84.4838 980.781 189 169 146
-395.271 -47.9426 1414.71 54 60 57
-589.252 130.205 1297.77 255 246 225
-2.90202 7.83633 922.895 203 188 168
123.537 -46.9325 858.585 212 216 205
87.5184 -56.86 882.951 99 125 117
269.662 503.299 1248.21 227 234 231
-470.526 74.3423 1107.76 244 226 209
-99.9246 -34.0287 989.453 73 71 65
-393.667 239.934 1252.64 111 102 99
194.946 126.255 1005.96 242 254 239
185.093 -176.864 1069.39 62 112 96
158.738 48.2349 915.444 227 234 222
16.5085 113.193 1021.31 174 176 173
122.101 88.5406 912.83 254 254 234
62.0454 92.9986 1008.65 247 244 216
108.433 7.31682 876.838 167 160 159
-490.276 28.9318 1146.82 123 71 33
110.916 269.167 1065.83 224 223 205
-632.715 240.739 1298.22 250 249 246
-463.778 138.231 1281.73 48 43 31
-693.461 88.029 1241.3 211 212 208
-616.363 380.877 1488.46 127 134 105
114.193 165.247 1091.17 192 172 165
-316.699 133.945 1333.47 86 65 51
-560.312 466.421 1528.08 122 123 119
-570.466 236.548 1250.47 201 189 186
-286.085 153.749 1319.91 111 84 74
-294.177 225.665 1505.72 54 43 29
61.0926 84.7569 985.075 190 187 165
-30.1459 170.535 1097.74 253 250 253
