-56.6035 105.74 1069.82 231 211 205
59.3788 -7.23388 1207.41 252 250 239
-173.442 514.649 1416.73 241 240 221
111.246 0.294584 1447.55 138 48 33
288.582 5.89091 1455.7 253 243 246
-115.011 546.553 1435.26 208 202 196
90.8672 -1.30629 1271.42 156 111 83
281.921 -138.507 1425.51 201 201 194
362.422 208.078 1752.73 44 40 27
57.0328 404.155 1235.34 242 238 235
348.114 9.02638 1708.11 59 50 50
2.66712 200.62 1105.48 112 82 70
376.079 -108.106 1794.56 255 249 234
68.967 473.616 1270.25 79 80 79
53.1073 279.346 1223.23 255 219 210
-8.82848 98.6539 1078.78 147 66 41
56.2878 -19.0491 1206.01 236 215 208
-9.03622 272.025 1135.51 229 226 223
56.6805 438.808 1208.92 123 108 94
-8.46636 71.959 1097.74 229 181 156
375.05 425.68 2125.27 64 81 93
-117.529 54.2827 1122.25 197 180 177
-3.50516 209.816 1132.99 250 224 206
31.6838 432.973 1085.75 238 232 220
-14.0874 173.716 1082.32 105 79 80
41.0604 304.885 1198.59 109 95 93
-8.4729 48.6337 1033.44 255 241 220
62.1409 377.516 1263.43 73 58 48
-0.835237 74.7224 1078.75 92 59 37
-48.1965 261.62 1126.79 192 173 157
121.16 476.383 1373.2 24 23 23
364.294 308.468 1979.33 110 123 141
-8.8904 58.5846 1076.18 253 209 170
11.2125 303.347 1192.46 91 93 91
74.2575 583.385 1277 77 88 73
28.1924 391.526 1148.93 239 206 173
-128.899 537.569 1430.89 179 174 162
337.419 379.387 1992.78 63 92 97
117.276 -31.6861 1296.08 177 150 131
-44.65 303.284 1180.59 174 157 158
350.065 47.2294 1716.84 113 103 103
51.128 453.972 1238.14 248 255 242
70.2662 325.954 1287.68 127 109 102
363.483 293.185 1975.3 53 80 92
29.2589 402.261 1229.51 251 255 251
340.723 452.292 2010.5 89 99 99
23.3503 382.04 1199.44 243 235 228
92.6381 168.173 1272.6 142 113 100
55.4836 387.29 1153.26 104 96 94
97.1399 221.527 1319.07 157 148 130
244.85 -179.452 1737.01 85 86 81
65.3966 393.609 1265.07 213 212 206
306.31 -49.5397 1689.37 169 145 137
36.9898 400.194 1178.69 141 119 89
32.6067 470.329 1205.52 142 116 96
-24.909 181.683 1058.69 234 199 179
51.9756 697.113 1470.21 185 219 205
98.8629 189.379 1256.69 252 250 234
380.695 -6.10976 1814.74 151 144 133
332.025 26.2175 1599.63 247 233 231
360.714 -74.0503 1775.31 196 182 175
3.00624 121.888 1072.66 254 223 222
404.56 48.1454 1920.04 232 220 217
292.501 42.0284 1599.92 157 140 134
72.0815 342.465 1232.92 231 230 206
-56.3609 125.02 1249.6 184 169 169
85.8703 462.787 1266.42 147 158 157
373.661 390.924 2001.28 127 146 151
40.8696 5.75249 1126.9 255 246 234
1.95778 125.674 1082.53 141 77 53
352.854 276.656 1864.23 230 253 254
-3.98812 126.806 1058.49 99 30 29
98.9502 198.801 1257.51 130 114 102
384.605 403.721 2120.4 218 246 250
24.8259 225.093 1139.49 241 231 199
146.757 16.1429 1416.43 78 77 47
-76.3233 65.8287 1131.95 137 108 96
58.1398 307.624 1169.7 131 102 102
-112.699 421.527 1133.19 167 148 133
-37.1989 176.824 1145.69 75 35 14
55.7397 484.213 1307.39 131 110 95
2.09879 195.872 1133.24 145 133 124
351.388 348.547 1879.58 127 151 153
83.5576 -47.619 1295.95 88 79 60
-154.157 85.0818 1167.12 68 27 13
128.038 469.837 1388.85 118 117 116
26.0068 412.044 1162.82 249 242 236
10.7846 475.728 1178.48 137 135 127
406.44 -233.683 1773.84 216 232 233
25.0884 366.665 1173.8 158 148 148
82.5814 132.562 1248.66 168 129 118
93.0129 153.78 1245.02 240 222 201
181.717 213.396 1380.69 130 145 155
27.9559 311.022 1145 165 167 160
8.43732 183.984 1155.29 233 195 181
-104.53 551.419 1438.39 121 116 111
25.3988 155.339 1123.4 159 119 98
14.3866 196.021 1240.58 176 141 128
22.8705 193.09 1158.52 247 229 204
100.27 191.958 1351.61 165 137 116
20.3827 217.412 1048.02 147 118 98
84.2816 380.89 1359.15 126 122 99
44.067 -35.8798 1225.41 165 189 196
3.83745 93.7609 1099.76 192 149 131
25.363 294.581 1094.47 148 143 138
100.595 234.889 1320.97 164 156 147
-11.2243 42.0888 1095.74 173 140 116
246.173 -53.2876 1679.56 32 11 5
-16.7978 146.758 1080.21 225 208 196
309.858 -9.31342 1588.62 137 110 99
-1.286 86.6702 1016.16 251 183 161
370.753 194.911 1751.24 110 95 73
81.9294 114.898 1192.69 245 211 193
304.544 -19.4296 1610.52 216 163 146
50.0864 308.341 1200.59 168 155 157
-6.07862 141.647 1081.98 145 115 93
-6.08752 136.26 1081.65 176 103 82
241.486 -214.42 1814.96 224 185 187
29.0327 289.263 1195.23 132 128 108
409.568 289.531 2089.67 134 152 157
-13.9466 36.636 1094.94 246 225 199
162.535 296.867 1365.91 107 99 89
-207.049 496.714 1405.57 102 84 68
-0.518502 -12.4489 1143.09 194 194 185
466.928 120.2 1940.5 254 253 240
78.4024 187.175 1139.79 247 231 217
62.119 291.495 1242.59 159 153 150
35.7148 106.395 1133.62 250 234 223
-22.6867 123.581 1010.77 141 91 83
-34.2988 107.934 1120.11 150 107 95
101.915 182.737 1286.45 181 160 136
247.25 -24.4325 1686.03 54 41 28
364.17 -16.3663 1704.48 251 214 197
315.132 6.89289 1701.98 127 106 106
-92.0827 540.878 1397.64 216 214 206
27.1237 80.9939 1130.17 179 168 161
-11.3009 -43.5629 1270.4 139 156 159
92.1335 145.311 1251.59 197 159 135
22.7657 275.092 1125.14 177 172 164
316.162 -50.3876 1646.61 196 171 167
32.2766 1.64335 1202.85 207 186 176
305.164 226.749 1949.02 103 99 91
52.1626 331.366 1146.98 252 230 218
-4.21017 -5.59608 1166.43 117 93 74
27.663 506.686 1294.61 195 172 153
412.466 -61.4159 1788.81 254 254 224
421.463 -41.9368 1911.34 244 228 214
217.761 339.192 1726.6 128 130 126
48.9043 418.966 1182.41 223 218 222
27.7601 250.888 1141.61 245 232 207
64.1958 109.712 1139.03 248 240 222
62.9095 110.661 1195.01 202 178 163
-0.995755 154.273 983.664 217 223 225
72.447 115.038 1276.36 249 231 223
10.9546 54.5027 978.981 200 148 118
-59.1756 317.231 1178.2 166 139 127
