24.1282 44.6523 1127.04 14 4 0
54.2068 -5.30533 1177.56 75 18 13
10.8383 -9.56818 1145.67 102 64 62
4.57206 352.893 1120.14 242 233 230
-77.4907 62.6979 1063.06 249 207 187
-28.4446 406.73 1245.35 255 247 225
453.732 -114.616 1610.28 255 249 245
2.25391 273.469 1188.44 73 62 55
11.8971 409.699 1254.32 245 232 232
-44.1906 78.3259 1028.61 79 92 83
1.54472 -5.33033 1167.8 255 246 233
-33.052 78.1123 1167.5 109 99 89
474.212 271.347 1779.35 46 64 82
-77.4788 57.4117 1062.75 120 56 25
31.841 352.102 1315.99 250 254 236
-16.345 464.569 1223.95 254 255 240
-3.16589 -4.00904 1095.11 130 92 70
-38.8228 224.228 1176.62 253 243 218
-31.4741 296.511 1131.87 110 99 104
390.856 -10.5582 1460.93 249 241 241
-125.295 513.383 1429.28 154 153 150
-14.5566 360.143 1138.42 254 253 240
44.87 133.987 1213.48 117 82 62
60.814 157.793 1246.59 139 110 85
65.976 -11.1409 1179.12 127 56 27
-67.1393 113.304 1068.14 251 230 219
-42.6332 219.814 1125.34 86 76 65
7.56142 311.63 1216.65 98 85 79
5.37079 342.331 1193.1 160 151 141
-63.705 73.5233 1084.9 240 255 248
64.0981 133.552 1209.87 142 104 80
-30.1742 60.7871 1166.76 99 82 86
2.56579 429.708 1314.89 56 41 40
54.8004 195.085 1248.48 253 244 234
-34.605 387.483 1242.86 239 245 244
49.0234 108.848 1186.12 248 233 214
-9.27504 455.155 1195.54 138 141 137
66.0452 -2.38655 1179.9 145 39 6
-62.3885 62.4259 1001.18 80 68 60
-36.63 324.807 1056.73 210 190 184
-20.3925 365.3 1115.83 138 114 93
-37.0835 147.074 1122.09 96 44 39
387.159 -161.797 1442.54 186 185 173
34.2049 108.595 1183.28 255 244 227
-61.8281 65.578 1066.44 252 249 241
450.53 255.975 1666.76 59 77 92
416.206 -102.158 1455.55 255 248 243
65.031 218.428 1373.22 90 71 54
-52.7128 260.217 1075.28 95 94 93
-107.915 522.451 1434.66 168 171 161
11.3902 453.445 1285.89 68 52 35
480.861 22.925 1639.18 205 184 182
-25.8295 356.544 1135.93 123 108 108
-64.6798 174.125 1117.96 129 87 67
9.37073 337.823 1138.89 230 212 204
34.2478 117.446 1183.98 236 212 209
-77.4489 44.2298 1061.98 254 226 207
11.3531 357.705 1195.16 255 253 245
-22.2424 444.848 1248.81 188 168 161
-34.2565 338.937 1133.36 136 121 116
505.575 42.1614 1842.59 130 118 111
-64.7035 190.869 1118.95 68 65 50
52.0316 114.828 1187.15 173 120 99
40.1863 120.522 1185.35 149 96 83
-60.2142 81.8054 1104.57 147 92 89
460.356 -107.319 1531.43 238 226 211
-65.4585 75.3891 1056.75 243 209 188
451.114 348.448 1791.47 84 113 119
51.2691 129.612 1242.32 215 179 156
329.88 -173.284 1582.77 37 39 33
-135.621 501.446 1425.49 198 193 180
-114.88 518.073 1432.46 80 76 69
-4.32901 247.722 1157.82 79 71 53
51.6159 542.856 1243.74 52 68 58
415.952 88.2637 1483.9 164 149 127
446.871 253.091 1870.81 66 91 100
-73.1948 88.2674 1054.59 191 94 78
-75.4694 96.0232 1110.75 255 239 231
-74.4553 88.0138 1023.17 179 102 84
41.8689 142.98 1213.38 255 233 217
474.83 -27.4682 1626.55 250 237 221
-162.893 473.449 1415.58 174 156 134
528.478 24.3595 1729.99 249 238 224
57.3284 104.935 1241.33 145 93 64
60.1382 143.407 1216.97 248 226 193
-95.643 550.283 1520.86 186 180 161
23.0793 292.472 1193.86 142 125 113
497.089 360.603 1901.15 196 226 248
438.703 -82.9576 1613.29 189 172 160
-9.76401 129.174 1100.31 252 219 197
418.911 21.9766 1469.78 251 254 254
-42.5677 491.13 1276.82 156 147 134
445.608 32.8961 1724.53 182 168 159
46.4161 174.043 1190.57 255 249 240
-31.4779 288.017 1131.43 180 157 165
66.5712 220.916 1281.41 145 135 109
-44.6124 188.754 1173 254 238 210
-22.2902 391.5 1245.84 233 220 217
-80.0945 181.139 1189.52 64 32 20
-32.9908 274.626 1181.07 122 84 56
356.786 -221.925 1656.09 225 194 186
-61.9515 161.469 1071.9 250 233 233
-65.345 184.677 1139.9 171 158 138
560.251 104.87 1754.15 255 252 224
-20.8131 402.064 1067.97 89 72 47
70.3971 183.059 1250.55 218 217 208
73.5884 189.428 1251.69 146 143 132
498.193 -243.381 1662.7 94 105 106
-116.865 448.727 1255.19 24 20 19
468.173 -100.836 1611.75 217 211 208
75.9639 605.77 1402.26 182 196 189
503.868 -5.40981 1635.17 253 242 230
-93.1223 202.384 1275.32 201 160 149
2.55157 94.0845 1202.76 253 250 236
16.9495 235.478 1189.02 255 255 244
87.5488 583.988 1375.62 103 117 108
-62.0191 276.034 1174.78 198 205 194
-28.4254 438.072 1247.08 70 45 34
385.195 -58.1507 1533.62 172 149 142
70.3041 170.534 1249.49 199 170 159
-16.8307 143.688 1195.22 143 127 100
-165.998 39.846 1110.41 163 140 123
415.929 278.024 1867.26 48 77 75
461.514 234.735 1662.11 187 215 220
-9.81307 116.505 1175.18 247 218 192
25.6967 194.2 1187.97 155 146 138
445.008 -75.8237 1587.73 236 220 224
111.539 -59.453 1333.39 255 247 222
108.813 424.92 1320.03 92 92 95
40.3543 153.079 1187.86 249 225 204
106.424 400.069 1267.74 143 143 147
-17.5884 419.843 1118.2 194 171 138
370.711 -188.192 1762.17 105 102 93
-167.953 219.659 1199.64 64 12 2
69.8744 176.219 1225.23 248 232 222
483.504 108.485 1708.42 54 40 23
-61.6596 75.4645 1214.11 252 251 248
-170.136 249.494 1259.48 70 13 8
488.184 -26.9918 1593.24 255 246 235
-20.2224 334.143 1136.05 143 140 135
354.817 -197.526 1674.21 87 86 91
377.653 22.5892 1403.09 171 155 149
508.264 -9.74099 1720.27 244 231 234
446.414 -204.562 1482.51 193 198 199
383.973 193.525 1752.02 28 36 36
443.112 -45.3552 1621.34 145 113 107
473.112 253.22 1775.53 121 153 151
-115.955 97.9691 1101.96 157 134 130
60.5852 579.128 1329.78 143 152 145
-16.1939 326.134 1243.17 250 227 207
504.398 244.664 1777.26 153 173 177
-48.0914 66.0424 1114.51 152 147 147
510.881 -50.1382 1722.03 255 235 215
-79.0861 185.793 1238.78 173 179 176
-51.7644 163.415 1093.08 128 91 83
33.6216 348.021 1255.21 202 194 173
515.615 -69.42 1622.19 255 254 246
432.448 -180.909 1514.81 70 63 55
-56.1785 211.737 1172.01 250 250 231
43.9759 683.381 1528.46 101 134 117
-19.2497 114.111 1257.13 250 245 234
462.353 192.362 1651.28 99 82 71
481.453 424.245 1912.86 107 115 110
396.417 -80.6036 1455.39 149 132 124
-16.6006 288.808 1209.44 177 176 172
-85.4377 120.841 1064.74 92 49 39
589.713 -130.448 1716.31 217 225 207
45.0863 91.6442 1107.1 255 221 200
518.731 -236.16 1585.43 192 208 218
-50.3793 173.913 1170.74 184 137 129
67.2415 576.308 1330.83 91 111 102
440.96 -35.3394 1620.87 205 180 161
-6.48202 341.575 1190.58 202 147 136
-192.048 61.5479 1129.59 88 29 14
115.699 101.22 1310.54 214 163 135
492.883 268.563 1983.69 117 144 145
376.386 211.229 1594.61 87 113 118
-107.926 100.894 1103.95 83 54 40
68.4607 -53.7574 1228.29 115 90 76
-15.2324 430.707 1193.2 80 62 55
55.5885 333.491 1258.78 247 246 225
570.616 106.922 1752.65 189 186 168
-22.2202 82.2 1075.26 250 253 243
491.528 331.05 1793.21 144 167 171
83.3586 253.302 1455.31 255 238 212
10.8656 95.1487 1071.35 252 247 238
391.486 -29.6353 1521.92 183 147 129
-14.6868 254.913 1133.12 187 151 129
-14.7917 175.829 1128.44 140 108 71
549.654 -105.064 1616.45 169 175 155
110.425 219.737 1321.14 255 250 229
681.78 119.832 1997.38 216 218 188
5.35743 336.353 1192.77 255 245 231
-8.58986 260.656 1087.78 254 243 247
561.757 334.038 1845.92 163 167 168
358.593 -198.288 1504.69 159 142 144
-72.8366 140.467 1114.13 218 220 216
402.261 383.746 1791.08 78 95 90
-4.12684 79.2146 1054.79 212 138 132
110.212 199.898 1319.26 159 150 138
580.141 105.661 1767.57 252 253 235
83.9676 235.37 1317.39 181 166 148
494.896 -197.558 1484.69 176 188 169
-89.9674 34.2728 1151.95 238 214 186
590.317 -122.077 1717.95 165 172 152
95.8602 64.6192 1158.6 254 229 218
-8.95835 52.5416 1145.28 255 245 220
-34.5066 410.452 1215.82 150 132 120
586.68 -26.1467 1839.83 150 142 133
498.413 307.006 1889.26 162 181 177
518.553 87.557 1712.27 250 244 217
-32.998 253.953 1179.78 191 141 106
150.42 183.28 1390.09 244 227 203
-43.5216 462.135 1217.69 90 74 55
-92.5476 38.9774 1201.86 196 172 145
485.457 -24.4804 1549.6 168 153 143
8.61874 346.503 1249.84 254 233 221
-48.2048 284.27 1127.71 122 124 120
-42.6408 276.125 1128.46 253 254 252
-73.0395 251.969 1120.64 112 77 72
41.7691 98.5084 1237.74 176 141 129
504.053 -232.433 1687.71 68 69 68
9.23614 480.08 1319.47 231 229 221
434.492 -84.7271 1533.56 186 183 186
362.725 74.0206 1306.98 104 91 66
475.083 60.3381 1564.69 246 237 207
3.32568 304.796 1173.65 253 242 230
554.746 -77.0522 1707.02 253 251 228
387.873 -215.83 1580.12 228 201 200
