-248.678 335.335 1105.56 83 77 72
-235.32 377.798 1129.79 223 215 211
534.943 7.16603 1234.61 255 243 245
-175.053 100.548 1002.12 243 220 205
-227.786 -18.6019 1018.87 254 250 240
-235.844 347.721 1110.01 206 196 186
428.61 -102.588 1163.23 248 244 246
-179.512 131.754 1088.98 255 241 213
-281.886 326.803 1095.56 58 47 43
464.812 -86.5566 1202.11 253 253 246
509.023 -217.401 1141.86 185 183 174
419.741 -102.534 1162.64 255 250 247
407.907 -39.7352 1169.22 255 244 250
-207.563 238.011 1063.63 125 111 111
-164.056 181.127 1117.3 255 251 237
-194.159 105.012 997.888 255 234 219
-295.643 192.372 994.951 234 213 176
-277.436 366.273 1099.85 76 67 53
402.315 17.4241 1142.72 247 247 243
-310.445 52.7783 945.567 21 8 9
-312.719 138.078 1030.46 50 32 22
-220.176 -12.3354 1005.21 69 50 37
-224.614 42.0345 1049.3 36 10 7
-215.925 333.293 1130.65 206 199 178
-251.817 374.403 1107.62 51 44 42
-186.615 169.431 1064.07 226 211 186
623.591 -213.389 1198.88 188 204 190
392.449 -220.043 1195.71 180 160 151
-235.964 308.46 1061.06 254 239 224
-174.938 140.565 1065.2 172 145 121
-83.6264 27.75 1080.71 255 247 226
-61.2522 399.999 1264.26 97 91 78
-239.29 375.531 1064.68 251 246 239
-185.226 161.433 1063.59 109 88 71
-231.173 324.989 1063.46 247 231 224
-205.482 40.3325 992.238 87 57 54
435.52 28.4413 1230.37 230 224 219
-93.4115 184.49 1066.39 60 41 18
462.572 34.6974 1192.59 251 227 225
-268.685 452.284 1177.45 51 54 45
-192.192 125.482 1040.76 97 62 47
-77.4322 36.2353 1061.5 251 247 226
354.704 -154.422 1062.92 158 157 146
-219.719 315.297 1111.93 225 230 211
461.242 -84.8865 1077.03 255 253 233
-171.153 148.671 1066.4 157 110 75
-113.466 142.159 1105.18 77 37 35
-240.089 226.603 987.824 239 217 205
542.878 266.535 1398.46 227 247 255
-195.154 260.295 1068.37 117 114 114
-187.407 149.09 1043.13 106 73 58
-77.4502 44.1357 1061.97 255 250 230
-177.165 110.333 1043.56 79 31 6
575.267 -256.058 1191.59 188 221 219
551.151 350.89 1431.35 49 76 82
514.8 247.435 1334.07 182 205 236
-12.4121 397.565 1291.43 52 47 36
-218.595 52.5637 1030.51 104 70 58
-93.0263 51.8696 1059.18 249 224 192
-349.806 57.5299 995.519 214 224 202
429.549 50.3014 1210.61 203 185 187
-194.729 133.198 1040.54 238 212 195
340.08 -244.114 1286.06 178 180 183
-176.716 -1.86782 1058.9 255 252 232
-64.4554 70.7935 1066.19 247 239 227
-124.301 154.068 1058.02 82 54 34
-174.54 -7.29953 1015.9 40 18 7
686.351 -162.722 1304.75 38 40 32
-199.084 334.636 1168.87 242 229 204
-275.079 262.424 1071.7 100 82 76
-257.423 270.569 1115.06 255 253 249
-158.972 147.86 1002.19 233 216 190
372.82 4.15565 1093.56 207 186 182
-209.713 -18.4265 988.577 212 195 170
523.283 42.6907 1246.06 255 247 244
-287.59 269.613 1068.7 254 248 240
-303.881 288.934 1086.21 130 111 103
416.855 -39.7562 1169.91 248 238 242
-242.567 280.972 1081.38 247 242 231
524.567 -8.06625 1232 237 224 219
-164.956 157.797 1048.91 63 44 23
-345.909 78.5674 957.566 248 231 221
-67.7801 81.7355 1086.39 255 245 220
-306.325 357.473 1140.73 220 219 213
-352.685 99.6619 996.775 244 238 228
561.635 39.8536 1296.25 101 77 66
461.318 -187.205 1095.39 21 19 14
411.832 -82.6228 1164.47 255 252 249
-249.432 398.179 1160.23 196 190 185
-251.974 385.66 1108.41 129 115 108
-80.091 21.4044 1008.91 255 248 220
636.665 -44.4308 1181.96 239 255 238
634.834 192.381 1388.1 247 251 242
357.046 -210.092 1233.66 20 20 18
576.305 -204.697 1109.74 187 211 194
422.929 -93.314 1117.32 231 213 215
560.786 42.7072 1247.03 48 32 29
-136.06 29.3346 962.491 149 100 92
507.271 -36.3883 1210.39 255 238 227
-202.463 43.0414 955.069 133 87 75
-74.3888 52.1506 1021.3 246 214 214
453.464 10.1834 1229.58 202 194 199
525.524 7.16585 1234.07 255 242 235
477.405 -11.0513 1228.64 255 251 235
-288.048 262.947 1023.34 154 148 154
-181.645 180.365 1066.11 195 171 156
-286.671 62.5388 935.42 120 117 107
-223.394 211.758 1015.56 249 237 223
-256.05 -6.39993 977.89 246 224 201
591.974 324.751 1332.73 90 119 127
600.075 175.541 1292.31 174 183 176
567.389 -212.658 1108.52 191 191 192
-164.062 165.069 1094.69 246 232 212
-236.731 -12.357 1001.26 216 199 176
-97.2751 194.783 1044.4 232 218 192
-290.046 359.435 1095.74 231 219 199
-250.579 303.901 953.974 102 91 87
664.708 341.097 1472.79 232 254 255
555.602 34.7543 1239.4 250 230 221
430.486 -65.5965 1167.84 229 226 226
-270.953 337.574 1053.6 192 177 160
-262.22 294.342 1026.41 255 228 212
-64.4063 85.4426 1025.02 255 238 208
-206.486 147.396 1123.86 113 60 46
676.251 350.566 1521.2 64 89 103
-217.222 49.974 1051.43 241 219 203
-286.76 315.262 1093.27 133 103 101
-158.5 -0.219547 979.552 149 113 96
437.378 -175.707 1065.53 197 200 194
471.537 -88.0745 1120.82 223 224 202
-246.927 -11.0952 1020.2 154 130 119
-279.249 316.323 1023.46 246 244 234
598.335 -89.5166 1160.12 248 249 228
402.463 -28.2165 1170.11 81 49 39
-316.162 144.809 968.802 117 105 105
-103.51 23.1612 956.481 253 243 208
-286.272 75.8188 992.064 253 245 233
-115.744 51.5045 1099.04 252 229 208
-275.364 397.32 1102.76 39 31 21
425.076 7.10965 1226.94 114 101 98
424.822 -59.8579 1168.13 95 89 90
483.981 34.0608 1135.59 210 190 178
-269.361 290.318 1008.43 149 143 146
-170.734 178.591 1006.71 99 83 69
-86.5128 162.493 1112.42 242 219 201
620.08 177.039 1326.51 192 191 185
-85.4024 98.3828 1038.98 255 250 233
715.354 69.2148 1306.59 211 216 200
-151.02 187.584 1099.11 143 131 115
-251.404 594.391 1357.38 32 30 23
-61.8753 100.082 1068.42 245 240 208
-191.503 317.946 1135.73 134 129 113
-273.674 253.644 1026.67 183 147 143
711.679 -4.9517 1294.78 241 255 235
479.675 -27.4003 1208.9 247 210 196
423.6 -79.6901 1118.92 253 251 253
-299.646 66.1525 1010.09 173 117 106
-260.419 306.508 1150.7 103 84 88
-309.325 194.06 991.198 252 253 231
-224.807 374.381 1043.38 147 135 134
378.435 -162.375 1091.18 168 174 174
-277.952 55.7511 937.379 228 210 198
-117.017 373.449 1116.71 49 37 20
-244.896 251.853 1100.15 141 97 84
-188.533 335.559 1187.23 203 175 159
446.866 -174.15 994.772 221 219 218
-314.444 130.691 924.272 255 251 249
-246.854 -11.2096 979.968 184 159 146
-343.368 149.611 1022.56 237 238 235
631.747 -143.126 1165.95 219 234 220
-215.424 301.033 1219.5 253 249 252
-151.67 386.483 1185.58 224 234 190
570.281 359.341 1510.66 135 159 191
-251.516 81.6239 1001.01 228 183 175
397.537 -71.1573 1164.75 197 176 166
-262.086 273.045 1009.29 252 244 243
-159.317 -13.5646 1034.65 100 20 1
707.387 -49.4647 1287.44 217 236 208
-93.1467 91.4999 1061.41 255 239 213
-258.237 284.275 1098.97 147 137 130
-320.878 68.6798 926.712 145 84 81
381.775 109.082 1486.44 44 41 30
-104.295 72.0069 1016.23 251 231 206
-167.492 138.804 1111.5 157 107 65
-182.697 169.23 1112.31 92 60 47
-95.3339 0.524425 1033.13 250 233 185
-135.238 218.742 1104.6 251 245 213
484.931 -259.357 1298.26 126 111 101
-334.039 96.6033 980.263 211 187 196
-244.838 -18.8621 1059.64 216 205 184
-279.733 90.1365 976.022 255 246 222
-167.294 401.313 1156.74 102 80 59
578.024 123.802 1286.5 227 227 211
714.117 20.6662 1298.94 210 217 202
-307.023 98.6693 1009.69 134 74 55
380.852 -256.465 1352.06 133 126 122
-217.284 49.9661 989.867 163 120 112
-111.334 292.52 1114.08 254 249 243
667.646 -261.308 1291.31 96 115 129
-127.48 280.312 1109.73 253 253 247
-240.133 274.133 1036.35 150 154 154
-109.92 30.2079 1075.24 212 204 172
-59.1114 113.2 1115.27 240 230 206
-113.003 33.5854 1030.81 219 210 199
-320.514 73.17 1004.65 134 139 136
-273.86 305.517 1147.06 252 241 240
531.413 27.2292 1243.61 113 94 96
-118.961 41.5006 1011.62 142 99 87
-343.971 119.99 1000.34 254 251 242
-315.146 266.321 1109.22 212 208 189
-116.694 278.196 1112.11 253 250 248
-67.8596 329.626 1176.38 144 92 55
407.509 -48.3392 1168.19 255 245 245
338.78 -199.128 1194.28 158 155 148
-91.6969 67.2426 1036.75 122 65 35
-315.76 260.558 1080.41 117 129 114
-303.449 50.2664 895.808 213 197 194
-117.818 409.691 1164.13 135 142 144
-142.196 158.672 1054.23 78 63 49
546.286 -11.1096 1232.77 198 182 177
-211.502 78.3674 1033.6 159 136 131
-162.679 197.37 1051.46 127 129 120
484.97 -100.032 1166.93 226 198 171
-177.754 307.499 1148.96 128 119 100
442.699 114.614 1240.89 140 137 111
712.595 4.63171 1296.34 184 194 184
-337.386 292.382 1156.91 148 151 149
-94.3066 86.6544 1081.03 254 239 204
-246.188 323.016 1016.61 254 251 234
-307.447 264.078 1111.31 114 76 56
-229.879 287.34 1085.02 191 150 140
-301.789 58.0742 968.796 254 251 240
-255.848 340.432 1074.61 193 185 172
-167.061 94.9801 1045.13 144 85 51
-304.062 48.4948 1008.01 163 146 136
-182.607 318.191 1121.91 133 119 97
575.02 359.525 1481 83 117 128
-233.781 518.253 1194.64 80 78 68
-125.139 372.802 1114.82 52 42 32
-120.259 289.733 1088.68 246 241 230
421.182 -276.855 1290.62 163 170 162
431.726 -87.8994 1118.5 186 169 164
502.82 -4.99925 1231.1 236 222 222
-75.0724 155.818 1068.78 255 238 216
464.396 -184.201 975.945 7 6 7
-160.489 400.122 1213.26 83 85 41
533.715 260.835 1423.49 71 95 108
-250.859 -107.469 1152.72 139 143 135
-156.376 3.45436 1063.8 239 177 134
326.328 -207.583 1192.2 86 84 73
-271.962 104.874 1019.49 238 168 145
647.565 -8.3404 1379.79 187 165 144
-302.472 166.449 930.103 229 229 210
-121.268 348.402 1039.07 96 93 79
-66.9911 261.995 1300.56 255 228 205
-60.1665 120.555 1156.51 201 176 155
458.214 -123.418 1115.87 173 171 156
-279.721 -116.29 1255.04 43 46 38
-169.753 -1.34686 990.771 205 177 159
405.971 -16.6813 1171.7 79 73 42
596.195 -53.5564 1228.98 168 164 143
-51.3903 151.175 1073.43 228 208 185
-254.722 630.858 1432.13 129 131 126
-82.8091 110.282 1064.65 174 116 79
431.381 -229.115 1196.94 118 97 92
-262.053 56.1118 957.745 244 202 191
516.921 -8.11856 1300.86 251 250 250
-289.283 25.2933 1054.22 219 174 156
-240.744 246.323 973.932 244 234 225
542.224 45.1194 1003.32 177 177 168
419.287 -51.2403 1168.74 212 191 189
-299.454 48.4639 969.008 149 127 118
-265.656 44.2495 977.636 234 192 182
450.635 16.2642 1230.11 84 66 82
-218.086 125.878 1179.27 157 121 119
-68.854 180.561 1009.6 254 240 213
-257.004 269.341 1067.54 204 208 209
-190.018 255.246 1069.33 227 227 225
-316.993 347.011 1166.93 206 203 204
-140.392 15.782 948.565 250 212 193
-119.187 -26.8296 986.255 246 209 181
-288.5 388.865 1202 83 69 66
-142.757 7.9529 1023.48 126 43 20
614.233 54.6985 1129.46 114 117 109
-132.982 624.353 1413.6 86 124 106
-105.983 70.119 1057.46 239 211 185
-80.2772 258.561 1040.16 229 228 226
609.826 23.8235 1296.34 199 199 184
-282.336 51.2272 1052.37 248 201 181
488.504 -188.641 1013.61 125 128 128
567.427 175.31 1257.32 157 160 148
-339.86 51.4158 911.909 157 116 100
478.052 121.13 1244.64 183 186 162
-53.6477 141.216 1118.19 241 222 210
-354.795 66.3196 1081.79 109 74 79
-260.153 79.9635 890.736 235 177 165
-92.9937 41.3415 1058.57 201 164 128
-301.315 252.275 1011.5 213 223 216
-254.749 218.094 1204.1 183 147 127
486.799 -11.0561 1229.28 218 204 194
-60.6068 314.156 1303.22 233 191 169
-64.7303 210.888 1120 185 141 137
566.913 252.111 1385.96 117 152 160
-66.9495 354.484 1105.05 209 206 195
-90.0167 36.3245 1008.2 232 182 143
564.795 -30.7731 1398.16 156 101 86
-64.8343 226.572 1170.91 202 151 117
404.896 -23.1105 1221.57 161 126 114
-365.48 59.6465 991.024 91 58 48
440.623 -244.882 1217.11 160 121 120
536.988 -214.849 1064.44 86 127 136
455.099 -258.832 1295.83 196 163 157
-35.9175 221.885 1176.95 163 142 125
-115.801 410.972 1175.96 252 254 255
486.039 32.9928 1185.53 126 110 99
549.244 -217.344 1097.63 112 124 145
451.254 28.472 1231.65 128 117 125
-69.6566 54.8165 1064.19 216 198 207
-36.2007 240.84 1242.98 225 201 173
-143.261 223.859 1103 227 229 211
-125.792 458.983 1384.61 142 119 87
-65.881 226.885 1158.04 250 214 192
491.852 53.7566 1356.71 208 216 226
-241.194 274.213 1102.18 226 212 202
-249.525 92.3146 910.536 205 172 148
-338.141 190.387 1123.24 139 102 73
562.286 140.774 1437.59 200 203 176
