12.2287 371.601 1312.98 242 238 236
16.848 359.44 1222.67 244 237 236
66.5961 121.722 1261.83 109 70 58
-30.0317 350.012 1185.95 255 251 238
18.8125 -50.4354 1167.18 255 250 235
516.631 -173.597 1607.95 255 248 237
13.0139 -47.522 1166.36 107 98 84
579.146 231.368 1878.76 3 39 50
60.2613 81.2833 1239.66 71 36 14
18.9859 438.477 1318.96 34 38 36
120.029 110.427 1349.31 135 105 88
68.1831 -46.4775 1263.66 43 14 8
526.637 198.149 1678.64 207 244 245
8.54534 319.146 1247.94 65 51 45
24.6321 -50.4719 1168.24 255 247 224
561.17 -72.2896 1810.81 241 235 229
26.4939 -54.0003 1119.86 54 42 35
54.7209 71.6704 1184.09 245 222 194
5.23824 240.856 1241.74 255 252 234
-65.0742 45.2845 1085.3 61 8 8
-16.4048 422.156 1220.65 255 251 242
-42.6096 114.492 1118.78 88 69 54
12.1881 406.224 1218.07 231 236 231
2.16487 235.769 1185.92 101 96 78
-73.5215 36.117 1131.06 245 237 236
-38.8184 322.701 1182.53 253 239 232
71.2629 -38.5605 1207.55 87 67 49
57.5202 133.747 1243.79 125 101 86
370.401 112.647 1950.02 68 65 57
81.2961 -42.5871 1288.62 150 47 26
493.869 -16.3246 1551.77 234 228 229
-81.5112 56.0085 1037.97 128 32 5
12.1015 328.642 1309.8 227 216 206
-591.488 -44.6787 847.791 225 228 222
74.2133 -50.4825 1207.23 118 29 7
-87.7223 8.78781 1057.68 255 241 219
-48.6832 45.8583 1067.8 91 69 65
0.367856 -43.6222 1178.36 214 201 186
470.878 -65.63 1540.33 228 214 214
86.4026 156.619 1346 255 252 255
-36.1787 43.5681 1214.56 103 90 75
559.85 -163.194 1685.73 249 252 245
604.237 163.944 1877.58 93 96 91
-15.3423 339.032 1188.49 227 221 206
-34.6338 285.563 1236.24 134 111 110
50.0247 110.094 1271.39 255 248 228
130.366 388.04 1364.49 89 87 89
572.123 -81.1096 1623 254 242 242
492.561 -35.3902 1547.97 237 228 226
52.0312 115.831 1187.13 156 113 95
-0.815535 220.839 1184.32 243 204 192
-53.9221 29.9762 1065.79 83 66 67
13.6732 325.237 1219.02 253 245 228
-18.3917 246.719 1182.34 120 94 98
63.4882 96.7543 1241.66 244 231 207
404.47 -272.06 1569.75 206 167 162
610.306 -36.7756 1822.92 227 209 206
490.923 -59.8379 1537.64 248 246 239
33.406 295.356 1251.55 241 240 231
82.7246 153.003 1250.25 139 135 135
-104.197 465.322 1430.76 150 149 141
63.987 165.006 1247.7 96 67 56
502.176 -138.235 1612.25 205 193 185
-22.2815 401.837 1246.34 194 177 167
60.577 60.0209 1184.19 120 71 48
-56.386 130.844 1116.96 88 56 58
484.26 -86.8126 1618.46 215 184 171
5.60393 388.109 1251.63 170 172 175
-73.7759 486.718 1479.57 151 143 132
-84.6528 141.803 1160.83 51 22 18
-32.8648 19.5908 1069.23 123 117 112
-56.21 244.963 1174.05 136 142 132
-38.8227 239.874 1177.53 240 241 232
486.246 -22.1655 1419.93 201 166 160
63.07 94.9833 1299.81 246 224 201
7.42474 272.66 1212.9 127 114 116
575.961 250.533 1883.25 119 135 134
41.6137 80.7426 1209.73 250 239 221
-41.718 183.946 1173.21 253 227 195
482.625 -67.3353 1535.61 101 88 83
63.5997 163.228 1306.59 252 240 226
-21.0753 316.345 1208.22 126 120 121
29.3122 20.9086 1203.63 95 116 102
14.4912 231.901 1243.03 115 89 78
-24.2375 255.345 1181.64 225 218 218
-314.543 -250.463 1015.06 166 155 144
-6.75328 434.471 1251.57 121 118 125
11.2434 411.849 1282.01 126 101 88
462.594 -226.468 1509.82 138 141 135
8.01305 215.235 1185.76 236 186 176
537.814 161.653 2260.6 142 142 125
55.5231 142.201 1237.16 248 236 232
5.65346 410.171 1252.91 134 124 108
81.1677 137.207 1304.47 198 167 152
-70.0944 136.048 1114.37 124 90 76
-47.5375 260.125 1176.91 143 140 150
-79.139 80.8754 1132.1 255 240 226
72.8724 99.9966 1243.72 177 129 88
668.269 -242.382 1701.06 165 174 164
-56.8763 120.286 1028.28 246 240 242
44.0167 533.098 1299.29 140 157 146
572.293 305.467 1836.27 121 142 149
-31.6781 392.736 1405.42 194 189 187
-38.8226 195.751 1174.63 237 182 162
-114.589 453.497 1426.96 211 208 196
543.424 -81.0046 1621.4 255 243 226
-67.3966 158.338 1116.33 116 97 90
132.639 169.848 1385.13 134 106 94
575.704 -228.727 1475.77 157 169 149
570.619 303.723 1895.62 192 214 237
-30.2152 29.4514 1091.54 255 245 247
2.46797 56.3722 1200.47 255 252 255
15.7836 367.404 1234.13 87 81 79
-36.9283 96.8619 1092.16 124 92 87
-20.8653 365.113 1064.24 78 56 33
573.5 -65.2255 1626.65 227 193 183
393.837 -248.633 1580.74 74 75 73
654.252 -227.945 1671.89 199 203 191
-72.8148 130.403 1113.43 177 179 183
-34.6435 245.295 1233.39 114 60 36
-465.622 -267.811 1180.27 121 113 108
124.469 -104.737 1331.47 255 251 232
519.204 -128.082 1609.43 133 122 121
-19.5357 303.034 1067.76 246 240 234
-11.7676 76.3232 1145.91 255 243 235
70.3505 177.676 1249.98 152 145 134
-56.1577 192.191 1170.62 248 249 236
-53.1173 32.8359 1159.74 169 145 162
522.655 -135.904 1607.91 196 189 197
502.63 -130.382 1613.59 103 99 93
20.5996 207.238 1242.41 241 223 214
-77.5555 93.0002 1064.75 166 132 134
-7.23641 405.046 1411.9 132 118 108
93.7379 120.833 1221.97 112 98 80
634.73 224.617 1982 193 238 249
-77.5439 87.7123 1064.45 94 42 25
-1.2623 322.06 1164.42 177 181 174
-169.896 1.14078 1130.87 160 125 111
112.713 17.2192 1242.97 255 247 224
40.0479 12.6946 1262.66 145 94 82
553.824 -174.024 1611.73 220 198 179
450.439 -87.6049 1461.01 92 53 35
670.059 -221.949 1705.34 137 141 127
436.518 167.875 1571.31 75 109 113
83.7702 545.914 1371.29 148 167 156
-27.1826 222.686 1178.92 255 203 180
501.793 -88.7489 1616.9 224 196 179
580.588 -71.1883 1726.34 255 252 246
24.8838 266.872 1234.3 232 188 176
487.75 -198.857 1261.65 237 252 229
120.082 21.4432 1306.97 221 167 136
545.636 240.024 1667.25 128 155 159
-27.1865 216.794 1178.53 199 145 124
502.69 -21.0576 1631.63 168 157 163
528.663 47.9499 1648.4 168 150 132
-18.361 273.404 1184.02 253 247 234
-93.1303 87.4252 1061.16 105 70 48
-35.9364 61.8305 1165.56 219 235 216
142.301 34.1492 1423.36 255 240 216
-48.4882 146.509 1141.75 241 218 185
-123.655 63.4898 1146.34 136 117 104
27.0453 266.811 1248.21 154 133 125
-62.5022 158.691 1090.64 241 218 203
66.0632 365.651 1233.18 153 132 111
37.2969 307.308 1237.53 238 240 214
539.151 -69.3285 1581.58 234 223 223
-39.4101 446.899 1273.72 139 126 109
731.714 -358.655 1907.53 71 80 74
573.143 -146.954 1496.29 236 237 209
454.143 -20.0663 1547.6 156 145 140
584.598 -313.973 1679.86 100 117 116
-11.9209 -5.9725 1231.16 189 148 113
128.228 50.5629 1307.23 255 253 225
49.602 30.5945 1290.56 138 122 116
-77.8131 383.241 1171.24 177 170 159
525.994 295.489 1789.87 68 91 106
62.7694 412.236 1292.92 225 230 239
595.088 33.435 1736.49 148 139 110
-53.2635 177.687 1170.27 196 179 139
-16.3122 236.824 1236.81 169 129 113
10.147 59.6647 1125.45 255 243 239
666.653 291.357 2002.95 152 172 172
-10.1367 258.836 1239.75 252 253 249
714.631 -226.311 1808.32 233 239 221
-42.6313 209.547 1124.67 255 240 206
-15.8158 -4.34622 1164.42 255 240 213
74.657 288.542 1282.8 255 254 235
468.635 -99.4206 1533.57 201 160 150
602.264 16.235 1732.65 255 249 217
-90.3508 150.329 1160.12 154 139 119
448.795 -129.004 1439.79 174 164 156
465.803 208.535 1765.3 54 76 72
550.079 -103.137 1623.3 246 219 202
-161.849 176.162 1197.88 59 9 5
60.5939 -46.75 1081.08 252 232 202
636.249 50.7929 1742.85 254 253 236
675.731 50.8315 1744.41 255 255 238
482.714 -31.8627 1802.58 132 108 89
13.6351 126.803 1180.57 174 152 137
-38.1398 192.844 1078.39 162 134 110
478.261 -27.4028 1802.73 38 21 9
-14.6889 11.2391 1141.83 255 230 218
-24.517 285.062 1126.53 163 140 142
-168.67 -143.683 688.287 136 136 131
27.8381 10.2054 1174 190 136 127
-67.8708 -15.5342 97.199 124 129 125
61.6764 293.608 1257.17 236 237 201
-82.1573 449.713 1362.69 128 122 116
121.36 31.0351 1303.89 255 225 198
-79.1597 98.974 1101.09 160 149 153
506.191 351.401 1900.02 68 81 78
401.198 -30.9017 1516.26 133 109 98
-31.5292 394.897 1243.88 69 38 26
460.164 -114.456 1586.07 139 120 106
21.9725 7.28397 1172.66 255 226 212
-76.9439 237.202 1223.16 191 189 177
4.72712 91.482 1176.11 255 250 222
137.154 56.9721 1380.76 255 244 230
73.8102 408.433 1290.94 7 8 20
-19.4356 -2.87222 1092.03 197 145 115
-9.89708 409.031 1249.48 114 89 75
110.516 487.847 1290.08 171 183 176
19.2959 68.3173 1177.14 202 152 127
-17.1326 182.992 1167.2 205 184 174
583.619 156.122 1764.87 195 203 196
-7.10226 295.321 1161.08 216 123 111
629.071 -134.591 1719.25 255 248 241
570.347 -24.3893 1733.61 103 90 88
26.344 484.402 1167.24 104 137 123
71.3872 312.427 1344.15 175 178 142
713.453 56.5617 1932.05 184 182 157
299.616 -208.903 1347.85 158 157 128
163.158 104.952 1383.19 252 235 215
511.943 168.306 1575.65 159 172 172
637.09 -167.47 1605.57 251 255 232
83.9764 355.464 1245.46 221 210 198
-35.9355 73.4078 1166.45 204 142 135
64.7182 274.789 1256.44 169 166 150
-69.7592 114.397 1067.59 166 168 166
71.1978 -91.1287 1172.7 79 66 45
678.406 43.0833 1967.75 236 230 198
-12.2283 28.9019 1118.97 253 253 244
-24.8994 59.3895 1073.27 255 226 204
-147.57 -98.3553 1357.56 82 67 53
110.34 166.087 1221.45 232 211 184
378.203 165.131 1447.32 86 108 112
131.705 172.547 1234.49 191 157 142
201.673 258.137 1718.07 193 148 126
420.375 -252.695 1499.92 99 84 85
-0.738159 256.465 1186.65 179 156 146
533.478 56.1399 1650.52 139 131 108
85.2104 374.146 1293.75 138 120 102
54.4471 418.369 1392.5 152 134 107
-9.0915 19.6846 1219.35 255 245 213
175.036 115.14 1468.04 200 175 152
607.493 -182.802 1601.19 209 202 175
61.3837 34.0216 1423.5 175 157 150
551.202 -298.915 1577.9 169 192 197
499.065 -126.118 1691.36 188 163 151
