-260.862 334.118 1119.28 217 212 207
-263.735 305.371 1100.19 13 0 0
-213.136 112.775 993.839 251 237 216
-266.898 343.994 1102.47 53 56 47
-194.718 128.355 1040.55 89 59 47
-222.65 110.524 1052.78 87 42 28
-197.129 120.576 1039.53 253 221 199
407.923 -116.326 1070.48 239 233 229
466.14 22.381 1133.46 212 200 199
-222.771 247.041 1106.53 70 70 68
-177.76 147.249 1021.09 244 233 216
-121.674 174.649 1105.79 20 2 2
-129.11 114.883 1013.24 70 23 10
-258.72 357.126 1122.44 235 234 232
-20.9024 345.393 1227.57 222 222 205
-248.933 346.849 1061.48 235 232 231
-233.979 279.509 994.375 248 243 235
-206.877 107.484 1036.42 78 28 7
-139.476 119.451 1053.05 81 41 18
576.58 -211.91 1015.7 183 202 190
-323.792 50.5301 962.368 98 81 76
-253.632 317.295 1104.01 231 218 205
-201.128 83.5323 995.293 231 202 179
-241.482 325.362 1019.08 55 58 50
-227.544 99.9663 1051.12 82 40 25
-118.386 164.567 1034.82 75 45 38
501.381 -8.0634 1087.89 255 235 225
-239.08 345.667 1038.42 239 231 225
407.403 -58.4187 1123.53 245 241 238
373.182 -228.644 1056.03 218 201 198
-344.117 128.995 1000.84 39 25 19
567.852 -229.022 1013.72 212 222 216
-383.208 44.4275 1006.63 209 221 202
-210.089 97.753 1055.31 96 52 23
501.691 -95.8817 1077.76 243 242 227
-244.424 -30.8281 979.613 228 225 203
-241.804 33.7225 1001.65 255 235 225
-216.856 127.695 1035.06 245 222 206
-211.981 130.42 1036.42 61 32 18
-117.495 180.771 1039.46 223 217 203
399.106 -50.62 1102.18 117 105 101
-184.682 113.175 1042.14 88 52 36
-196.982 106.467 1015.1 220 183 161
-86.8884 64.8359 975.249 255 252 228
-109.935 22.734 1074.97 253 248 215
-108.675 94.1663 1058.43 122 68 54
438.675 38.0342 1180.88 205 206 206
388.674 -58.7738 1075.38 255 245 244
-184.861 133.336 1001.58 46 35 28
-20.4608 297.587 1112.3 235 229 214
-209.679 148.493 1037.99 236 210 198
-215.113 210.444 1040.02 119 100 98
666.927 50.5644 1108.75 226 243 238
-188.514 286.423 1096.5 255 251 232
-237.686 287.897 1106.01 230 247 211
-82.7944 94.5976 1063.99 254 254 233
421.919 -58.4747 1125.03 249 240 226
409.169 -80.0344 1057.59 255 251 255
-238.147 98.1008 1072.36 208 150 144
-287.674 314.367 1048.37 232 218 196
-333.703 35.3608 998.967 115 100 106
-307.301 341.895 1139.94 63 45 22
-336.939 55.1152 958.917 45 36 34
-286.724 256.363 1044.27 255 244 236
402.526 -44.4663 1121.52 242 233 227
-165.56 157.752 1024.25 129 112 96
-154.789 139.865 1050.69 100 70 40
-267.39 39.3726 1084.93 117 77 81
-233.428 29.4728 984.954 109 70 45
517.009 -24.2284 1086.84 229 223 218
397.928 -107.123 1030.58 212 210 209
397.357 -48.2458 1077.11 95 94 89
-339.019 48.028 958.026 253 252 240
-92.3767 247.19 1049.69 220 209 201
-327.768 259.439 1105.94 100 86 87
-179.361 -16.2982 957.727 115 26 9
494.703 21.4411 1090.77 254 232 229
416.862 -94.7257 1033.01 236 232 234
629.337 -56.7668 1045.14 242 255 238
-121.445 40.0027 1011.02 242 212 192
556.988 236.21 1321.85 179 217 245
-243.091 90.0307 1070.57 226 179 158
-258.038 218.748 1048.62 88 46 42
-184.889 141.599 1043.66 236 214 196
-82.7826 89.3629 1063.68 108 89 70
-48.1802 219.073 1124.81 250 239 225
575.892 245.768 1295.85 96 130 146
-263.518 291.519 1099.11 218 207 187
482.563 -48.3383 1082.39 240 222 206
-287.625 258.535 1042.85 129 96 94
-204.841 158.963 1039.77 227 208 191
498.002 -18.9159 1086.51 237 218 211
-261.523 -24.1976 955.327 180 168 149
-333.409 35.8216 978.13 130 63 77
-284.402 227.334 1089.6 253 242 224
-114.247 384.719 1196.68 176 174 183
-201.824 472.274 1149.83 90 89 86
579.287 326.409 1364.44 54 89 90
-294.241 274.189 1043.49 138 131 126
-144.087 33.8817 1047.11 245 205 194
-177.516 157.38 1046.31 206 200 186
-121.466 44.991 1011.28 184 120 97
-233.319 241.768 1015.54 131 91 78
383.011 -97.391 968.767 207 193 197
-199.962 82.2703 1057.1 137 88 52
-317.545 254.583 1108.6 245 225 213
-249.603 25.4663 1014.87 44 18 11
-338.371 120.352 1022.83 108 72 63
476.815 -102.408 1035.26 204 197 175
683.317 341.942 1406.16 69 95 127
406.989 -8.34735 1125.79 116 101 100
-139.717 20.8098 984.203 252 228 210
-72.4161 126.472 1068.06 222 209 190
-241.524 315.529 1157.29 213 207 184
-304.525 43.8435 921.422 251 236 236
346.304 -226.055 1128.11 27 25 28
-261.32 231.091 1063.87 126 112 106
-228.304 60.8354 965.899 154 136 133
-308.145 249.625 1037.6 140 124 121
-223.057 58.5341 1007.12 97 65 57
-166.911 -34.1886 961.514 251 224 185
396.749 2.41749 1082.23 169 157 160
-319.638 174.932 1010.38 209 188 156
-126.682 34.3703 1027 122 88 60
406.817 14.8852 1107.76 163 147 138
439.204 -38.1111 1051.29 234 208 181
-333.484 43.0243 978.371 255 242 240
469.235 -97.2626 1035.48 190 178 169
-264.561 234.258 1048.79 254 247 246
425.473 -23.5629 1040.83 224 219 200
-64.4941 141.942 1028.17 255 242 206
643.531 -56.0603 1086.77 224 246 227
-165.416 12.9079 942.929 162 114 103
-170.356 15.8657 977.496 247 209 188
-105.726 201.094 1019.24 240 234 226
-37.0677 253.423 1129.21 255 229 206
-129.477 161.732 1057.69 255 253 244
601.834 -156.627 997.78 198 209 189
-133.949 31.309 1049.22 253 239 214
-111.104 222.126 1111.1 71 62 57
-287.716 277.246 1070 255 221 207
-117.33 248.205 1218.14 233 223 214
-333.53 105.289 1023.5 99 61 62
-246.896 190.378 1008.47 255 251 241
509.221 16.8869 1135.5 78 55 51
-84.4717 80.6485 1020.85 246 218 190
-269.497 266.305 1095.44 116 94 96
597.53 350.302 1470.34 16 38 47
442.769 -18.9062 1083.3 253 252 247
-275.421 224.024 1003.08 159 140 133
393.466 -89.592 1032.1 247 242 246
489.476 -26.0438 1176.77 255 251 239
-81.7324 277.247 1071.44 69 29 25
-213.644 78.5872 1010.12 121 68 45
-309.319 309.907 1087.37 249 252 250
621.264 302.962 1293.4 93 130 142
-90.4607 72.9666 1037.13 253 224 192
-102.186 71.6949 938.738 148 86 47
-196.973 162.708 1000.18 128 108 90
-233.503 60.8227 1003.41 113 94 89
377.721 -89.4186 1031.07 242 231 227
-138.535 39.939 1007.35 248 198 185
-271.632 269.717 1143.91 154 135 131
-42.6353 239.022 1127.19 232 217 194
-335.742 176.761 1005.92 248 249 229
564.87 315.855 1362.38 152 185 204
551.102 236.41 1280.05 159 201 223
-85.0862 306.484 1172.44 147 81 47
-368.346 119.572 1014.29 159 162 163
500.409 24.1326 1091.39 152 120 113
-268.584 -22.5672 936.715 138 124 117
372.667 -18.4669 1037.59 68 44 33
607.926 -119.97 1025.52 204 219 206
-48.761 229.365 1162.5 171 140 126
-300.363 73.5202 1077.64 241 210 200
-305.232 256.907 1136.98 250 239 237
-120.853 267.843 1290.37 125 109 103
-75.0384 332.902 1103.27 246 243 234
509.515 225.481 1175.73 20 53 80
-164.866 139.575 1048.32 113 89 69
704.901 342.19 1407.48 199 221 229
-164.746 342.14 1124.74 106 117 75
402.381 -58.8138 1076.36 140 122 120
641.351 -145.678 1074.77 231 242 223
-117.88 59.8666 1074.95 219 180 149
-253.15 200.445 898.038 130 114 107
414.488 5.51362 1127.27 71 43 48
-174.872 375.942 1235.19 191 199 165
-152.538 189.675 1053.97 255 251 221
529.699 100.362 1101.04 221 220 199
-311.957 214.426 992.173 117 139 110
394.123 -86.4935 994.801 227 230 228
-177.839 381.495 1209.45 185 160 153
505.4 8.06701 1101.5 170 154 148
-21.2286 331.254 1188.04 214 207 187
-280.129 252.945 1163.89 204 190 184
-205.901 -15.8014 1008.39 87 55 44
-234.262 66.8209 1039.01 175 149 141
452.188 95.6952 1140.22 62 65 52
649.367 -145.754 1074.8 238 250 227
-374.973 104.351 1011.68 243 242 234
-334.951 236.941 1102.2 150 145 118
-313.874 316.933 1166.97 111 71 67
631.74 172.368 1261.52 232 244 239
-230.651 63.0776 1020.52 254 241 232
-323.176 225.5 1031.93 243 248 239
-185.166 180.497 1045.75 147 114 100
598.969 -147.594 995.293 236 248 234
606.918 303.167 1365.71 92 133 139
-23.0857 264.336 1133.78 30 24 9
-340.011 239.332 1100.87 125 113 84
-319.662 413.62 1254.83 220 210 200
-332.079 82.112 1001.8 157 108 96
542.63 -181.481 1057.42 173 165 161
-344.093 108.203 937.803 241 240 240
529.985 -246.468 1020.13 63 94 89
520.451 11.3047 1135.46 88 65 57
-360.421 81.1113 972.395 212 204 204
522.173 291.719 1286.5 129 158 173
634.161 -179.333 1061.32 225 237 228
-72.4289 134.415 1068.53 237 228 207
-340.063 119.964 939.644 239 240 243
425.914 95.648 1138.06 130 121 95
501.593 -110.333 1119.63 245 244 218
-292.835 290.313 1069.38 113 87 86
423.754 9.40136 1108.94 182 178 185
-304.434 315.923 1089.29 103 100 91
629.434 296.981 1275.21 171 202 212
-131.618 72.9884 1052.13 252 241 216
-125.177 -56.6295 984.432 236 224 187
-143.448 256.149 1105.66 186 192 191
653.212 299.28 1542.51 36 76 78
390.439 -245.617 1097.53 66 35 29
-153.271 312.837 977.877 122 101 81
-43.3878 202.064 971.731 253 227 206
466.864 61.4906 1065.73 230 220 178
472.002 73.8987 1073.8 145 143 138
-233.765 243.319 1011.67 196 148 131
-266.568 209.022 1002.35 249 232 220
-167.784 -37.0618 976.265 153 94 63
418.522 -5.67707 1083.04 195 186 194
-272.808 204.14 1002.43 139 80 64
662.668 -110.606 1113.28 227 236 214
450.557 -110.324 1117.05 146 125 123
434.48 -268.023 1135.08 200 164 149
-339.211 245.207 1153.75 146 66 50
547.674 31.0441 1139.19 132 99 83
-217.171 369.411 1166.14 181 184 153
-292 82.0964 1104.12 255 251 249
-367.67 57.0174 990.129 154 158 153
-228.489 561.858 1362.87 189 188 185
-349.799 56.9806 1082.94 244 191 187
664.387 -39.9641 1120.4 231 254 240
-282.053 246.452 1091.17 235 236 239
-295.08 392.411 1148.17 100 81 67
-115.136 146.196 1127.63 240 216 197
474.042 -56.3502 1084.41 131 116 97
617.015 -182.633 1019.9 191 211 191
620.324 95.2108 1200.33 255 253 223
524.908 -151.145 1102.75 155 152 150
-174.41 -4.67728 997.236 128 53 21
-145.867 370.004 1187.53 132 118 105
-127.309 256.815 1063.36 242 231 220
374.137 -74.5092 1055.01 97 74 75
-280.424 251.826 1171.88 255 252 241
-384.74 109.874 1040.48 133 136 134
401.756 -284.521 1176.42 170 157 143
-131.274 49.9565 1009.43 249 204 173
489.42 -24.2747 1085.46 226 203 188
-233.113 45.9115 1026.55 173 137 128
-304.275 79.2604 968.978 255 245 234
340.89 -215.026 1128.62 44 39 36
-286.486 42.0324 934.515 255 248 239
-114.173 65.125 1013.87 243 194 157
-122.812 -59.2463 947.592 172 148 110
494.92 19.758 1134.98 171 150 147
-133.192 4.93512 968.465 179 105 75
-191.435 -25.8111 1011.34 144 65 36
-94.3143 37.6467 1016.55 190 164 148
-299.972 90.1436 1011.24 218 157 132
-348.512 227.701 1116.3 143 123 97
-282.236 176.205 902.8 144 121 95
519.783 -100.456 1084.37 180 157 143
-326.818 164.448 984.41 167 151 125
-156.284 186.768 1010.82 253 250 210
370.326 19.1585 1002.76 135 124 119
-385.392 87.9505 1053.74 139 107 107
574.779 -69.2173 1004.14 115 124 95
-179.532 -24.8403 922.147 125 62 40
648.244 169.218 1271.87 199 205 199
-179.359 9.51252 1058.8 59 9 8
605.752 -160.876 1062.18 134 132 129
-171.948 38.6085 1033.34 192 154 125
355.638 -84.5243 942.876 197 192 209
-134.988 16.3564 1008.94 168 126 99
426.656 -16.795 1023.36 250 252 255
408.041 21.7255 1057.66 233 232 236
-154.142 2.50683 963.968 204 115 83
-369.472 81.48 1006.36 207 215 209
397.019 -259.468 1129.35 174 122 114
369.084 -249.709 1141.21 181 172 180
485.565 -160.999 963.182 66 46 36
-332.113 217.89 1101.7 159 98 69
607.328 146.01 1155.08 236 244 227
477.779 -95.6444 1001.56 117 82 68
389.589 -176.848 1022.8 133 131 128
-124.733 43.6357 932.205 186 106 74
361.138 -300.195 1281.59 49 47 41
582.989 200.66 1235.8 124 167 165
-75.8441 282.346 1122.55 252 186 157
461.02 -139.605 1056.55 158 150 141
548.866 298.772 1289.16 83 120 129
-175.502 -145.841 1098.64 50 44 29
-139.49 -44.4697 981.953 168 138 95
-291.043 40.8307 959.789 243 200 180
-323.834 51.1584 890.307 246 250 242
-270.356 453.099 1248.28 183 182 169
571.049 258.625 1388.27 47 93 107
-85.5219 147.38 1066.51 250 211 162
-130.397 -57.7993 1052.15 186 166 128
-373.323 50.0385 948.28 88 54 43
470.141 58.9021 1066.93 155 140 93
512.799 -48.3041 1083.86 167 130 116
601.186 -96.2768 970.074 205 214 201
