-86.3815 401.128 1232.15 255 248 234
-92.3518 382.046 1229.58 253 252 254
88.0372 132.36 1195.04 72 37 14
-20.5615 32.5177 1117.38 36 3 0
-24.1823 387.496 1189.54 237 231 226
169.873 425.245 1442.94 38 37 25
20.5471 105.074 1206.9 254 239 217
-33.2346 412.214 1306.1 189 182 176
727.644 -308.968 1515.94 192 169 170
664.336 -17.0667 1480.69 221 213 214
-10.0481 337.878 1245.55 253 255 245
-3.83689 350.797 1247.74 245 245 224
-42.5839 -19.7813 1109.24 128 114 104
19.4333 110.168 1180.4 61 30 25
16.7036 172.089 1184.57 255 246 232
-15.0066 43.6723 1119.28 255 239 226
745.437 -54.4919 1554.9 255 238 231
-70.8782 387.1 1179.26 120 95 77
18.5972 -18.0533 1097.99 34 4 0
143.223 392.953 1321.62 70 65 58
-90.8499 305.808 1170.2 83 65 81
32.7528 155.554 1240.85 140 109 89
-144.256 64.0003 1048.39 232 232 217
617.959 -20.4443 1349.75 255 243 241
-121.356 59.0982 1053.2 78 62 58
-38.8655 347.677 1184.24 107 94 88
608.001 62.8337 1428.38 205 198 177
-34.5683 341.856 1210.47 235 210 194
-27.1393 360.389 1187.48 237 229 219
-50.4828 260.986 1176.53 250 223 219
620.203 -267.635 1307.66 15 28 21
22.6592 184.115 1186.63 243 223 212
41.95 134.195 1240.85 122 84 56
615.086 -151.436 1390.52 238 231 229
-67.8792 307.237 1175.51 255 248 241
-95.1459 310.72 1224.32 117 110 121
4.82254 136.339 1179.52 255 250 225
29.7112 141.457 1210.82 240 204 177
34.4206 160.779 1187.23 94 73 55
-3.75616 108.032 1126.03 248 234 209
43.3965 172.884 1189.87 243 230 215
713.756 -266.673 1341.74 210 219 203
-42.8829 382.435 1151.71 91 84 73
585.36 -42.0515 1409.11 89 69 77
26.6495 129.244 1209.52 240 204 185
39.5288 -28.0187 1226.83 91 4 0
-35.7407 -25.1703 1105.69 255 238 231
-103.213 280.684 1115.54 99 98 109
21.6621 173.236 1269.53 107 71 48
8.58622 128.882 1205.84 123 78 58
99.2141 43.6271 1189.43 255 249 230
615.965 -141.318 1392.41 253 252 252
502.694 -256.298 1367.61 219 208 209
-90.9734 355.922 1173.04 231 214 211
-79.4437 333.137 1174.39 114 108 103
594.154 -21.3048 1413.17 179 163 161
658.756 5.07071 1563.7 35 18 15
660.372 -151.642 1391.5 250 244 236
8.1238 272.9 1189.72 176 162 163
628.053 147.494 1766.91 162 161 151
-30.0786 354.241 1186.5 245 234 226
734.791 -224.8 1349.48 236 249 240
56.3483 6.94741 1250.53 242 187 179
545.992 -118.435 1330.47 162 143 136
627.805 277.686 1501.49 140 184 203
20.6084 126.156 1208.13 137 93 71
-93.6386 257.395 1092.68 225 203 184
-146.505 166.622 1148.01 252 250 246
607.703 -76.6912 1472.77 232 210 197
670.28 -2.68955 1563.49 153 149 149
-88.2922 254.928 1093.7 126 48 23
798.377 -228.123 1442.71 248 253 245
580.708 -55.8281 1406.46 94 76 66
-46.9131 404.252 1241.46 129 122 115
120.771 31.0425 1221.06 255 248 232
18.1635 117.409 1150.21 251 219 188
-119.216 153.978 1059.04 139 125 125
586.578 -157.99 1388.42 179 169 166
-133.842 76.8538 1009.88 104 81 67
149.507 41.1541 1424.64 250 246 230
-80.3196 386.111 1232.66 153 137 129
7.77464 142.283 1180.56 118 74 54
-40.7856 357.763 1240.01 123 106 95
-39.6816 448.094 1306.93 122 119 123
-3.74011 251.489 1185.88 135 119 114
34.6748 294.603 1164.52 108 109 86
700.939 -69.8658 1476.77 238 222 223
537.747 -86.5897 1274.89 255 245 249
99.2749 49.5178 1189.96 179 119 104
38.5552 158.338 1158.05 238 218 204
-141.635 157.384 1073.42 129 114 112
-62.1756 375.838 1180.62 178 170 154
545.509 -144.043 1267.81 248 243 242
770.995 -23.4248 1655.46 96 84 90
46.9073 -14.6901 1248.05 255 220 182
781.505 -162.293 1457.25 217 223 193
-83.4271 438.603 1395.86 253 242 228
539.083 -289.137 1429.15 232 184 173
716.135 -177.322 1538.4 217 199 174
635.097 294.288 1539.96 65 87 110
-53.6322 84.7482 1114.37 253 255 250
117 22.9873 1190.54 254 244 224
44.1782 -17.07 1203.73 180 85 48
-40.788 432.975 1244.47 229 220 222
552.418 103.012 1860.83 95 93 85
155.946 165.196 1264.53 255 250 229
625.709 -69.782 1405.81 224 199 175
-112.638 79.611 1259.03 105 93 75
103.5 201.378 1228.18 226 206 188
-56.5443 243.88 1123.78 112 69 51
-27.2186 232.534 1179.72 252 241 230
599.889 -124.383 1394.99 249 247 248
89.3577 42.2661 1239.83 248 230 213
-50.0613 302.499 1350.51 232 193 193
-62.0462 260.429 1173.93 252 192 183
23.9066 219.738 1323.38 127 98 88
-51.3902 370.32 1149.62 196 189 178
-141.077 73.5627 964.126 200 145 123
633.158 274.358 1535.5 63 102 109
-11.8 77.2465 1145.79 143 143 138
694.86 -95.0471 1529.72 243 203 185
-47.5977 293.639 1179.2 157 139 140
-107.622 220.13 1160.91 210 166 134
-28.4716 443.428 1247.8 113 100 85
51.1392 187.377 1217.51 141 125 116
749.787 330.827 1721.51 78 106 110
-104.109 52.9919 1149.91 158 120 127
671.83 207.728 1520.42 214 247 255
-40.7871 398.449 1242.5 224 218 216
640.351 -44.3684 1480.34 211 196 194
-90.4978 59.57 1059.85 255 245 241
147.051 77.6598 1351.94 245 238 215
-50.1294 370.087 1157.89 130 113 108
-67.4767 450.178 1211.72 128 108 85
-163.665 94.0574 1113.38 228 170 158
-73.7061 345.354 1176.38 142 102 102
447.204 -260.83 1429.55 34 40 38
-169.206 37.9034 1041.21 204 171 147
-115.7 209.294 1081.21 248 242 221
108.688 61.375 1220.95 253 223 204
27.1412 274.22 1077.64 224 223 210
-153.223 110.028 1093.89 244 231 220
-69.3986 42.3958 1021.4 255 244 240
591.833 -239.77 1262.97 171 163 155
-137.693 168.176 1101.1 162 114 85
80.9658 35.1803 1152.74 246 230 196
110.355 82.8584 1248.91 255 247 227
623.472 -117.875 1463.27 158 136 133
685.467 173.183 1601.59 52 44 35
134.842 306.026 1333.53 228 219 211
756.663 -23.9292 1561.85 148 119 103
741.076 66.0741 1504.98 233 229 203
32.4673 96.9391 1235.68 176 120 90
48.1661 3.73979 1153.11 166 95 74
33.5271 334.2 1254.58 244 235 210
822.536 -62.1384 1478.16 224 231 228
634.644 -314.362 1571.14 97 91 92
736.295 -331.897 1492.47 161 187 185
635.184 -164.21 1457.21 195 184 184
591.944 -124.526 1436.64 72 55 51
-27.2219 226.636 1179.32 171 138 132
675.208 217.412 1591.76 89 125 140
657.405 286.37 1538.66 167 207 215
-149.588 70.9292 1097.56 78 54 55
-86.149 298.563 1193.57 221 202 204
-99.3004 47.1415 1015.63 144 120 119
874.73 76.7202 1752.91 248 242 224
105.651 85.3012 1194.16 200 140 102
80.7381 308.257 1262.32 255 246 234
-108.098 159.231 999.896 93 72 37
574.125 -48.8385 1407.35 185 168 165
352.389 81.3058 1069.91 133 132 119
-38.8663 306.015 1181.85 128 100 108
42.8648 315.741 1255.26 184 185 170
-66.668 477.442 1289.93 112 92 65
519.213 -255.461 1510.7 34 33 32
-130.064 210.458 1154.94 255 251 229
-85.3595 75.4484 1061.88 255 244 231
-116.703 265.968 1111.67 64 59 55
684.139 -8.49879 1564.06 79 83 83
401.849 92.2101 1199.85 65 62 56
161.908 109.006 1411.9 238 228 215
-105.449 144.347 1107.05 123 106 88
718.403 -283.568 1520.01 167 166 157
-113.658 177.265 1107.21 200 171 136
-64.2179 306.184 1102.7 244 192 172
705.956 -44.874 1625.22 93 78 74
-70.89 110.085 1135.18 252 182 163
312.556 72.7841 965.248 48 51 37
727.669 -26.3502 1486.08 237 219 208
684.441 219.413 1523.19 107 133 131
707.612 291.623 1610.8 122 158 157
112.339 9.51918 1164.75 231 224 198
147.166 87.7829 1352.78 245 226 204
-41.7776 279.173 1179.59 249 240 228
-30.1247 256.118 1180.63 179 131 113
-90.698 250.078 1166.79 160 103 88
39.0385 211.211 1216.31 191 164 154
94.8112 72.0072 1123.3 248 221 190
701.105 -310.171 1427.49 86 105 96
-20.3235 282.543 1133.54 107 71 62
-161.18 120.859 1092.67 112 62 50
665.299 -328.49 1592.42 179 151 152
81.0092 14.1165 1183.67 253 250 227
764.11 -250.084 1510.08 145 131 129
-72.682 265.302 1074.96 215 204 189
793.533 -254.689 1607.72 103 89 80
781.979 5.23855 1661.13 255 252 217
-99.0697 124.203 1050.91 155 134 127
-151.84 137.829 1144.72 254 250 239
-19.1932 452.789 1252.63 201 204 188
149.183 139.647 1261.06 253 233 204
95.8221 177.668 1171.2 145 133 124
-47.8679 94.9439 1192.02 243 198 181
625.708 1.26318 1348.39 139 118 95
173.336 254.973 1275.21 252 241 213
106.729 6.62572 1153.63 251 219 189
767.217 250.056 1799.43 165 203 212
153.869 151.311 1293.97 238 223 192
90.4727 167.482 1121.57 195 190 192
65.2475 102.927 977.174 147 104 89
113.466 66.5662 1262.99 212 159 140
90.3429 55.333 1188.94 251 229 203
-94.9408 241.941 1115.27 147 89 79
78.8327 418.16 1313.96 146 138 131
-53.8494 342.523 1202.47 191 114 87
-62.1427 343.158 1178.85 234 196 190
136.81 151.063 1154.2 255 244 214
674.331 -221.388 1378.45 178 157 153
-35.9499 294.34 1181.77 234 218 214
-52.4483 340.64 1206.34 255 204 176
-127.451 83.5146 1140.37 166 158 157
-176.444 63.4076 1160.27 188 112 83
93.8022 453.045 1429.83 100 92 77
-164.28 48.2539 1042.93 206 112 92
759.458 -127.517 1357.09 169 177 166
66.8387 275.246 1566.45 211 185 163
868.353 -50.1472 1554.17 189 195 181
-33.3609 340.571 1355.56 108 77 68
817.165 -134.026 1462.64 223 237 225
