33.8958 346.102 1148.43 255 252 242
-51.3256 128.143 1072.26 83 45 35
-48.649 33.2527 1067.02 35 6 6
47.0626 -48.7588 1078.77 255 231 216
-3.06417 404.161 1143.86 221 218 209
631.398 -166.648 1385.63 254 244 246
-20.3356 331.957 1114.53 226 204 184
28.006 340.581 1172.87 234 229 220
69.7578 85.2085 1138.33 86 59 37
-35.4479 112.46 1074.52 81 32 26
-87.7539 30.7035 1058.92 251 220 197
607.675 -13.4099 1345.96 247 250 248
-48.655 48.9703 1068 42 38 30
630.732 -53.3946 1409.45 65 73 74
88.1506 136.763 1195.73 69 37 29
24.023 297.673 1120.97 96 91 86
-27.5559 22.7508 1070.45 47 24 33
-24.3058 261.724 1155.36 82 64 71
679.381 206.607 1520.63 12 52 77
-77.4891 80.407 1064.02 255 244 240
-43.3904 48.9608 1069.04 95 96 85
29.038 271.97 1194.4 254 254 248
-67.2339 32.5646 999.101 179 186 172
181.832 336.003 1215.08 67 63 57
159.618 170.825 1180.28 248 243 218
-36.6963 228.854 1076.11 68 78 68
92.9054 107.903 1144.07 249 236 213
69.9031 104.901 1139.83 255 237 222
112.445 149.044 1201.05 252 251 247
36.4382 -47.3737 1148.16 252 251 238
89.1972 108.677 1097.05 130 87 65
69.7947 92.2692 1092.66 156 114 104
87.8414 -41.336 1085.83 100 73 55
-84.7114 12.7641 959.247 254 241 225
-5.75426 288.244 1090.31 43 17 19
15.8562 225.637 1160.39 221 201 198
33.7773 323.174 1172.58 252 244 234
26.5793 376.488 1203.76 239 239 234
86.9025 79.6235 1140.88 150 101 67
78.6153 119.13 1142.42 105 68 57
-3.19851 332.605 1140.31 234 215 201
46.9972 -59.2185 1077.98 179 174 178
641.211 -28.4757 1349.8 225 213 210
88.5347 92.8767 1116.52 245 213 197
-64.3857 49.0307 1064.83 73 21 19
-56.6005 130.691 1071.33 193 176 182
112.381 143.087 1200.55 255 248 244
-67.1116 127.916 1068.98 253 253 252
77.8701 70.7313 1092.53 210 172 151
82.8677 84.6017 1115.13 214 179 150
587.821 -57.7227 1342.86 201 193 192
-0.683392 249.935 1186.82 117 94 98
118.583 155.108 1202.62 115 115 102
-6.36977 359.86 1192.49 172 154 132
-3.55791 434.202 1253.48 207 192 171
5.23545 256.065 1188.47 255 243 251
150.03 146.492 1129.48 65 65 58
65.8135 45.6363 1159.15 127 105 91
-85.8079 18.9931 978.497 241 157 133
-24.4587 264.432 1125.11 117 83 72
5.54156 339.615 1149.78 84 74 65
169.28 160.279 1230.86 106 68 57
108.587 -40.3208 1134.55 127 40 8
-25.772 317.229 1134.81 213 204 201
647.841 -60.3596 1408.74 248 244 246
-27.4918 43.2809 1092.78 109 88 86
46.9417 263.802 1197.41 91 75 71
-12.368 305.858 1187.99 145 126 126
161.594 110.21 1260.64 124 72 53
588.863 -129.294 1330.97 178 161 148
123.335 -40.7254 1242.53 255 228 195
88.3089 154.646 1197.19 254 228 217
57.3834 45.3923 1090.47 118 104 95
609.117 -127.003 1321.64 249 249 250
639.978 -135.761 1440.91 68 53 46
-35.4174 176.35 1078.32 181 155 114
656.031 -161.797 1327.04 250 240 224
668.961 -111.22 1467.86 248 250 242
669.404 -28.7471 1355.66 249 236 219
21.5638 330.56 1097.71 79 63 60
17.4905 391.38 1199.23 236 223 216
118.608 405.507 1320.28 67 57 40
-64.4958 133.303 1069.83 121 96 86
612.994 45.1205 1360.68 155 151 132
618.9 -66.9488 1406.54 199 181 184
630.922 -145.675 1329.4 209 210 198
828.622 -347.565 1596.1 107 126 120
-46.0226 38.4766 1067.87 255 255 248
158.412 17.8522 1147.16 255 241 227
57.1708 303.663 1175.48 255 250 225
670.868 -74.5174 1342.64 242 231 230
30.5647 220.111 1140.49 101 56 44
169.532 -13.1375 1146 254 244 210
71.626 367.52 1208.71 211 206 177
146.797 17.953 1145.43 255 242 225
-76.3769 54.2929 1038.82 197 108 86
-51.3437 181.275 1075.35 236 231 222
654.643 -67.8946 1343.43 255 247 248
26.7683 286.536 1120.64 248 236 230
652.073 -247.984 1310.32 145 142 135
-59.8175 74.8478 1043.23 40 18 18
869.163 168.211 2321.31 156 156 146
49.1467 273.502 1123.87 214 213 190
-8.78901 372.328 1141.17 164 139 128
-69.6602 80.512 1065.64 221 187 179
622.371 -32.3982 1286.29 239 217 209
104.345 96.726 1145.15 177 124 99
578.489 -288.937 1430.92 208 164 142
-68.483 -114.931 1290.89 15 11 6
619.556 -27.4978 1265.23 117 101 83
-21.2925 29.261 1030.11 254 255 243
-20.3544 317.938 1113.5 202 195 190
638.841 -94.0996 1338.53 218 195 177
85.7233 253.606 1076.56 119 106 91
158.5 23.506 1147.66 200 130 109
706.824 -302.745 1363.57 155 181 176
81.4221 57.3131 1026.21 116 58 32
-36.6654 176.706 1064.83 97 100 66
10.1328 316.719 1119.66 207 197 191
13.2943 -37.4327 1068.43 208 186 166
599.748 -83.9633 1402.74 186 159 148
38.9185 200.173 1162.51 251 241 235
688.483 -160.495 1389.78 209 204 188
-14.6204 249.547 1133.32 252 242 250
83.4314 62.7692 1163.31 255 238 212
650.97 144.237 1444.58 121 127 117
581.347 27.9983 1202.31 158 147 132
707.849 -60.5653 1410.01 229 193 184
708.524 -61.1931 1534.84 204 200 210
667.433 -77.5732 1406.06 254 247 237
-70.6086 82.3765 1055.9 104 42 24
-40.7445 144.208 1075.37 238 212 173
2.51483 82.184 1149.16 250 183 165
-0.495142 14.4132 1144.87 255 235 215
136.842 14.0318 1080.89 255 249 237
670.121 191.285 1516.9 82 114 137
741.964 -84.5921 1548.4 255 246 241
704.122 -48.2745 1406.28 236 211 214
-85.3036 88.3164 1062.83 95 35 31
-47.2664 35.573 986.674 135 106 107
-23.6557 195.129 1038.82 118 84 60
-21.9385 292.919 1087.32 127 117 118
626.495 -165.364 1110.36 201 219 209
85.0819 117.91 1071.46 175 150 138
629.689 196.832 1586.77 47 67 64
96.3508 170.677 1149.25 147 139 135
17.8043 25.1967 1079 255 232 211
31.1456 385.385 1177.04 103 79 72
464.758 -214.421 1250.95 89 92 86
-18.5271 41.4001 1049.83 255 255 233
6.87961 109.546 1196.53 163 102 84
-74.4022 87.3544 1023.06 108 40 15
114.028 336.426 1188.79 233 244 216
665.443 14.5602 1357.84 243 241 215
13.9402 87.6393 1019.01 207 160 141
-72.3105 101.509 1066.34 255 251 246
133.619 119.871 1151.75 168 141 120
19.2382 233.95 1139.14 132 107 100
199.236 66.9035 1236.97 250 242 226
104.323 -48.9944 1111.25 145 65 43
-39.9474 257.435 1148.63 97 101 97
657.102 -75.0332 1282.87 144 118 103
17.9096 54.3965 1080.99 248 255 244
14.5729 418.298 1200.04 167 165 167
-64.6615 45.5176 962.064 175 90 71
-27.4871 96.7056 1075.13 146 114 104
-14.2477 48.9952 1074.68 255 238 235
146.313 8.87983 1098.51 255 238 220
-56.619 159.793 1073.03 246 226 207
73.5623 161.616 1214.96 192 177 152
182.328 52.0208 1153.61 241 219 203
157.992 -15.3445 1079.65 255 242 202
24.9265 257.087 1234.65 255 248 244
879.45 -185.811 1534.72 237 244 220
-40.5219 160.664 1054.11 129 89 48
-30.1835 34.0425 949.296 253 255 247
-17.395 101.564 1032.74 236 167 135
825.476 -26.8974 1658.03 255 250 230
-21.2597 243.091 1182.04 165 115 98
494.393 -235.721 1309.51 67 66 74
97.4942 385.705 1242.15 131 121 98
182.181 43.3678 1152.85 251 244 225
24.8236 205.763 1138.45 179 153 146
29.1459 199.819 1113.97 75 53 46
629.318 34.3773 1299.84 221 219 202
657.77 -29.3042 1414.73 242 245 245
96.8555 324.7 1091.78 197 184 168
-8.27635 281.258 1171.61 202 158 166
147.431 -3.04743 1158.77 254 246 216
-0.292574 31.0907 1052.75 255 234 240
638.735 -121.751 1397.15 144 132 133
1.14741 100.341 1099.94 203 150 133
23.3315 59.7911 1082.33 255 242 236
126.775 -27.422 1187.33 108 36 14
-30.0737 189.179 1098.69 250 242 215
186.245 93.4584 1129.11 255 242 222
663.373 -8.76695 1353.84 228 216 200
765.358 -84.8218 1474.48 164 126 108
-8.43802 67.4046 1034.68 222 169 144
770.843 -130.641 1464.59 255 255 236
161.76 46.3688 1150.09 255 230 192
108.938 288.871 1235.05 255 252 235
67.9089 235.675 1148.52 201 192 192
169.728 51.5136 1197.93 255 239 210
-17.5325 258.131 1261.14 226 177 149
-32.6822 205.619 1059.04 202 169 150
123.229 539.34 1317.61 167 194 181
26.0801 82.3996 1033.72 177 165 147
-61.2298 155.023 1049.45 148 119 102
698.191 -15.6426 1418.32 171 152 134
203.124 279.597 1282.77 255 217 198
23.8818 -14.7167 1122.48 255 211 181
26.536 413.043 1202.24 143 147 147
189.728 121.723 1132.57 250 221 190
620.255 -34.9588 1347.97 138 136 141
450.223 -238.347 1299.58 157 136 130
719.947 -196.986 1257.76 237 243 233
838.134 28.0132 1654.59 165 157 158
790.848 -197.729 1388.26 196 211 188
-8.08311 356.92 1107.14 255 252 239
190.216 198.491 1187.77 183 145 126
753.703 -171.279 1325.4 200 216 186
-64.9788 151.815 1045.18 169 130 115
642.718 2.12769 1419.87 127 105 98
156.373 32.4182 1012.52 224 205 179
29.4205 -61.4001 1097.9 46 49 57
557.022 -106.279 1333.47 105 84 80
