-0.626821 384.099 1251.31 255 251 248
7.68076 14.7167 1223.51 44 18 12
-23.0976 -34.0251 1133.75 255 248 241
-9.42154 353.952 1191.65 242 240 237
99.9212 106.887 1195.65 81 55 32
-9.0144 -37.3449 1069.55 95 81 72
-82.8786 137.007 1066.31 45 20 14
5.27122 -46.1836 1194.25 255 250 245
-80.0678 57.4802 1062.02 17 18 13
533.905 -171.173 1451.66 255 247 250
-56.0184 380.126 1238.65 249 242 226
545.992 -63.7252 1546.96 255 252 250
31.2762 105.385 1182.88 100 69 39
-27.5305 -29.3206 1066.72 255 246 230
43.4921 -36.1771 1124.01 85 26 16
57.5452 -41.8101 1125.95 68 1 0
-312.736 -45.678 534.87 225 232 223
-118.656 38.4704 1052.59 245 201 177
-2.98026 -40.524 1048.47 255 251 243
52.1259 123.588 1188.36 131 90 66
622.268 207.145 1690.11 230 255 255
37.3023 129.213 1185.97 96 45 31
-61.4097 329.565 1152.9 250 239 239
-6.59883 276.456 1187.59 236 232 227
586.615 -63.0615 1628.88 104 103 102
121.377 171.078 1290.03 73 52 48
27.1733 89.6092 1131.14 87 57 37
-122.341 -14.9112 169.908 233 241 237
39.8805 78.6905 1156.42 252 228 210
49.6076 -30.1047 1058.26 72 19 11
-59.711 30.4029 1085.55 117 52 60
28.3726 117.154 1183.27 251 227 209
43.0202 87.8921 1183.68 155 105 70
485.216 122.142 1707.1 187 182 177
-41.7448 366.75 1185.34 118 113 101
569.129 -19.5086 1552.53 232 233 235
50.863 106.611 1213.57 254 236 206
-116.996 20.3271 988.97 255 226 200
57.0639 408.524 1236.29 81 89 93
630.365 -34.8465 1637.38 231 223 224
-110.094 88.966 1077.74 255 247 239
-37.517 438.807 1218.46 234 230 216
63.2527 405.912 1237.31 234 241 241
73.4612 167.273 1250.56 149 139 116
-116.421 27.0474 1010.93 238 178 151
623.127 -32.8719 1557.41 250 234 225
31.367 126.089 1184.57 237 213 194
40.326 141.195 1187.5 141 118 114
-0.818856 214.197 1184.68 254 245 233
68.0196 156.737 1240.79 229 221 220
-9.96995 306.433 1162.31 252 243 231
40.3545 147.139 1187.97 250 227 217
136.33 381.134 1319.24 85 87 85
-95.9001 141.97 1063.77 99 69 68
-15.829 389.134 1272.83 18 19 17
-87.8016 41.5066 1059.4 143 94 93
482.759 -298.084 1569.86 206 168 155
-20.206 357.848 1138.08 109 103 96
-67.4658 190.947 1118.76 230 214 183
631.73 -67.1148 1550.43 236 207 199
-7.24177 230.569 1156.38 130 89 72
-100.712 41.4012 1056.66 238 231 217
-3.7981 349.203 1248.42 244 231 213
-62.4654 106.19 1088.7 101 69 61
-95.6143 57.2483 1058.73 101 49 37
-98.4738 136.573 1062.91 231 232 233
562.489 -129.805 1535.15 141 120 118
6.22495 -52.137 1130.94 214 192 185
597.575 280.53 1702.54 183 211 236
577.874 -171.292 1453.65 240 222 201
-70.0823 126.612 1114.05 106 56 42
-62.1446 471.341 1303.87 125 128 119
92.0786 136.51 1251.31 174 147 127
-46.5895 250.366 1111.85 255 252 247
126.664 -7.32436 1219.67 255 254 228
57.9543 102.947 1187.75 134 101 74
-62.0524 378.967 1297.73 254 253 252
542.698 -156.641 1433.04 232 225 214
43.4497 171.01 1190.43 127 109 96
-13.5438 326.17 1214.39 139 118 114
616.6 -172.82 1618.07 255 253 247
14.1734 298.394 1193.34 212 209 195
602.569 146.51 1644.26 69 59 49
641.454 246.345 1791.36 118 141 138
-48.5145 337.234 1149.92 146 139 138
111.061 20.7883 1189.76 252 241 222
498.768 -65.6371 1388.18 109 91 83
432.821 -244.453 1502.54 23 26 21
53.9886 187.871 1307.93 79 65 43
61.1824 141.687 1191.52 139 111 88
516.85 45.4813 1417.14 175 153 133
-18.6836 244.573 1155.23 143 122 114
74.7802 363.927 1265.74 249 252 223
673.065 225.716 1787.27 104 122 126
521.188 -93.0682 1465.77 116 89 74
-59.301 272.92 1125.39 156 128 123
-88.1808 168.932 1066.98 255 251 226
43.3889 159.081 1189.5 246 222 205
-19.1066 258.576 1266.15 243 229 222
139.388 32.8007 -323.843 193 207 200
466.25 -271.695 1585.63 60 51 51
618.742 -26.7312 1638.76 53 53 56
-17.9929 63.3893 1093.1 255 255 240
-21.5555 232.766 1153.59 213 185 173
427.574 92.6765 1831.44 62 53 51
662.1 -86.5332 1626.18 221 201 198
15.7872 55.5979 1126.39 102 100 101
-66.6162 230.937 1053.79 121 127 122
591.367 -82.6664 1545.47 255 248 236
683.436 -168.731 1529.36 247 248 213
45.2642 160.266 1244.42 129 96 75
518.108 -135.873 1457.5 185 172 168
-32.9532 255.566 1153.13 252 245 245
122.867 3.16432 1190.01 255 240 224
597.185 -105.242 1540.94 245 234 214
631.013 300.211 1836.08 39 75 84
499.368 -85.8672 1465.66 223 166 153
517.981 -85.912 1466.91 222 198 179
55.1744 135.542 1189.89 155 131 110
99.1024 23.7097 1188.03 255 234 226
4.35583 263.283 1161.64 110 88 85
-9.91322 399.232 1250.18 192 194 192
-106.069 93.9888 1058.75 98 24 11
473.502 -92.4772 1304.49 235 242 233
635.306 211.709 1780.96 57 108 135
601.407 215.622 1690.26 112 151 167
564.317 -64.1118 1473.79 248 238 238
60.0033 383.846 1234.8 73 63 47
643.658 210.372 1734.22 197 226 244
432.377 -251.701 1501.07 165 159 156
-11.1261 286.692 1097.56 253 236 219
-12.945 250.708 1156.97 248 244 244
722.261 332.796 2019.93 176 202 226
-56.2281 373.082 1328.23 159 152 152
536.827 -132.424 1459.23 255 249 252
101.224 558.137 1377.83 84 98 90
-15.6272 376.878 1166.56 125 126 130
-84.8455 204.649 1165.63 244 238 227
-6.91048 392.301 1169.55 123 97 91
-83.0043 187.727 1069.15 255 247 243
555.053 -252.178 1263.95 39 50 44
535.523 -100.243 1465.29 150 115 116
-44.6669 399.412 1186.42 162 139 123
-30.101 230.687 1179.57 139 96 79
37.0172 70.0829 1181.04 254 229 212
-140.536 -99.3487 1295.01 39 23 13
113.324 -10.8631 1115.4 255 249 219
-98.7015 172.192 1132.44 99 80 63
-47.8695 294.18 1105.93 158 151 145
607.248 -69.2616 1635.37 225 224 221
-2.5977 214.699 1171.66 127 69 64
494.05 -283.61 1586.57 180 160 150
-34.3069 85.6235 1118.75 246 213 193
696.901 51.4779 1659.78 243 241 216
705.716 -109.291 1949.71 91 73 55
93.0036 12.0461 1185.89 153 123 106
-64.5166 113.519 1068.77 196 163 145
107.432 -94.2235 1209.53 253 246 223
-16.8477 387.378 1181.18 230 223 216
55.4543 183.277 1193.68 160 145 137
679.636 -242.077 1513.02 63 73 66
-9.10217 233.059 1133.65 124 71 74
65.9258 -29.0888 1177.38 255 197 161
81.7053 -31.2239 1330.25 174 90 49
-67.2419 71.1786 1110.83 202 189 186
-12.8266 320.993 1162.87 177 168 170
557.053 213.533 1777.52 46 67 67
653.611 -327.469 1592.11 120 137 130
68.4101 -89.9799 1172.06 81 59 38
-108.515 62.3298 1056.27 216 111 88
-13.0424 75.9601 1256.35 162 157 144
118.653 185.573 1280.07 138 109 90
-85.3768 80.6433 1038.26 155 82 70
25.6138 343.032 1099.38 205 200 180
-198.088 7.17149 1151.68 155 135 117
16.1058 307.986 1167.84 204 191 169
53.7408 70.4841 1211.86 160 105 83
-576.54 -69.792 939.899 113 119 109
-35.9463 428.505 1198.01 241 227 204
2.09864 196.58 1133.68 191 166 152
-39.1452 -36.3675 1210.2 203 181 161
35.3308 385.25 1229.93 104 88 65
656.939 214.806 1735.22 120 143 151
119.388 40.287 1246.81 251 213 196
48.0544 271.318 1171.02 168 175 157
148.787 106.386 1258.48 255 248 224
-18.372 269.887 1184.67 162 151 150
-108.666 99.2565 1058.49 112 47 19
103.089 169.828 1171.41 234 206 177
-17.4614 32.1367 1142.47 255 253 240
-67.829 175.835 1015.65 138 123 101
80.0602 536.542 1308.71 41 62 50
575.562 -33.0735 1410.89 174 146 126
74.9099 386.215 1267.18 113 113 91
579.868 -33.0613 1555.26 249 250 252
155.637 137.993 1262.72 247 231 214
-39.796 18.7975 1112.74 193 146 135
647.716 254.914 1701.46 155 183 185
616.29 -21.4549 1559.53 129 102 84
100.961 1.64299 1152.53 246 231 217
-38.8304 319.211 1183.29 142 74 65
97.9402 28.3853 1138.69 218 137 121
790.408 -201.693 1713.22 235 237 215
607.633 -74.9305 1547.82 220 204 211
91.8706 -8.22114 1134.53 254 217 190
73.5231 542.572 1307.85 177 201 189
127.745 200.269 1358.3 226 207 187
691.89 304.646 1906.85 119 147 158
643.673 -188.745 1601.32 188 165 141
137.012 287.437 1240.21 178 118 79
55.4459 305.393 1257.89 165 162 134
110.348 315.363 1124.88 255 246 229
514.384 -120.333 1533.35 175 148 145
-39.867 273.949 1129.63 248 236 225
-38.4459 295.256 1125.39 255 229 203
-43.5219 432.157 1216.57 119 97 76
623.001 -314.665 1511.83 188 218 230
494.959 -281.008 1499.29 143 126 130
568.716 180.89 1680.72 82 109 111
-103.552 109.939 1060.25 241 238 235
22.2199 52.2595 1176.67 141 101 98
-108.493 57.0902 1055.96 248 147 136
39.7707 32.0312 1178.26 183 152 140
-121.313 100.447 1100.94 97 38 33
111.423 53.3542 1192.88 255 249 221
3.71637 85.2257 1301.9 255 240 243
-32.9423 406.247 1189.34 81 61 47
-52.6877 80.9071 1216.79 253 214 185
22.8635 227.048 1190.41 144 151 147
642.394 -36.5757 1557.38 237 222 193
61.6536 286.769 1257.81 223 222 210
-70.3229 261.136 1122.3 170 180 179
486.451 -274.975 1429.56 219 193 191
122.187 -99.9309 1325.11 184 172 152
625.83 22.8509 1541.08 175 178 168
648.889 -131.497 1536.98 249 243 225
-21.5226 -6.17099 1163.05 255 235 210
638.013 -33.9694 1525.26 150 138 112
548.949 -25.4654 1554.97 149 132 118
413.363 -251.442 1499.63 91 90 79
-25.7891 306.93 1153.67 193 153 130
-25.8967 274.749 1132.61 255 219 217
482.34 4.6887 1327.63 137 118 102
-60.3778 217.533 1112.44 218 185 159
514.549 -185.108 1447.96 109 105 87
-67.5185 224.655 1120.79 218 194 169
517.342 -146.448 1455.46 70 49 41
749.067 -70.7701 1631.14 124 151 139
111.45 58.7982 1245.23 254 236 211
387.35 -236.912 1423.86 80 84 69
52.7994 304.508 1241.66 243 245 210
-116.202 150.411 1105.3 169 135 121
606.938 27.3733 1475.18 187 182 168
127.025 61.8849 1310.73 255 211 177
