45.9917 -36.4801 1311.87 255 249 231
-10.3414 447.947 1440.88 249 235 215
581.141 -166.624 1810.15 243 238 237
33.4066 -32.4239 1225.64 204 184 174
-54.1242 72.3001 1211.88 33 12 12
31.0744 413.067 1371.9 239 235 229
578.993 207.036 2461.08 191 190 182
32.7457 396.984 1449.45 91 73 70
2.66697 510.526 1388.64 248 248 240
37.9497 427.102 1373.65 239 229 223
-18.1105 66.7597 1219.46 89 64 59
-88.3505 509.283 1478.06 215 212 205
88.0015 -26.267 1365.88 94 46 32
462.581 174.475 2427.79 65 60 57
-22.0297 375.842 1290.06 240 221 215
162.027 453.065 1493.17 71 73 73
-54.1269 78.2799 1212.12 143 114 102
43.8349 29.8101 1174.54 93 54 56
601.887 -51.9015 1942.53 250 242 241
88.9757 156.587 1376.1 113 78 58
93.4855 -21.653 1299.5 71 7 6
-76.4437 185.389 1339.86 25 10 6
26.2042 -27.2225 1142.33 127 113 96
-57.0991 60.2929 1210.73 254 249 254
-74.9001 57.1159 1206.63 251 186 170
12.6207 -18.2685 1283.06 255 248 225
-74.2826 48.9426 1151.21 89 21 5
576.559 -37.6702 1836.7 101 91 88
164.989 211.709 1516.74 116 85 66
574.485 284.808 2152.24 22 54 60
-68.9995 81.0331 1208.93 171 72 58
116.209 202.102 1460.65 134 128 122
44.9712 -48.7835 1382.33 200 184 169
625.503 10.3925 1955.45 229 217 217
687.082 -11.8871 2048.39 234 227 223
85.3226 115.679 1373.41 178 133 113
-68.9943 75.0684 1208.69 247 173 150
615.274 10.3822 1953.8 137 126 126
-77.095 43.233 1150.39 244 152 128
-15.6824 318.584 1290.17 130 100 102
-20.984 269.494 1225.41 232 221 209
53.4702 341.861 1350.85 235 232 215
691.692 215.55 2152.25 41 39 35
29.3317 272.664 1298.59 124 99 95
-69.3627 654.344 1888.5 177 173 163
81.8195 105.415 1372.16 240 215 192
92.3789 143.045 1376.19 245 223 196
718.748 297.983 2318.38 43 74 90
639.355 82.9813 1967.59 239 240 216
-36.0582 75.6512 1193.65 140 136 138
38.711 395.947 1389.07 242 228 216
-43.391 303.842 1352.3 160 158 150
19.6377 276.313 1339.92 252 236 221
-71.4895 83.131 1153.04 202 111 78
564.399 -9.1368 1640.19 133 109 105
30.9462 331.435 1369.94 128 115 107
-63.0561 75.1418 1210.02 248 224 191
-77.7096 33.7104 1165.18 240 184 150
-56.9276 202.064 1277.44 102 76 76
-19.3154 48.4426 1252.85 111 106 91
471.189 -264.225 1885.66 58 63 72
-17.4937 425.971 1438.63 248 253 255
647.019 -66.6689 1824.52 255 249 238
71.5367 118.782 1370.64 110 59 31
-16.8638 291.19 1332.55 137 91 75
-63.0788 114.085 1211.52 214 144 148
95.0348 -30.4936 1332.8 174 77 51
721.319 -43.8933 2257.71 247 232 236
-2.8039 492.043 1461.21 194 173 163
82.1066 170.06 1375.25 152 133 121
81.8984 122.415 1373.01 226 192 166
-16.7746 381.27 1337.27 177 169 165
-81.1161 513.636 1480.2 30 28 22
675.895 297.645 2169.07 92 116 124
85.7105 204.277 1377.43 136 127 117
-28.4929 285.922 1264.96 146 147 143
-25.4038 223.085 1262.39 241 208 182
-1521.7 -28.0689 2151.43 170 196 186
629.368 -13.6585 1952.6 255 249 247
100.155 178.714 1350.69 232 230 220
606.338 345.877 2169.93 67 98 96
528.87 -119.441 1711.87 138 119 115
23.0176 289.842 1341.44 163 145 138
62.5223 114.37 1338.31 244 212 178
641.167 -161.264 1931.22 233 231 228
64.2907 390.799 1466.44 242 236 212
20.8098 405.616 1369.52 82 78 73
88.8482 129.367 1374.81 250 234 208
35.0189 380.556 1421.28 225 209 194
48.0637 318.713 1373.29 156 117 111
-41.176 174.079 1280 149 108 99
-105.48 452.967 1357.81 129 114 106
409.739 -220.488 1678.03 95 99 90
561.594 -171.352 1458.16 239 241 227
-33.3609 324.567 1355.29 126 119 125
665.896 313.947 2171.4 123 141 137
-6.46086 319.277 1361.28 225 227 218
61.1686 105.029 1367.73 253 236 217
-10.3121 483.754 1441.73 74 42 32
-81.922 189.575 1310.89 218 189 179
529.624 -104.461 1817.34 176 152 145
598.621 -61.3708 1802.11 242 226 207
35.2995 480.376 1426.44 113 92 76
39.8601 310.819 1346.29 196 164 144
69.0117 -52.808 1316.2 173 148 129
89.3149 91.5899 1342.03 181 127 103
71.6369 142.535 1371.79 227 183 163
6.4748 108.466 1287.92 255 239 219
28.1548 469.123 1424.3 149 144 141
-38.0389 50.799 1275.41 255 255 242
88.0429 -19.5222 1366.32 255 242 236
41.0557 253.735 1369.71 250 253 251
150.656 40.9874 1419.68 251 229 219
-12.0749 57.7875 1220.38 250 243 244
71.5942 132.349 1371.31 154 118 93
615.356 -87.2189 1830.73 247 221 206
-25.2896 152.829 1301.04 142 108 95
-56.9181 153.977 1140.51 179 184 180
604.817 5.56239 1951.41 172 164 160
531.133 0.86158 1724.95 166 148 143
565.091 -185.195 1795.71 148 141 129
-16.8333 321.178 1334.21 185 157 157
79.8523 191.569 1347.45 251 236 230
604.499 90.4583 1865.09 127 131 111
-36.1769 54.5187 1215.08 164 158 163
99.3725 348.584 1433.58 243 239 220
144.098 48.4859 1381.8 190 134 106
150.738 -88.7579 1449.11 243 230 213
148.368 43.847 1458.41 255 247 224
105.292 230.711 1459.61 158 141 129
169.254 84.7342 1550.33 255 246 232
154.95 35.6884 1496.86 254 234 210
104.813 140.371 1455.04 187 149 116
24.5397 90.7284 1382.32 240 245 236
92.2107 358.956 1432.66 244 243 219
717.861 409.177 2333.4 188 216 233
-40.2146 231.834 1370.37 204 197 160
-18.8564 136.9 1302.17 180 142 138
-133.305 39.0924 1192.34 169 143 130
614.607 -48.6196 1822.26 254 248 249
-43.1995 161.41 1174.65 166 132 120
-55.4559 180.754 1282.72 195 170 158
76.3818 178.06 1345.81 255 251 229
542.317 -107.805 1695.32 209 192 198
144.153 55.3158 1382.2 255 238 215
686.687 396.458 2325.98 81 109 121
169.098 69.3886 1549.18 255 222 212
755.971 -366.781 2176.54 192 217 208
771.035 363.67 2336.86 154 173 175
676.125 -115.686 2195.71 195 158 153
603.371 -23.2315 1947.02 130 118 110
-169.866 28.399 1242.52 153 132 120
-83.8974 124.706 1243.26 108 69 53
523.112 -317.074 2015.27 190 151 135
-115.713 93.7245 1259.15 139 111 108
688.831 -47.465 1956.59 227 196 192
-23.7081 -33.2319 1307.85 85 62 47
-33.1304 181.124 1220.38 214 194 160
427.165 -102.506 1400.31 40 14 6
3.51707 14.4324 1240.06 255 240 212
19.8299 436.34 1299.88 255 251 250
-69.0243 110.971 1210.08 222 188 176
119.168 28.5721 1245.21 181 133 109
116.418 24.8297 1209.48 255 227 205
9.92713 13.8573 1351.42 205 144 117
900.501 -155.103 2258.51 236 245 233
-6.84565 361.814 1338.59 168 158 161
59.0235 77.6576 1360.56 172 159 160
-1357.83 -36.7743 1925.27 156 172 161
-18.5743 84.395 1170.96 255 249 247
27.7109 267.777 1608.73 198 160 144
-80.0879 172.198 1189.27 175 141 131
0.345792 319.46 1293.64 255 247 238
668.043 -115.834 1820.53 255 254 235
675.787 76.901 1870.42 245 241 213
-5.94308 -47.7218 1398.32 140 144 152
803.416 -274.251 2066.83 203 203 184
827.644 90.3493 2139.27 249 250 223
-12.5344 257.994 1289.2 180 133 108
-56.9414 278.227 1279.91 93 67 63
-25.3009 241.469 1285.88 188 164 133
51.0323 92.3096 1239.04 207 163 157
6.38589 57.5988 1285.58 255 245 236
26.878 339.564 1279.15 245 224 203
-10.2651 -42.4226 1343.4 62 67 44
608.163 427.032 2046.62 121 137 131
3.69259 37.5536 1304.89 252 239 224
-82.7013 23.3862 1148.43 151 115 84
-103.037 92.2912 1179.72 84 43 33
589.117 434.363 2184.89 76 88 85
-69.0359 125.95 1210.63 151 93 72
716.883 -66.5134 2096.4 223 197 201
-2.85677 398.32 1461.02 244 229 220
752.16 -167.082 1945.61 174 176 152
668.06 206.831 2014.94 210 218 211
508.303 -66.3724 1706.88 185 141 122
69.0233 427.144 1357.66 200 199 178
74.6335 454.575 1433.99 138 130 110
11.2261 499.776 1447 106 80 69
13.8609 -15.6177 1320.84 244 219 195
19.7313 313.134 1342.01 198 177 171
134.488 166.372 1462.78 198 173 148
-22.8799 242.551 1167.74 207 175 140
735.616 342.946 2186.21 166 186 190
-6.32855 95.5156 1284.56 255 238 214
784.352 -168.592 2050.92 253 254 228
736.24 44.9476 2113.68 251 244 215
36.3211 271.937 1376.54 194 137 134
195.442 178.562 1519.75 252 236 211
573.181 234.413 1973.92 94 120 116
46.3333 240.667 1343.59 206 193 176
421.393 -263.625 1652.34 98 92 83
-166.045 234.229 1393.31 87 41 9
