-10.4472 381.314 1220.11 251 236 215
24.3181 378.722 1256.52 255 251 245
403.892 314.678 1686.46 37 69 71
29.1704 384.124 1228.75 242 237 234
-16.153 369.708 1247.23 248 251 250
248.867 145.388 1818.15 12 9 2
-51.2483 74.3804 1069.14 115 35 5
67.4191 435.818 1292.21 142 156 167
470.979 -212.343 1776.58 190 193 183
494.795 -142.257 1805.24 255 247 242
-16.6888 212.669 1202.84 248 235 199
-51.6415 47.4141 1088.22 253 186 161
-18.2918 346.883 1189.54 200 178 170
30.5283 360.198 1256.61 251 248 235
450.912 256.838 1775.11 33 61 72
-56.6517 163.874 1194.42 35 7 8
0.12782 446.982 1218.38 195 191 177
81.2 -22.5679 1267.97 127 83 61
50.9208 325.452 1284.42 233 232 218
3.14609 389.567 1277.21 136 114 102
-112.123 466.838 1358.13 215 216 202
549.096 7.30383 1942.48 253 249 246
69.8166 95.8819 1243.16 239 214 198
-9.55957 258.104 1185.84 127 106 82
-39.1889 48.3406 1046.24 133 104 81
-46.5629 65.9478 1107.05 248 197 190
-31.4898 254.524 1130.39 153 147 145
79.4062 111.63 1341.84 161 123 104
-3.67257 427.157 1253.49 185 175 167
-36.1269 69.1817 1215.83 98 81 76
-418.054 -140.757 744.651 166 160 151
21.2848 413.276 1258.01 106 104 102
14.5737 328.167 1095.93 48 40 40
468.436 261.366 1822.83 105 132 146
-52.5977 25.5905 1014.18 244 216 191
-62.8938 17.3325 1152.5 96 73 50
70.2522 154.875 1248.64 147 119 109
66.1159 121.941 1275.87 117 84 61
-15.5513 139.711 1176.07 132 90 63
-5.95603 63.6155 1222.02 145 120 117
34.9629 275.223 1196.05 171 143 144
454.237 -50.6846 1795.96 248 223 206
5.36192 283.342 1245.92 136 107 112
-37.0685 251.374 1129.05 204 196 188
89.2821 174.287 1253.95 165 161 156
60.9467 438.533 1290.99 33 33 46
-51.6357 42.0266 1087.95 228 152 121
73.9035 433.234 1293.4 39 46 54
91.2074 171.999 1308.41 250 248 239
32.1067 421.296 1322.46 58 55 49
-10.2568 120.607 1145.38 110 72 66
425.96 -94.7812 1609.84 166 146 139
427.562 19.4119 1720.37 180 168 157
44.7925 302.539 1316.1 118 116 118
399.188 206.938 2238.3 214 216 197
23.1932 328.52 1197.08 169 150 147
70.474 186.128 1251.41 140 123 112
20.8031 255.913 1247.11 233 199 187
-15.354 338.134 1189.65 138 133 130
-93.9454 451.92 1295.13 175 174 165
-125.26 458.763 1354.08 144 136 127
-56.635 154.126 1072.94 208 179 173
-24.2137 284.023 1184.44 103 107 111
-39.8123 155.643 1122.44 140 116 101
-105.523 470.949 1360.13 89 90 81
49.6482 590.691 1370.48 187 201 194
11.449 220.396 1084.76 121 80 73
-22.1424 64.1762 1074.18 125 124 121
24.4508 422.988 1259.26 112 99 100
-150.963 24.9304 1164.7 156 133 116
53.9166 104.139 1213.86 240 221 207
-8.13477 36.2257 1113.63 172 172 157
27.1982 303.275 1251.98 132 104 102
518.954 -251.591 1661.72 184 214 211
53.5909 32.1515 1209.13 140 99 90
41.1908 -42.2058 1201.56 143 132 130
366.257 -222.731 1770.1 106 108 104
83.17 136.388 1308.47 255 234 211
468.913 -33.1259 1800.78 201 183 184
450.943 -88.1122 1634.19 127 122 115
541.853 -144.18 1918.22 255 252 249
509.87 -124.852 1810.82 253 252 250
10.4683 274.871 1214.75 246 251 250
117.814 175.2 1259.26 145 128 121
421.148 170.212 1578.94 62 59 52
-67.5766 167.347 1167 217 185 175
-25.3431 463.456 1250.96 128 121 111
485.848 22.8884 1837.04 128 114 112
42.284 238.022 1300.77 187 149 137
64.8374 138.814 1301.77 157 115 101
51.6293 349.365 1321.32 228 222 196
-53.0207 439.479 1243.34 191 188 171
446.891 -90.9867 1613.23 193 194 199
-41.1335 135.271 989.802 192 191 191
519.065 -43.9207 1713.44 158 145 134
407.103 220.621 1749.48 65 92 103
-159.395 455.142 1416.82 152 141 123
392.384 -73.0493 1610.69 149 128 108
86.3866 468.715 1405.14 86 99 100
-10.0536 307.436 1244.36 189 155 154
489.473 -42.0723 1721.09 244 229 211
74.8098 184.394 1305.58 239 222 211
511.679 -42.0479 1723.95 231 219 212
401.293 17.844 1549.71 170 163 157
24.4873 124.748 1259.68 93 65 39
363.196 -304.788 2091.22 211 218 204
-261.611 -111.112 683.099 133 139 134
90.5274 132.879 1373.61 175 138 108
495.334 22.9529 1838.41 190 179 174
992.851 -367.614 1474.74 102 101 100
-95.6648 82.6683 1128.85 154 138 123
-21.1695 173.959 1202.63 253 246 220
432.794 -17.5565 1626.59 147 145 144
-6.10976 255.203 1291.05 156 110 83
539.923 -24.2264 1813.94 248 223 210
546.765 9.39765 1842.74 253 243 236
-373.649 -209.445 956.085 150 150 140
80.0138 199.031 1254.35 177 162 151
-67.4552 115.108 1163.15 108 60 50
26.5857 79.4536 1206.95 253 251 245
20.3756 -19.4842 1167.95 225 201 184
-524.49 -244.257 1175.61 149 148 135
427.767 166.434 1581 121 113 94
405.268 -54.3197 1536.63 134 87 73
595.757 93.8477 1845.72 255 255 234
4.83999 426.15 1227.25 101 87 72
-172.911 47.8005 1133.56 86 20 10
399.331 224.33 1761.81 73 104 109
-14.5676 41.2948 1143.59 255 255 242
-53.957 32.5065 1135.05 187 110 75
11.163 95.8299 1151.71 248 238 220
96.2863 412.599 1362.38 124 110 98
451.192 402.381 1906.71 121 132 135
525.508 -26.9036 1832.82 242 233 238
-15.3016 390.484 1194.28 151 125 107
453.598 -50.392 1714.75 215 196 184
-27.1818 157.018 1174.96 178 136 124
546.849 -117.797 1714.3 255 253 221
-134.539 418.822 1282.76 34 20 4
60.6931 129.783 1244.56 255 243 222
-12.3296 401.254 1193.91 59 37 21
566.328 92.2303 1861.07 251 249 226
5.57772 323.369 1309.35 255 237 222
529.49 -19.1448 1949.34 228 222 223
-80.0173 151.365 1188.53 74 37 13
551.949 7.58031 2081.52 84 70 60
85.969 155.366 1251.65 186 155 140
6.49351 85.5913 1057.19 197 141 124
-1.42928 61.8268 1053.79 255 246 238
580.914 345.819 2015.33 165 172 170
-24.2547 204.162 1179.02 185 167 139
2.60004 87.9229 1202.64 255 240 226
118.014 194.138 1260.98 255 252 224
-642.756 -150.052 1174.43 152 156 150
563.406 -94.063 1823.76 253 251 216
44.7872 26.7289 1100.84 195 155 145
-48.0634 116.347 1118.08 209 163 150
-153.294 208.406 1231.77 75 22 1
-28.843 391.766 1066.37 46 34 18
335.548 -230.963 1870.6 101 106 99
431.644 -52.208 1703.96 209 155 132
429.315 265.213 2085.61 68 89 89
-56.1412 196.969 1171.64 214 174 137
30.4281 331.831 1254.66 195 158 147
80.8374 -68.8539 1228.66 105 70 61
586.797 -301.232 2002.1 230 250 246
460.944 -59.3811 1620.06 234 204 182
517.037 -69.0361 1707.11 185 159 143
-51.3211 242.231 1146.01 93 59 54
17.0885 277.283 1192.6 186 151 143
9.19783 31.7305 1095.15 255 238 217
147.815 57.5229 1515.53 255 249 212
-366.58 -207.522 931.004 17 7 5
-28.7045 18.6643 1139.44 241 208 194
49.8846 67.5981 1177.24 172 168 160
-53.3105 241.074 1175.33 195 182 179
-48.7449 123.408 1159.47 195 177 171
10.9308 -17.6819 1145.06 182 155 129
19.2283 41.6255 1287.65 255 242 209
375.278 246.164 1861.46 128 139 156
128.843 85.7285 1311.56 216 165 141
390.334 260.665 1866.95 64 86 85
-15.6012 84.1808 1171.71 183 199 190
414.307 -249.739 1761.16 136 128 126
11.3787 116.819 1120.01 180 105 85
54.2574 28.8188 1196.23 255 246 240
514.679 308.038 1889.7 167 185 182
16.1259 8.78886 1070.4 194 124 92
290.698 -204.985 1662.48 68 75 66
593.575 -129.685 1819.55 164 166 143
39.462 244.281 1250.05 241 223 217
383.672 -230.853 1672.38 233 210 204
504.773 53.9627 1735.95 240 231 211
5.71029 443.326 1256.32 140 126 108
467.063 -86.9769 1689.2 191 182 159
148.777 213.807 1391.06 194 161 138
81.4426 358.792 1431.06 242 246 224
1.29532 -48.9991 1333.62 35 57 63
460.231 12.5685 2064.18 111 93 72
43.0211 96.109 1314.97 210 167 151
381.816 -258.124 1819 213 180 169
531.759 -76.2171 1823.65 227 216 188
521.925 291.807 1890.32 169 191 187
439.762 -234.512 1536.97 183 210 208
-25.6573 16.2426 1179.86 184 169 145
14.4976 52.3976 1202.81 255 230 235
106.88 613.011 1495.58 146 169 152
119.773 69.4577 1249.61 240 214 195
42.1967 227.917 1270.62 212 187 176
137.478 93.6847 1383.2 255 244 206
63.2484 49.6825 1237.49 179 159 145
103.854 288.897 1289.58 181 183 171
166.119 235.778 1511.28 255 243 227
-6.86396 93.1391 1174.2 212 167 149
-55.1678 177.082 1067.18 88 51 24
-18.8536 34.2938 1009.2 225 153 130
431.958 14.7431 1997.44 57 48 34
402.098 347.287 1995.82 75 93 90
-16.5459 -32.5273 1214.05 115 100 80
