290.629 -75.4054 1684.45 249 243 229
1.84908 386.603 1122.59 242 238 238
310.173 30.4242 1897.33 194 191 185
-23.8328 81.2705 1032.79 243 169 146
4.68365 403.91 1124.25 236 217 183
-23.8408 71.0216 1032.21 249 192 172
4.75133 432.566 1125.96 26 2 2
-23.6302 76.0086 1065.06 104 20 7
278.561 53.438 1620.68 255 248 244
10.4513 470.777 1129.08 227 223 212
-11.2543 295.782 1089.48 34 24 23
-0.464872 401.512 1195.7 229 223 214
78.4923 461.708 1271.66 28 29 28
10.3668 435.874 1127.29 206 200 177
311.759 17.6161 1806.6 123 87 79
285.597 73.577 1713.01 104 90 87
28.1957 394.398 1149.3 235 221 215
-30.1427 193.874 1098.95 50 25 12
24.9914 279.254 1142.89 255 246 238
17.3279 311.301 1162.14 118 92 93
-24.2922 62.4091 961.241 255 226 204
28.0971 359.756 1147.7 187 158 146
91.8174 -14.2273 1333.71 162 131 106
-22.6258 105.681 1022.76 147 72 52
91.7595 -20.792 1333.12 235 219 202
-0.80531 103.829 1080.87 142 143 128
7.23389 93.2585 1081.7 147 129 121
280.691 -44.2235 1686.84 200 187 190
360.109 -213.396 1878.63 181 204 201
335.666 68.2847 1907.71 233 218 216
2.86488 298.962 1158.87 121 100 80
28.3101 437.837 1151.1 89 63 53
304.434 -57.807 1791.61 137 116 110
1.02401 442.979 1195.8 206 208 193
-16.0111 205.302 1040.89 98 75 65
2.13565 221.659 1045.11 251 233 203
-73.1642 121.963 1087.24 159 154 151
4.81442 461.509 1127.5 104 84 61
60.3107 182.197 1219.36 201 176 162
56.102 170.74 1162.9 123 97 80
-13.4631 179.452 1040.08 243 236 240
70.6386 216.851 1253.71 163 150 147
22.2344 310.646 1144.05 152 112 114
251.572 70.8444 1699.63 143 141 136
270.717 11.0684 1589.9 156 123 105
-16.7676 192.344 1083.06 133 92 74
-14.1501 141.123 1080.62 151 87 61
247.371 -19.2729 1687.13 158 137 127
-23.6874 272.638 1042.53 152 129 123
58.6243 218.602 1196.48 159 143 129
6.78526 167.908 1107.07 86 44 38
10.4437 159.25 1132.7 195 155 142
-27.7886 51.0082 991.212 156 119 85
-0.790821 461.053 1126.33 172 149 130
-10.6722 107.045 1127.46 174 139 113
1.81858 77.09 1079.65 254 253 246
-67.3669 268.375 1076.73 149 142 119
-20.3448 139.894 997.106 193 143 136
-86.924 72.8224 1019.98 128 105 102
5.96699 492.547 1320.25 129 119 113
29.1385 416.514 1167.38 230 213 211
-164.481 90.7879 1065.81 62 16 1
-13.5747 94.2718 1035.45 151 130 119
70.4806 194.858 1251.89 166 147 130
-19.5357 108.826 1077.61 173 98 80
-64.75 292.805 1078.45 142 132 117
147.064 270.066 1556.48 137 153 144
17.858 256.285 1049.66 251 225 215
37.6585 568.172 1188.43 94 107 99
122.797 220.101 1389.15 32 42 46
-143.49 264.661 1105.81 49 7 0
13.8218 367.482 1145.25 171 169 169
282.272 -6.73987 1695.28 125 90 69
-14.4414 483.999 1144.09 123 122 109
261.054 1.59815 1693.81 186 135 115
-22.108 216.482 1083.33 183 149 126
345.872 -33.4678 1788.23 255 251 225
5.34889 170.314 1104.97 170 147 127
29.823 368.553 1126.98 227 223 212
400.435 79.9823 2216.41 115 96 88
61.6989 230.699 1197.92 191 174 161
12.6932 117.518 1084.26 253 216 214
6.35898 312.8 1092.82 167 127 126
1.46613 188.052 1024.19 254 213 186
-31.4611 155.638 1035.41 220 196 184
41.8021 127.28 1212.75 255 243 243
-27.8939 46.4843 950.922 240 214 192
-9.60802 239.807 1184.26 245 215 190
-65.304 130.547 1137.75 78 44 37
26.5293 448.829 1203.51 149 141 136
8.58838 273.263 1159.09 187 152 123
18.1461 485.516 1217.03 170 156 135
-56.7064 180.243 1074.33 82 39 23
42.5819 340.943 1175.52 203 198 175
-17.1932 120.839 1165.77 255 249 234
35.1716 334.626 1199.36 114 92 80
-40.811 202.314 1078.79 179 154 133
72.3072 416.038 1166.15 166 165 165
60.7202 144.643 1245.73 197 155 126
-9.32352 102.658 1124.97 254 245 245
52.2027 143.903 1189.71 169 131 104
86.5786 236.299 1258.34 255 248 218
280.147 -132.671 1673.09 51 44 39
5.93327 246.353 1121.71 207 167 141
-8.32339 321.268 1172.16 178 163 174
94.104 90.5357 1305.38 203 178 155
-37.22 156.796 1144.92 99 43 36
329.143 -13.6314 1804.22 240 213 187
8.15963 68.5087 1070.8 229 227 228
-6.73335 204.383 1182.45 189 137 120
43.9549 135.522 1110.71 248 228 205
289.932 57.8596 1809.39 55 35 25
