-34.6137 356.964 1240.98 250 249 250
-28.5207 362.401 1213.23 227 220 224
-34.524 319.019 1208.17 96 75 74
69.7987 105.456 1243.7 61 34 19
-80.1988 350.734 1230.12 211 215 214
18.1907 -38.293 1119.68 75 17 12
-101.624 140.635 1156.92 64 28 20
-30.2219 -42.238 1158.54 97 83 65
441.197 -224.137 1507.06 207 209 204
30.5494 -33.978 1170.8 58 0 0
14.1271 126.074 1234.53 83 42 32
-10.0685 299.093 1242.63 253 255 241
460.095 -50.4697 1542.35 51 48 50
-18.4627 -47.5938 1189.67 255 244 238
477.193 -88.5694 1615.04 251 236 229
95.9635 385.935 1357.65 37 38 39
16.4172 82.1384 1177.73 111 66 41
590.198 274.164 1752.1 65 73 72
-28.4896 332.372 1240.79 249 235 227
-84.7895 190.585 1164.16 236 223 181
460.569 -162.338 1520.61 189 183 177
-26.7708 355.724 1303.1 225 218 206
-73.1463 359.234 1202.81 229 214 194
86.6609 166.71 1311.51 88 56 45
-56.2908 342.096 1179.85 255 245 227
-39.8247 -38.0159 1108.86 222 188 178
472.137 -162.441 1521.45 250 246 238
47.3672 449.463 1420.02 160 166 175
369.182 -309.945 1718.59 235 230 224
-98.4746 54.4677 1151.51 104 95 89
-62.1478 436.169 1239.34 245 242 234
27.5217 119.753 1295.12 255 240 222
4.77665 108.314 1177.46 255 247 230
7.67115 96.6245 1177.14 122 75 58
499.76 193.185 1653.12 230 255 255
42.1012 157.676 1242.84 132 120 106
522.808 -29.0445 1631.43 240 228 229
589.341 332.255 2009.46 208 241 247
23.26 101.658 1234.29 254 240 215
-3.86908 311.955 1244.85 255 253 233
-98.4067 37.3448 1150.27 137 84 93
320.772 102.751 1818.02 49 46 36
426.907 -58.8373 1460.68 85 67 62
17.2509 138.465 1236.22 139 122 99
516.82 295.446 1788.84 134 174 190
-115.702 145.984 1154.01 119 85 79
-113.602 38.2326 1071.43 188 183 170
-131.61 35.1699 1094.42 193 150 135
411.148 135.676 1838.23 216 216 207
-113.431 134.016 1104.73 241 249 247
15.6945 93.8944 1196.43 246 232 207
473.618 282.612 1674.74 62 108 101
510.223 -25.5865 1527.41 241 213 217
-108.478 54.2814 1073.82 168 108 82
-83.1879 341.259 1228.82 234 210 209
29.3394 -43.8322 1121.22 52 2 1
-129.121 65.0845 1096.88 212 137 113
454.833 -230.634 1538.37 183 193 193
-71.1518 354.489 1232.47 88 77 70
-131.595 372.602 1157.22 156 147 136
-120.444 56.9647 1074.12 239 173 158
-131.276 12.6328 1048.7 220 180 164
591.012 -273.738 1579.83 217 242 220
457.799 -147.894 1450.88 253 240 243
93.7799 0.815998 1238.18 249 244 217
-40.2244 355.814 1177.04 97 91 84
33.6728 410.094 1286.74 172 180 181
19.6539 161.699 1184.4 116 99 90
466.213 -73.4722 1464.82 255 220 189
584.502 -80.8612 1707.54 236 221 216
-116.775 51.762 1030.32 247 204 188
534.567 160.362 1761.8 77 74 67
486.338 -91.566 1711.53 226 197 173
476.634 -96.414 1613.3 94 65 61
-37.6885 244.784 1232.73 228 216 209
530.44 227.549 1776.11 91 120 124
-66.1863 365.702 1395.48 135 111 107
-125.075 470.548 1425.65 177 171 162
595.658 -266.26 1581.66 77 102 80
-62.1012 353.563 1179.19 171 163 144
481.128 -144.104 1525.73 255 244 244
40.6553 150.488 1272.04 247 239 239
577.13 219.229 1872.48 211 239 241
-37.5087 380.224 1212.71 146 144 141
447.264 -129.034 1526.06 212 191 181
529.747 -13.4356 1720.88 129 120 117
-118.857 80.5893 1055.26 244 217 203
448.268 -123.196 1454.56 252 250 253
-38.61 430.994 1405.76 232 231 227
497.376 -37.0086 1627.77 236 221 220
447.847 -58.0011 1539.82 180 172 171
547.128 -282.482 1501.46 201 234 236
494.429 278.332 1751.09 71 113 117
-90.6859 263.396 1167.48 104 94 93
-77.1428 329.275 1229.47 247 245 247
-99.1775 248.339 1164.58 108 103 106
-86.771 237.409 1065.79 206 205 200
-109.037 177.578 1182.65 255 252 227
602.612 255.159 1988.9 106 133 141
411.229 -288.849 1645.58 196 152 144
-101.851 201.531 1160.97 168 143 122
471.025 -121.797 1529.38 117 112 110
-29.9977 400.848 1234.48 67 51 37
17.3208 156.999 1237.77 243 230 208
-53.1733 83.8911 1163.64 254 230 213
-66.3729 397.975 1225.79 199 178 161
485.902 -19.7993 1723.93 118 109 98
-48.625 234.555 1251.02 76 47 32
590.063 -62.6308 1728.9 246 221 218
68.5412 28.9204 1157.55 222 169 141
-41.7252 224.548 1175.97 219 193 187
504.944 202.218 1729.31 118 133 140
-149.128 461.08 1418.23 139 138 129
518.628 -99.3942 1596.2 235 211 188
-219.472 6.60133 1169.79 167 143 132
-53.5295 19.344 1110.19 254 240 229
12.9257 141.763 1201 254 240 216
-81.604 66.1354 1156.14 222 236 223
558.915 -22.0592 1951.43 185 172 159
-281.476 -124.954 712.344 139 145 139
399.209 -104.687 1351.13 140 126 128
16.9907 396.574 1225.89 216 220 227
-33.1483 321.361 1263.52 219 203 194
-128.79 22.9839 1049.84 213 140 117
-80.0348 276.653 1225.27 167 141 143
-84.7503 119.316 1132.75 142 120 108
30.3409 386.953 1283.86 115 99 83
-55.9254 -2.40869 1156.48 167 121 91
63.3758 133.429 1303.73 180 145 124
-61.6132 0.38272 1155.51 255 239 212
-112.923 151.823 1155.07 244 212 189
527.898 -144.667 1384.18 174 178 147
97.3282 8.9221 1273.52 247 237 215
461.225 -100.926 1528.32 238 228 226
-101.83 195.702 1160.59 255 248 238
-44.3424 324.948 1155.56 193 190 185
-77.8865 281.888 1209.1 147 95 84
-135.434 469.525 1422.76 137 136 124
-47.2763 -32.1746 983.309 198 165 141
-137.242 94.9693 1096.88 86 37 33
-78.2091 104.456 1110.68 178 153 149
-16.7921 168.001 1197.66 191 163 157
-38.813 60.9739 1164.95 255 255 236
507.687 48.005 1646.66 182 177 151
55.4167 86.8519 1081.96 205 170 150
72.1665 17.217 1293.54 251 241 222
657.703 -213.337 1706.12 244 249 224
23.5237 302.012 1273.95 239 236 216
-82.0694 243.397 1168.19 226 223 211
61.9503 2.7221 1096.33 248 228 220
-50.0119 298.347 1152.24 202 121 118
559.649 -118.037 1697 230 217 191
-86.6453 133.014 1270.76 221 166 144
477.497 -238.367 1435.86 163 153 143
500.646 238.917 1976.08 67 94 100
-4.5259 15.9556 1221.08 189 136 111
-50.2276 -5.24359 1157.45 255 231 210
-88.571 246.027 1153.93 173 176 169
35.7928 138.918 1240 158 123 94
31.7526 127.201 1164.42 254 253 232
77.3246 -96.733 1261.35 245 231 212
502.911 39.8786 1644.54 146 134 109
108.694 68.9183 1305.82 254 242 222
456.464 -106.746 1531.15 210 188 184
455.46 -138.113 1522.26 164 138 127
349.167 -233.513 1497.11 68 71 87
34.3708 191.387 1303.25 160 132 128
-82.0956 211.073 1106.55 255 244 216
467.343 -55.5154 1468.08 229 218 221
-21.1575 219.621 1204.23 246 225 211
-60.056 282.905 1213.35 248 229 205
639.14 -350.76 1879.59 197 229 218
-53.3244 250.616 1175.1 232 217 221
14.4534 64.7616 1203.43 255 235 223
-41.7368 381.737 1185.18 249 244 236
23.0995 393.848 1226.95 150 154 159
49.4159 546.302 1364.11 119 142 129
31.5737 289.854 1311.06 221 220 208
514.36 143.29 1666.72 93 80 63
-62.3671 1.2444 1083.83 192 138 108
-30.1723 66.9216 1167.2 255 238 243
84.7757 52.1821 1256.37 255 239 204
-61.2876 268.703 1147.36 247 235 220
612.206 -217.098 1593.38 208 227 202
535.299 -71.1609 1626.91 246 229 222
-118.903 91.1501 1055.84 89 26 10
-142.293 465.257 1420.51 61 60 48
42.2212 -4.01987 874.977 213 120 86
-59.2522 239.28 1122.9 161 138 148
601.153 -130.428 1695.68 251 247 233
597.599 -159.401 1606.24 224 227 192
-6.99739 67.221 1171.94 157 114 107
555.847 -64.0836 1710.21 254 238 239
25.0414 292.85 1309.89 166 170 155
-73.0346 37.5947 1155.89 255 246 242
-53.5438 33.0696 1111.13 245 255 255
-78.4083 193.549 1116.11 230 201 183
530.067 185.575 1676.5 140 165 170
-57.3561 244.642 1160.85 186 171 174
-36.9281 90.4318 1091.7 253 237 229
-69.9245 46.7356 1108.66 254 246 241
-44.5201 -8.08029 1158.4 218 160 132
-40.7336 272.53 1234.02 172 167 162
587.603 -156.447 1556.01 133 135 105
39.1296 -93.01 1275.33 94 69 41
-129.656 142.621 1150.49 86 64 65
653.009 -84.3639 1834.68 145 126 117
629.059 -167.278 1605.4 253 255 238
-71.9356 54.4954 1207.13 255 247 249
-75.7095 44.0434 1083.09 175 165 158
76.6134 174.217 1250.95 234 218 193
515.81 372.697 2013.41 66 78 73
625.053 48.3452 1654.7 255 255 226
-22.6821 203.995 1200.01 249 235 226
-63.0072 327.917 1270.71 188 108 117
49.414 362.363 1259.31 132 113 101
81.9978 29.9591 1417.51 189 146 117
63.0775 540.52 1366.53 134 164 151
-22.2701 218.005 1262.43 180 98 103
123.014 141.231 1331.49 242 217 188
-39.1156 86.1652 1030 171 148 120
-73.1779 345.575 1125.43 127 117 109
386.689 -249.808 1669.45 34 37 36
-90.369 155.43 1160.52 226 206 174
425.726 -17.3131 1456.95 159 143 132
-41.7639 226.144 1044.8 194 197 189
-113.817 101.822 1057.55 233 223 219
513.621 -16.3659 1553.31 129 103 91
401.386 -252.24 1498.45 163 137 118
1.5949 34.1949 1223.96 182 161 157
-25.3698 415.033 1244.87 220 215 204
-81.3183 -51.1885 1293.2 102 74 53
45.1998 390.274 1321.48 93 69 65
603.514 -224.699 1591.39 131 141 124
-19.4158 202.202 1233.59 178 160 153
-21.4977 72.8495 1169.44 210 159 141
588.797 62.7472 1894.82 137 129 108
579.285 -118.876 1880.7 151 109 93
660.864 -7.71371 1966.5 246 239 208
499.268 -107.014 1534.37 143 129 103
119.997 106.586 1349.05 255 243 220
13.3851 -68.0304 1216.78 210 191 173
583.18 48.2338 1652.31 254 253 234
90.6226 61.671 1206.29 215 171 121
102.699 75.0907 1326.61 191 160 136
10.7224 31.1564 1225.53 198 161 149
