-270.607 370.414 1151.97 24 21 19
-14.5838 336.316 1137.26 240 237 230
-202.05 124.734 1038.3 231 219 193
528.915 -187.718 926.536 202 204 199
-228.276 126.722 1076.36 32 10 9
-62.5863 341.73 1096.57 182 182 185
379.186 -96.4153 1003.42 252 247 245
-121.714 190.328 1106.16 40 22 19
-214.217 164.777 1056.67 253 246 229
-191.942 129.873 999.555 219 195 178
380.076 -222.733 1063.99 214 188 189
-230.183 315.467 1109.2 254 255 238
610.274 -62.8807 1043.72 56 63 45
515.884 7.05336 1089.92 248 238 233
-261.264 315.745 1100.63 94 82 81
-272.984 -7.7728 936.153 248 239 228
-246.763 -17.7347 979.561 255 247 233
-315.973 272.79 1081.38 88 71 62
-240.059 309.704 1132.98 249 254 240
-217.629 127.715 1011.63 238 228 209
-190.687 176.057 1110.69 255 251 240
-323.893 63.2663 962.956 62 69 57
-187.113 165.123 940.982 37 47 38
-206.836 175.67 1059.37 249 226 214
681.983 47.8041 1100.19 226 238 231
559.7 -217.465 989.715 228 228 224
-253.602 368.184 1123.64 251 252 243
460.558 33.0504 1101.97 212 190 187
-265.521 388.508 1154.95 247 245 242
614.634 -171.915 994.9 237 255 234
-117.006 175.098 1018.55 55 56 51
371.641 7.73208 1015.42 43 37 38
-231.237 108.495 1030.19 246 233 212
-247.3 40.3258 981.995 75 40 34
-211.678 101.314 1034.7 239 206 196
-93.0627 66.7945 997.367 251 245 213
-276.314 -9.35227 991.488 166 155 142
-248.617 363.147 1133.86 232 232 226
-235.985 308.258 1034.93 255 252 240
510.252 -86.3139 1078.96 249 249 236
-197.26 142.96 1040.43 82 47 26
410.905 -45.2521 1121.69 247 254 251
-89.5492 289.212 1118.93 92 73 62
-238.108 42.8739 984.387 84 45 38
-250.73 335.853 1082.33 213 213 210
-107.419 24.8333 991.721 254 252 236
-100.839 220.954 1021.46 210 198 188
387.095 14.408 1041.42 205 197 200
-112.527 330.975 1026.17 14 5 4
-368.071 154.659 1085.87 114 71 55
-208.709 527.668 1257.38 8 9 7
-201.172 130.998 954.537 239 201 184
673.22 -158.488 1108.46 238 251 242
-198.222 142.805 978.589 183 161 149
-247.515 49.6809 1022.98 255 243 234
-254.34 424.237 1178.66 93 95 89
689.824 351.045 1374.45 44 64 78
367.019 -34.6967 1010.2 101 91 90
541.288 246.502 1227.78 200 228 248
-333.822 48.4988 999.579 136 125 125
-93.1118 82.9486 1060.88 254 246 230
-83.0104 298.703 1097.88 108 88 66
-210.427 157.081 1057.43 105 81 61
502.239 -224.01 954.888 50 75 69
-263.95 313.556 1126.73 199 172 164
548.693 -200.982 957.329 213 217 209
-102.331 237.693 1062.25 65 52 41
-221.664 263.005 1107.42 137 120 116
-211.096 112.299 1053.65 133 63 37
-125.545 53.752 1028.88 255 239 220
-73.785 143.597 1103.39 251 241 231
-107.411 224.118 1059.85 70 57 53
480.5 -28.8295 1128.11 253 247 226
-220.489 519.661 1253.08 73 75 71
419.557 -90.3362 1033.36 228 220 219
-214.51 144.946 1036.29 130 94 85
674.584 183.371 1273.55 234 249 242
-72.4119 136.322 1068.27 98 76 55
-315.811 264.652 1080.76 120 97 107
-108.419 38.2407 1055.02 252 245 227
688.177 74.4211 1111.79 231 235 232
517.419 -164.954 997.39 195 184 184
-268.116 382.378 1153.69 98 101 96
-346.662 91.3177 912.12 237 241 238
-204.354 -5.56995 952.553 94 29 24
-113.617 182.64 978.625 245 241 221
-93.1277 88.2176 1061.18 254 245 225
-111.645 211.853 1063.87 121 106 93
-107.73 263.444 1163.48 204 193 183
402.005 -77.2792 995.893 246 249 245
405.771 -40.9357 1078.14 248 240 232
-280.04 295.452 1048.22 116 59 56
716.372 53.0559 1153.29 104 119 110
-347.169 136.626 1060.74 99 85 72
-380.113 59.7155 1001.48 233 240 238
-330.274 48.8924 960.571 141 122 128
-350.991 200.248 1064.71 254 250 240
-183.938 -3.23639 957.221 112 29 6
482.407 -93.2128 1036.26 234 226 212
-143.383 48.8522 1006.65 253 244 220
419.372 -101.627 1072.57 161 158 156
-302.65 288.044 1114.29 148 131 130
1295.41 -315.665 1724.7 46 50 49
-100.228 36.2521 913.653 252 234 212
514.659 34.0655 1092.8 79 49 40
550.245 -15.0002 1133.29 213 206 204
531.299 237.039 1225.93 156 181 208
733.802 82.205 1182.36 236 244 241
-42.6351 255.29 1127.26 247 233 220
513.35 36.2946 1117.94 255 246 245
-338.965 140.699 980.639 123 99 88
424.589 9.71472 1084.66 201 198 210
-325.133 193.549 1029.52 32 14 9
-187.229 127.748 1042.05 136 81 47
-335.289 60.9056 1021.01 251 228 225
-196.256 -12.0466 1010.68 122 35 11
-184.915 147.511 1002.03 81 59 45
506.802 -6.40189 1087.98 176 162 159
635.242 -44.9402 1046.32 228 244 229
-249.157 207.785 1030.77 249 230 226
-297.081 362.014 1143.48 143 128 116
-233.767 74.6414 986.911 164 144 138
-237.239 47.8696 963.368 143 110 100
426.529 -249.937 1103.05 179 152 142
-354.215 55.5625 994.043 140 142 146
-56.7112 225.338 1196.74 247 241 222
470.94 31.3449 1010.24 192 169 161
-165.833 168.197 1007.4 110 102 84
-143.272 389.223 1205.6 136 137 124
414.1 49.3621 1101.78 204 195 194
-108.691 108.942 1059.01 114 91 57
-187.714 2.57472 937.48 132 77 58
-255.067 267.818 1077.45 145 123 115
-172.408 -17.4288 959.143 253 227 197
-323.483 190.741 1028.14 227 209 181
-181.938 17.9956 1015.09 87 38 16
338.971 -209.584 1098.29 29 27 27
-265.198 240.824 1093.61 121 73 68
-298.103 281.901 1101.2 255 242 236
-87.9722 98.8733 1062.88 255 225 202
-307.604 228.505 993.953 134 137 128
-44.6318 258.021 1177.4 255 249 226
-146.434 35.7621 1022.58 255 255 238
-381.222 79.528 987.223 244 229 213
-333.643 119.194 1023.95 93 70 59
-203.091 365.281 1102.41 229 239 210
470.013 31.3025 1089.91 202 179 168
405.886 25.7946 1084.86 193 175 172
-238.472 273.342 991.936 252 233 210
-127.149 71.837 1090 251 230 211
496.29 -91.5209 1077.75 181 178 167
383.252 -80.0069 1032.12 241 240 238
493.196 -88.1701 1037.28 97 81 65
-179.538 23.0225 1015.83 217 172 146
736.137 4.83846 1188.43 190 209 197
491.322 -35.8236 1083.9 231 200 199
575.761 -87.6373 1001.76 246 246 231
-264.658 262.713 1031.72 252 232 234
-142.036 377.888 1161.83 55 42 34
-300.258 422.105 1201.65 61 47 30
475.518 -14.8889 1129.42 255 239 227
-185.125 278.389 1072.25 129 124 106
-116.337 93.0343 1056.45 172 99 74
-300.445 209.043 994.698 125 97 77
-53.7064 218.22 1122.83 255 245 226
-365.364 55.3804 990.754 235 232 224
-356.576 196.041 1092.22 160 148 126
596.597 342.291 1353.4 40 69 82
435.391 49.4636 1133.67 84 81 83
-271.506 287.546 1123.03 107 91 93
-262.223 -124.247 1181.58 19 23 22
644.3 21.1796 1062.41 210 228 215
-260.747 557.499 1393.67 92 92 84
-275.504 233.13 1003.17 160 163 158
-296.779 238.205 1112.74 117 88 70
-344.845 62.7172 972.64 251 241 238
646.82 -62.9388 1044.23 236 255 234
552.969 267.32 1283.52 160 189 198
-187.709 192.674 1045.32 134 139 132
570.801 -175.259 1084.82 86 85 81
465.412 -180.742 840.414 142 154 144
-34.2755 272.667 1129.96 243 228 218
409.33 -83.1838 1073.93 251 249 251
-360.915 55.4543 992.072 112 104 97
634.594 307.137 1245.57 195 218 235
-82.7867 104.257 1064.28 142 118 97
-140.352 28.2535 1024.7 148 124 107
409.103 -172.256 906.693 193 193 186
-112.516 200.919 1041.48 213 213 188
-266.45 258.935 1062.87 136 110 114
550.421 116.359 1117.04 237 239 217
-131.192 43.9606 1009.05 253 232 214
-158.659 358.046 1131.06 221 228 198
-126.317 46.5012 1010.22 154 119 98
593.633 -207.948 1027.34 199 216 202
475.397 -210.275 985.511 127 127 118
-272.362 753.889 1784.28 53 57 50
-301.535 298.591 1087.72 172 141 149
393.408 -5.8235 954.108 239 241 233
-326.131 76.2357 1024.19 237 239 213
-289.728 394.806 1148.45 59 51 47
-264.107 253.947 1064.03 255 252 244
-195.928 303.215 1167.12 193 194 178
-312.56 235.395 1034.61 225 196 182
-361.68 142.903 1013.07 253 253 255
-289.101 359.885 1145.67 228 213 199
-125.479 33.4159 1028.1 247 221 184
-186.886 10.97 1056.98 122 44 15
629.814 -111.278 1037.98 225 241 230
596.734 -186.956 958.216 195 225 199
-58.5747 198.045 1095.83 255 248 236
326.887 -151.448 959.915 126 133 132
391.872 -63.5789 1012.85 228 216 227
-261.076 233.635 1021.52 219 193 183
345.38 -27.1763 961.308 81 55 36
-268.034 220.365 1119.71 138 127 121
498.781 30.7242 1116.43 115 111 106
-297.277 56.5564 969.852 254 253 229
-260.129 270.164 1076.23 242 237 242
-82.7995 109.547 1064.58 245 229 203
-178.453 263.032 1008.77 254 254 233
-239.731 638.373 1515.93 131 133 129
475.238 -256.836 1185.22 93 111 115
-317.225 362.64 1168.04 243 232 223
383.426 -45.1545 1051.84 252 247 244
571.329 251.147 1282.02 155 189 203
473.954 50.2274 1063.99 75 55 31
373.289 -159.874 875.286 154 150 140
-272.389 247.858 1071.67 149 131 130
-364.457 73.3124 940.039 164 107 95
386.619 -256.453 1041.14 147 151 145
538.116 241.031 1278.81 66 102 128
-133.821 338.12 1036.37 92 82 78
-213.665 90.1854 1010.44 192 146 121
-231.903 234.16 1081.63 173 143 131
-269.729 301.232 1204.86 130 109 100
-305.478 104.359 1027.27 255 194 177
364.545 -41.9258 973.213 202 191 184
371.711 -56.6799 979.051 239 231 236
-140.801 19.0135 1005.72 194 128 96
-124.387 169.76 1016.7 255 252 252
591.353 102.46 1116.01 254 255 225
-144.158 56.0975 1048.2 253 238 240
394.746 -57.2529 1035.15 114 98 96
-133.206 -42.8963 1004.19 246 234 195
576.485 -238.465 1105.04 129 143 143
636.691 -26.9386 1048.55 228 251 237
-329.371 185.088 984.848 237 238 233
-203.699 427.656 1289.48 227 210 189
-306.716 379.079 1230.42 71 52 41
539.672 -221.388 1152.19 178 173 163
558.013 -150.381 999.161 163 156 157
-228.496 75.372 1029.15 149 125 113
320.321 -153.203 926.915 132 128 123
470.637 -101.815 1060.27 201 175 156
345.015 -233.609 943.137 127 135 126
-273.814 337.644 1114.51 152 147 135
379.721 -183.539 992.975 137 131 115
-194.047 92.6468 997.304 136 79 54
-296.154 249.549 1040.37 249 242 232
-215.093 210.417 978.388 252 249 247
519.9 313.06 1244.53 60 84 98
-356.236 73.0912 1015.63 136 136 127
392.775 -301.596 1347.52 137 135 129
-309.303 325.796 1102.47 255 251 247
-389.621 57.4269 983.563 100 61 49
581.716 88.5416 1227 249 254 255
-66.4442 158.349 1048.45 227 201 173
460.575 -90.4908 1020.27 154 152 133
-382.282 72.8524 1029.51 144 139 138
-348.646 173.99 1019.34 241 234 215
-312.812 74.4905 969.81 133 102 101
641.401 -11.8382 1092.04 99 114 113
-384.586 121.964 1047.55 251 252 252
555.399 255.611 1235.02 45 74 97
485.329 120.65 1144.58 211 211 186
325.537 -258.729 1142.44 47 48 48
406.09 -88.3788 1056.51 153 147 150
-130.558 -46.1297 966.627 170 140 106
-302.82 89.0842 959.844 254 228 210
634.598 -97.6694 1043.39 207 221 207
-358.071 27.3317 951.843 212 185 169
513.382 -78.2628 1024.5 209 192 172
407.632 -3.59818 1041.24 197 176 166
422.295 20.4572 1085.57 175 174 176
615.324 -62.3938 1129.38 226 226 200
433.735 -13.8884 1041.98 213 201 188
378.73 -62.2715 1033.55 247 241 238
-280.172 81.1284 992.216 241 228 216
-128.391 -33.04 1005.7 243 225 183
613.388 -58.4235 1010.01 239 255 237
382.808 -64.625 1074.04 89 67 61
-152.588 204.727 1054.24 247 238 202
540.303 29.9806 1092.56 209 182 169
-75.7564 239.597 1119.29 178 112 90
-144.421 27.0553 983.384 196 167 155
-329.452 85.812 925.033 206 196 192
417.002 -31.8075 1039.14 218 189 168
573.896 44.2112 1143.38 189 158 145
-332.213 95.6116 1002.41 190 147 129
-285.251 93.281 1059.13 144 137 119
-144.441 299.119 1156.82 253 251 238
638.234 -219.959 1100.78 64 86 71
535.052 306.734 1243.96 132 166 183
487.365 114.993 1158.63 216 213 178
-168.84 368.825 1100.86 113 101 87
502.623 40.7008 1025.39 150 116 105
376.309 17.0949 981.2 132 129 129
513.472 97.9824 1144.19 222 218 218
594.332 297.4 1290.01 105 147 155
645.25 321.182 1295.58 97 134 156
-167.433 154.363 1048.17 124 79 59
-321.196 142.73 946.405 97 64 30
-305.361 230.675 1036.35 161 82 64
-144.363 284.618 1155.98 168 166 168
-219.187 72.0179 968.372 231 210 197
-353.76 25.0004 952.978 138 108 85
-101.577 261.727 1091.12 255 250 254
-65.3398 183.576 1139.79 255 238 209
429.842 31.6913 1059.58 242 232 237
-326.495 100.022 1047.82 234 210 201
-113.52 157.544 1106.09 240 214 205
432.7 32.9794 1100.63 226 223 228
574.231 81.6809 1194.22 241 234 227
-256.377 80.071 924.901 230 205 195
638.566 -133.117 1037.61 191 224 190
-312.797 123.541 900.953 185 179 183
-396.692 204.455 1187.29 127 129 100
687.123 -120.574 1112.88 206 234 201
-327.275 233.5 1103.56 168 105 90
-209.976 319.855 1164.75 125 117 93
410.898 -80.8849 1010.53 144 139 132
-157.029 197.875 1006.65 255 245 212
-353.872 63.3086 946.386 232 239 233
390.342 -244.64 1097.72 185 133 132
-128.554 1.68786 1007.45 255 228 177
636.509 4.07844 1052.27 202 221 207
-285.464 54.1761 1013.25 249 222 201
550.218 311.162 1328.02 54 79 92
-281.597 339.755 1112.41 246 236 226
581.567 -89.3422 965.91 124 136 124
-128.405 -3.23308 969.03 185 139 106
348.729 -73.3372 976.099 78 56 54
-90.5971 109.381 1062.92 255 243 210
558.455 -140.614 965.4 112 109 110
425.713 107.372 1109.93 148 142 115
626.188 -123.965 1036.35 187 205 187
-398.226 126.328 1095.87 214 208 204
454.418 -125.858 1031.42 132 132 126
-283.497 21.0851 891.815 191 138 119
442.191 -3.58595 1043.53 243 239 241
500.591 88.2501 1111.32 178 176 156
570.278 -111.95 986.754 148 151 142
-73.0317 250.917 1120.52 166 122 95
-181.895 3.46182 889.696 255 231 215
-310.606 21.5003 1004.78 111 47 31
