-519.186 400.816 1184.15 254 254 246
389.241 97.2214 1090.55 2 5 0
-297.43 416.277 1204.51 248 243 240
-533.976 395.77 1177.79 66 64 60
-508.148 30.2346 1011.2 238 231 215
449.271 220.391 1123.88 237 241 231
258.449 156.38 1101.27 216 193 187
-499.019 332.022 1086.31 103 91 85
-423.995 265.919 1218.56 54 32 27
-565.279 526.95 1414.59 70 70 65
-547.05 397.948 1215.42 255 252 246
449.814 251.141 1125.19 253 253 247
-497.396 30.2842 1014.91 232 222 206
316.877 421.844 1281.81 45 75 71
-479.597 200.561 1134.89 118 92 76
185.887 166.949 1072.56 255 241 236
223.431 54.4042 991.263 234 226 209
236.973 51.5338 982.72 236 223 216
-541.684 444.779 1242.53 51 41 28
303.951 -25.0544 1094.14 217 208 194
376.738 4.1314 1015.43 253 255 254
309.826 -69.6779 954.876 224 228 215
-509.897 362.719 1182.61 255 255 235
296.97 -94.5623 1006.27 226 247 244
231.287 139.515 1016.97 203 175 166
-403.124 263.333 1153.8 80 62 48
-527.89 372.514 1176.97 240 236 224
130.532 29.7548 978.044 251 250 246
351.203 4.2983 1018.03 149 138 135
-539.874 513.689 1374.14 56 55 55
387.031 10.6031 1041.21 239 254 254
303.728 -72.0795 971.665 206 205 195
-470.895 188.781 1105.91 246 227 199
-599.407 84.9416 998.666 224 215 198
210.845 174.34 1120.65 240 194 184
202.205 -6.5716 984.428 235 219 202
307.181 -66.9979 951.093 9 13 8
-360.592 145.621 1088.23 255 236 212
130.121 29.1302 1046.52 255 251 254
-464.792 561.649 1287.56 86 90 85
-272.307 358.214 1326.56 49 43 36
-494.274 199.68 1129.75 95 72 56
-424.313 281.142 1219.62 243 233 217
252.645 9.30851 1008.01 234 218 208
224.047 46.1638 1028.38 251 243 220
-488.542 166.132 1129.24 109 80 59
166.676 -108.703 1090.93 193 184 181
155.736 48.046 1010.06 254 254 245
-462.738 79.769 1102.12 127 82 60
191.681 -103.852 1094.46 195 199 185
-501.675 630.019 1428.23 60 72 65
234.668 -68.7689 885.569 160 160 156
321.882 -112.783 1024.16 200 220 215
313.803 -113.872 1045.99 172 199 194
163.83 -113.978 1090.09 251 233 225
-458.07 236.094 1144.78 102 101 93
390.816 -44.0123 998.236 248 255 243
343.136 62.2547 1019.88 241 240 214
-461.091 180.904 1108.72 96 67 40
227.794 106.885 1092.76 249 242 226
307.42 -57.9367 938.547 66 48 35
-317.699 349.028 1195.74 255 248 239
-344.823 348.704 1275.89 214 204 194
265.33 -96.0459 983.732 34 50 57
-490.829 160.526 1128 235 217 199
-535.511 33.7959 1049.93 66 64 58
302.902 405.668 1270.9 202 234 249
-519.69 163.655 1140.13 250 226 209
93.9527 -40.6479 1005.15 200 200 191
-361.846 306.227 1268.52 255 245 230
285.356 176.966 1086.18 252 225 220
443.037 539.834 1428.35 231 255 255
-316.716 327.822 1167.52 151 127 116
-326.843 225.815 1313.78 185 155 141
-338.714 231.86 1126.55 255 247 229
-356.191 93.6996 1251.62 45 28 15
234.206 199.983 1125.73 109 80 52
-365.287 134.817 1085.95 254 244 222
-449.324 53.4495 1032.12 136 59 36
-368.906 99.0399 1059.47 255 243 235
315.818 -6.71328 995.858 167 162 156
249.547 53.398 1072.4 117 94 81
-334.224 92.5745 1324.17 189 168 160
365.28 -10.3839 981.087 218 231 224
-534.555 364.8 1117.86 123 121 111
229.074 273.239 1198.51 239 233 204
-443.255 215.607 1083.46 253 241 236
393.903 151.652 1095.68 70 67 65
-304.428 330.155 1140.25 215 207 189
-318.938 240.147 1278.81 70 41 26
-484.011 180.501 1131.87 249 227 211
387.82 31.2978 1043.22 244 253 250
-504.015 37.7618 1013.03 146 133 123
305.807 -105.892 984.937 69 95 91
-452.143 201.46 1078.83 132 114 98
170.971 -99.472 1050.05 233 173 157
182.538 121.734 1069.04 251 249 223
-434.096 131.123 1091.03 131 86 67
368.478 -36.205 929.032 85 100 88
206.344 -110.904 1152.37 58 66 53
188.093 -129.264 1117.85 232 171 159
-477.46 168.978 1101.88 252 232 215
-618.134 598.425 1595.95 144 143 144
136.087 79.021 1059.4 238 207 190
404.55 49.4831 1046.2 232 245 232
129.624 -49.105 972.686 189 183 163
-433.537 206.33 1175.87 91 64 43
130.986 86.2232 1035.26 255 247 245
-295.541 403.576 1336.87 182 178 171
293.025 395.714 1269.13 225 244 249
-373.813 378.393 1211.95 127 104 79
-608.596 396.113 1340.72 173 154 140
-334.501 276.944 1158.18 169 136 109
-530.017 359.98 1217.44 248 255 239
-347.617 133.444 1413.15 140 138 134
-373.606 1.65996 1073.86 155 141 128
365.094 -17.5981 980.622 247 254 250
-385.762 114.332 1055.23 255 247 222
254.239 7.2639 1090.42 220 199 167
-462.549 68.913 1101.6 130 57 34
-536.073 279.568 1145.93 162 117 101
-360.744 153.672 1088.77 254 248 218
-427.152 121.416 1065.1 191 149 117
219.199 165.691 1056.29 133 126 119
-363.783 56.5192 1245.22 231 198 178
-551.27 427.349 1236.15 151 157 150
198.789 9.73364 1040.92 150 156 145
-487.058 174.122 1098.83 111 86 72
-643.37 129.071 1085.4 248 246 247
-385.844 119.559 1055.49 217 167 143
-360.933 134.242 1440.79 171 170 170
-552.88 338.848 1145.88 139 88 69
-339.08 306.953 1210.07 255 235 212
-383.971 238.56 1257.89 251 235 231
-677.743 99.3428 1141.21 135 138 132
152.31 -99.3094 1136.18 206 194 191
-577.042 294.911 1167.16 134 142 135
132.303 -60.7498 989.17 172 169 142
138.709 73.7955 1059.41 119 73 65
373.075 109.139 991.171 223 233 215
366.392 9.95475 965.963 237 255 249
103.955 -95.5108 1107.93 81 76 64
-487.752 231.177 1134.4 249 247 235
-484.517 240.652 1195.82 232 229 220
213.644 105.105 1060.78 250 230 208
-576.381 311.636 1233.93 151 147 147
189.347 250.16 1145.77 72 76 61
-446.407 118.429 1109.46 100 46 25
256.343 188.35 1147.51 251 238 223
-404.482 293.688 1190.07 172 166 155
336.313 467.582 1317.53 88 125 134
346.013 464.579 1278.7 77 112 122
369.616 476.085 1263.44 103 133 153
282.049 192.683 1107.71 109 69 67
357.466 374.359 1220.18 119 143 143
245.527 189.075 1126.48 255 244 233
-366.356 85.4465 1035.39 249 244 221
423.521 133.839 1072.82 244 255 243
-400.02 280.626 1166.66 211 213 204
298.402 67.104 1038.2 236 222 192
267.666 0.61235 1029.55 205 209 194
259.004 109.422 1078.02 114 83 80
332.674 515.223 1384.37 90 131 134
150.354 150.4 1066.33 211 195 199
378.652 -14.2313 996.006 166 175 168
289.201 -96.9572 1005.34 204 205 204
270.581 66.2671 1067.27 244 231 196
291.647 40.0033 997.43 212 188 169
403.765 118.528 1041.47 197 211 193
302.239 2.93878 896.35 181 165 159
259.242 129.101 1054.77 169 143 135
-358.47 9.75568 1356.55 51 55 50
-362.336 272.603 1068.49 242 244 227
-353.262 297.117 1073.7 250 245 239
213.718 -129.816 1121.19 204 188 177
162.145 145.767 1111.48 200 200 203
249.969 -79.863 1020.79 227 194 184
-550.11 372.605 1168.28 255 255 246
125.031 47.556 1055.51 255 251 247
281.918 -77.259 1005.92 157 163 176
179.024 103.665 1007.56 242 225 190
-530.116 315.133 1151.85 109 100 101
-296.004 391.537 1178.39 253 248 217
-369.958 123.939 1083.7 247 219 200
-389.401 128.632 1077.86 131 90 63
-437.453 217.24 1150.28 164 137 112
323.397 -81.9436 972.81 51 57 52
246.304 165.457 1080.57 99 75 66
-389.977 307.158 1171.77 232 223 212
245.111 -131.889 1148.09 147 103 86
-328.268 315.291 1190.67 153 115 84
292.272 64.6484 999.373 240 232 201
-562.283 291.281 1103.47 169 161 162
171.878 249.6 1143.1 186 189 161
139.488 132.538 1081.14 193 179 179
407.216 221.441 1055.81 173 197 176
255.126 118.686 999.24 151 123 123
427.637 234.482 1105.21 193 213 197
-372.662 289.722 1115.12 119 108 87
484.148 227.68 1155.29 164 154 134
-470.169 44.8972 1073.66 166 87 59
-477.194 364.673 1208.62 247 246 226
287.161 132.059 1101.78 227 191 169
141.029 60.9497 1018.76 247 234 238
421.312 511.733 1362.8 219 245 250
-462.421 522.181 1235.21 182 183 170
411.218 515.971 1378.57 56 103 121
229.386 1.945 1004.88 186 153 135
-401.493 16.4694 1542.29 58 52 43
-428.701 19.3239 1128.73 255 250 220
-353.378 301.379 1154.38 142 101 92
497.302 491.703 1363.18 112 131 128
-389.674 130.822 1074.85 253 244 229
200.513 252.392 1124.36 187 177 145
279.942 387.614 1273.32 112 155 164
252.321 -10.5849 1006.84 78 59 35
355.128 78.1986 1085.7 255 255 225
423.402 190.368 1101.49 203 218 196
409.668 397.108 1239.73 101 137 134
129.354 -55.855 1008.89 75 61 35
433.252 196.294 1040.99 49 43 27
180.366 338.732 1174.68 94 87 78
-561.074 140.164 1067.88 254 231 212
195.415 345.357 1177.46 72 66 59
-314.611 219.897 1317.19 152 131 115
145.458 34.6145 980.347 211 188 191
366.896 27.3014 990.816 231 233 216
253.578 0.616019 1062.88 110 96 76
282.965 -77.956 901.314 211 240 237
-402.015 126.115 1181.46 249 223 209
-454.668 152.992 1166.13 138 105 87
221.293 -71.2709 929.307 137 118 106
352.475 -20.0476 929.3 212 230 215
-408.766 87.5679 1046.76 252 237 223
316.151 173.56 1107.34 156 142 124
294.303 408.793 1332.26 64 100 113
-433.214 452.852 1434.44 159 105 76
307.23 49.9231 999.702 199 176 154
334.184 465.252 1430.56 115 146 152
147.13 -97.3298 1003.97 243 239 237
-360.699 162.502 1042.08 186 148 116
-365.43 109.038 1460.29 102 99 97
-336.632 390.09 1287.73 220 172 135
243.565 175.819 1054.73 160 135 122
-302.123 269.004 1224.55 174 165 149
142.536 46.4055 1059.25 236 229 232
204.333 132.387 1163.88 255 238 219
-532.099 331.907 1252.47 159 152 153
-392.095 -9.95308 1177.11 138 128 113
128.061 90.6871 1123.23 254 246 241
236.308 -131.641 1146.89 155 111 90
-428.413 557.628 1252.7 135 141 138
305.639 87.0787 1002.37 244 239 214
162.351 162.302 1112.69 117 109 115
-408.128 111.991 1070.58 254 242 230
-393.861 28.4745 1048.3 241 221 182
428.42 555.469 1432.32 65 119 128
125.999 124.622 1036.15 209 198 190
170.603 68.6279 918.11 216 196 170
-438.314 101.557 1087.73 210 179 170
205.211 102.418 1046.54 149 137 112
117.981 74.7961 967.484 169 152 157
200.62 182.728 1049.23 189 157 146
-569.719 331.569 1154.56 171 155 154
-488.536 54.9791 1092.27 222 210 200
331.658 306.699 1214.56 226 211 179
197.448 133.428 1089.84 255 248 251
404.496 92.9448 1027.63 227 235 218
-581.811 323.439 1193.07 240 221 214
336.564 370.013 1225.87 113 154 158
474.635 382.58 1356.41 119 148 148
125.932 63.6215 979.545 241 227 225
-304.901 279.688 1287.17 82 58 54
-423.811 96.6079 1092.13 251 241 228
180.72 117.183 1101.08 222 189 155
384.08 -21.7491 999.888 181 199 179
-491.581 168.328 1096.7 196 171 154
269.432 -73.9854 1182.1 154 138 141
177.016 -121.585 1147.83 120 41 25
-372.179 113.114 1082.24 184 146 126
402.18 436.643 1218.63 96 129 129
-343.518 38.3177 1250.16 139 116 102
-608.754 85.4703 1051.37 242 241 234
-384.082 195.954 1210.21 201 162 120
-597.966 157.526 1088.3 183 164 149
-398.065 35.4752 1068.08 199 168 133
-600.246 95.7048 1082.13 254 254 245
168.12 262.39 1188.32 78 74 64
-341.812 244.421 1153.41 146 119 90
-653.319 151.295 1122.76 253 251 244
334.401 259.383 1112.97 255 255 222
303.373 97.2232 1018.26 160 157 137
321.938 284.962 1191.77 254 255 232
289.885 411.349 1269.13 167 200 205
450.124 360.839 1290.52 216 229 225
-385.821 70.2162 1074.87 205 160 115
244.239 4.15143 906.06 186 162 153
355.528 -42.6206 917.094 238 240 218
389.242 272.071 1119.64 147 156 140
-467.151 508.593 1231.26 178 180 173
463.522 186.339 1198.77 216 228 225
-481.815 47.6714 1042.56 254 247 236
-359.319 206.165 1144.82 243 213 181
351.988 388.694 1277.43 86 126 141
-405.354 103.022 996.489 160 114 98
-387.202 10.1507 1004.06 221 205 178
296.409 272.354 1138.81 210 212 182
207.099 126.084 1214.75 129 66 38
197.722 36.0832 1024.44 208 167 137
-395.451 149.181 1104.37 254 246 223
-585.167 338.769 1233.33 248 221 219
329.411 36.2161 1038.68 202 194 165
-559.008 649.035 1522.56 141 143 139
213.723 95.9141 1090.27 226 223 188
130.673 41.221 993.977 187 181 179
421.985 481.458 1330.1 218 236 233
-406.801 212.409 1293.55 251 216 162
253.471 6.57334 936.789 173 153 137
-499.731 264.713 1051.79 177 161 155
-392.666 103.572 1052.58 255 250 222
320.767 43.1672 1079.23 126 103 81
-665.26 61.8412 1067.95 246 244 226
-545.303 424.479 1177.28 121 116 102
391.759 516.791 1328.19 244 253 255
413.822 82.4278 1011.38 223 227 209
334.068 347.57 1146.49 117 143 150
158.275 224.034 1163.85 61 54 43
-629.803 176.925 1154.76 149 132 119
259.788 0.581378 1028.73 147 150 135
245.323 177.842 1125.63 147 106 100
-599.178 86.2036 1029.49 142 143 137
225.722 149.472 1210.67 154 139 139
-371.805 65.6767 1129.34 167 158 146
120.204 38.2786 1014.29 162 150 147
-327.868 245.965 1276.52 141 106 93
-355.302 61.8281 978.794 145 100 61
441.22 70.052 1070.76 238 243 227
-587.264 101.866 1106.64 254 247 231
196.137 2.12469 1000.82 177 151 135
-600.965 208.752 1112.57 223 211 178
412.747 379.002 1235.37 127 162 167
-457.489 430.912 1251.58 207 223 188
-617.065 98.6074 1165.92 250 221 201
-480.066 368.612 1236.89 219 215 188
-577.391 110.468 1058.55 250 248 234
244.801 240.183 1152.56 175 176 152
377.755 277.302 1118.54 174 166 146
333.528 -72.2295 939.915 100 109 94
216.376 141.201 1166.36 171 139 136
428.788 307.556 1229.05 228 232 214
-588.908 300.935 1228.06 247 228 216
-422.787 111.133 1116.03 255 242 219
282.848 8.27299 1025.34 124 108 101
114.906 -48.8508 970.814 140 119 98
-669.311 118.107 1174.83 185 191 185
376.28 277.297 1060.59 193 186 160
-605.553 156.629 1110.5 164 152 144
296.743 -13.3184 1037.33 160 156 142
304.111 100.325 1126.57 251 239 222
205.934 -73.9942 979.714 117 107 100
243.213 206.042 1024.03 178 162 122
168.035 250.541 1187.82 94 88 64
194.572 78.3178 1016.21 203 198 154
-485.585 116.418 956.216 207 191 181
-411.532 366.984 1374.91 204 163 139
205.751 156.854 1048.96 177 141 122
-404.243 -86.1914 1231.32 82 73 64
-437.727 35.6897 1034.95 185 138 114
306.787 82.6191 1040.3 211 199 179
320.109 279.366 1180.52 186 183 157
-376.559 329.459 1170.43 121 112 78
-614.805 251.175 1170.61 234 225 197
