-188.442 358.207 1076.78 228 225 224
343.727 -159.53 1104.13 225 223 219
-137.473 170.516 1033.86 224 211 195
-189.533 326.806 1048.79 41 38 26
-124.829 147.748 1035.2 77 44 23
-229.429 355.102 1040.58 253 245 245
425.425 16.1605 1176.88 255 250 248
-202.811 0.815342 990.959 254 241 234
-165.508 -7.67507 977.712 206 199 187
-56.1683 181.379 1052.29 88 62 55
-182.201 301.718 1008.6 255 248 235
320.1 -152.16 1034.38 206 196 184
460.908 -224.852 1103.58 13 27 24
-282.4 70.0211 936.777 235 245 234
-240.745 246.853 973.977 61 64 54
-139.681 164.987 1055.22 113 86 66
466.176 -9.9752 1176.84 255 246 238
-139.411 112.643 1052.47 249 232 207
368.554 -102.981 1112.2 230 220 219
-192.475 363.846 1051.06 26 5 5
-68.7527 131.186 1006.56 82 38 31
-110.433 166.073 1014.82 255 246 224
-195.831 327.785 1072.92 90 72 67
-252.89 150.776 929.331 59 33 29
-135.043 180.923 1035.11 255 240 233
-129.375 144.314 1056.45 249 233 207
-241.441 138.182 944.848 80 65 41
-119.06 7.93049 971.485 89 49 30
405.861 -1.24787 1224.2 237 234 232
-162.142 46.4967 928.532 71 35 34
529.034 245.529 1457.36 204 234 243
-238.927 345.692 1062.88 248 247 249
-128.584 5.79736 1007.7 221 199 191
-211.358 345.065 1004.4 120 87 74
-161.739 246.461 1075.88 89 75 69
416.076 87.2667 1235.42 226 218 195
466.227 230.1 1328.12 4 25 43
-174.374 -1.64197 997.349 84 58 43
-146.234 127.931 1009.97 118 83 67
-151.555 268.716 1079.92 117 111 109
-162.784 52.324 993.642 82 50 48
436.85 -97.9571 1117.48 254 250 234
-240.482 285.814 1031.79 109 76 75
-131.522 113.275 1012.5 76 41 14
-280.217 108.436 920.181 248 234 231
397.426 -49.3647 1217.6 210 211 212
451.515 203.908 1267.88 189 215 239
-47.308 27.6045 986.324 255 247 239
437.178 10.3654 1177.14 249 237 227
386.544 -50.2571 1166.15 255 251 242
-599.806 -276.387 1722.11 187 187 180
-144.031 133.984 990.733 229 194 182
-45.6975 38.3231 1043.76 255 250 224
427.382 -97.4438 1197.6 226 221 218
439.481 12.6749 1130.13 241 225 217
-197.723 372.135 1169.79 187 183 175
407.36 32.1254 1228.3 194 182 180
-185.706 339.45 1076.25 231 218 207
391.619 -40.3595 1218.21 102 77 58
-785.751 -320.11 2111.09 187 191 186
-134.347 136.923 936.487 254 226 206
-187.995 409.914 1055.85 185 194 192
-142.331 152.317 1031.53 148 104 96
-186.241 -1.63738 956.807 36 32 19
-226.199 328.016 1065.07 80 57 59
-235.852 474.04 1189.66 32 27 23
466.17 -230.195 1103.15 170 193 200
-45.3305 31.3838 1112.64 255 253 240
-60.6421 190.993 1027.57 179 148 123
577.639 302.975 1406.76 99 124 132
3.70931 380.994 1239.5 71 62 47
-57.1319 171.948 991.301 116 82 63
468.654 220.152 1271.5 37 58 64
-210.002 295.335 963.778 255 255 245
-182.961 225.871 1048.19 252 239 235
-258.557 84.4549 943.343 58 56 47
-275.556 155.783 959.705 251 252 253
-140.396 106.094 919.335 247 220 204
-169.993 60.1603 1001.35 139 117 113
-163.961 55.1086 958.059 144 87 82
-238.428 272.491 1015.56 151 139 145
-247.512 61.3904 982.948 139 107 112
-272.614 210.835 1044.12 237 238 219
-278.207 84.028 938.401 85 50 33
-249.454 208.532 1008.62 220 192 163
-106.539 187.011 1084.57 140 139 128
-120.177 153.066 1011.57 233 222 202
-243.279 77.9873 963.773 109 70 50
420.386 -27.3328 1171.49 255 248 237
487.617 -190.855 1065.74 171 174 169
-199.637 244.445 1023.72 221 170 164
-167.488 47.3426 992.159 161 119 109
474.058 -30.2837 1174.89 255 251 241
446.351 -101.972 1164.29 237 233 208
-202.467 332.345 988.848 196 189 172
-242.956 254.436 1013.24 226 214 199
-126.685 128.475 1014.29 212 175 147
379.542 -4.15767 1170.74 33 32 27
-195.279 331.465 989.838 81 44 39
-125.654 311.321 1089.01 255 252 225
-151.887 147.654 1070.89 119 59 40
-212.388 267.863 1109.3 254 235 235
-160.778 298.673 1036.53 213 219 201
-242.999 71.2116 984.523 253 245 228
-148.613 117.872 1008.95 117 80 71
511.927 316.568 1469.48 163 187 214
-226.433 268.245 1018.4 238 201 196
475.965 223.476 1327.8 167 201 214
-238.79 330.459 1036.01 225 217 220
-231.464 349.053 1065.08 113 102 109
-194.489 328.736 1007.52 150 148 136
-188.594 374.545 1034.18 254 250 251
-202.721 -682.952 2588.35 165 170 167
-162.698 45.3783 1002.27 254 232 223
457.612 -133.485 1114.45 208 189 180
-282.915 84.0888 965.236 151 152 148
389.702 -13.2957 1221.32 213 195 193
-119.084 134.106 1058.2 113 59 27
-21.4067 364.607 1163.47 105 99 94
-203.512 91.6684 995.076 236 216 209
391.029 -104.398 1143.31 219 217 217
-185.065 372.559 1053.67 193 186 191
-59.3452 64.137 1024.89 188 120 77
-221.123 289.94 1037.39 252 241 230
412.753 -130.599 909.246 200 203 197
-196.373 384.687 1076.45 112 111 108
454.449 -112.312 1198.59 224 209 186
459.007 280.806 1335.19 157 174 202
386.104 -7.10473 1181.04 251 249 247
428.647 -41.749 1170.41 247 232 206
-41.4178 44.3293 1005.96 254 228 200
506.118 -151.408 1253.5 217 198 183
538.227 -256.994 1302.42 188 224 215
404.796 -180.042 1063.17 173 174 162
-237.161 102.845 930.859 132 79 59
-214.09 112.378 973.009 251 200 177
319.538 -200.319 1230.4 52 55 57
-198.47 267.436 1064.5 250 252 250
396.097 -245.277 1291.76 214 182 158
457.725 -214.528 1150.69 160 158 153
-77.4768 56.0688 1062.64 254 245 235
359.233 -90.4104 1029.45 255 247 248
-118.138 286.775 1063 251 252 229
-100.675 368.846 1120.33 197 199 172
-231.424 325.891 1037.63 171 168 172
312.456 -238.728 1345.97 199 188 176
-185.045 405.367 1099.94 41 20 15
-17.428 143.446 1031.85 254 243 218
-56.3314 78.0741 1113.6 244 222 200
423.766 -24.2482 1092.44 241 216 210
-74.8849 61.3687 1063.49 251 230 235
-267.186 70.2875 940.627 154 141 141
-116.316 -4.14517 1009.74 113 37 12
560.423 -159.154 1161.98 223 235 220
-231.863 331.739 1126.19 251 203 167
-66.0073 44.7869 964.91 252 232 207
-248.625 61.1876 961.137 145 76 80
-61.7739 58.7393 1111.15 227 201 186
-299.987 96.5893 970.972 255 243 218
-58.9955 177.988 971.275 212 180 160
-164.973 267.364 1010.24 147 146 135
-258.376 65.5696 923.731 116 108 102
-262.608 187.525 964.944 255 249 226
-211.034 275.097 1162.33 95 45 37
-205.193 234.469 997.631 111 59 49
-121.648 98.3807 1013.9 158 99 67
-192.293 239.781 1025.25 184 135 120
-258.341 204.595 967.037 235 229 215
363.14 -216.011 1233.53 197 165 147
300.694 -199.896 1228.26 50 59 53
415.671 7.84283 1226.14 225 218 220
-112.087 397.895 1164.57 172 162 144
-227.423 309.78 979.316 138 135 137
-70.0963 357.931 1079.46 93 72 44
-56.6101 87.9914 1068.82 243 222 194
-54.3252 89.5524 1027.25 255 232 213
-218.294 263.997 1035.94 165 156 150
540.846 -103.964 1171.78 198 202 177
-125.563 294.911 1087.92 151 153 126
-77.441 40.3049 1061.7 255 247 233
-34.2348 91.3346 1092.31 254 233 199
-179.012 -17.5422 1075.43 202 168 155
376.339 -34.3002 1217.59 182 155 142
-106.371 7.53023 933.532 188 97 62
-225.633 266.09 1034.14 133 113 105
610.431 -202.423 1381.3 150 153 147
-197.483 272.813 1026.02 125 110 113
544.602 273.141 1338.07 94 123 131
-98.7035 216.834 1067.01 255 252 237
-267.829 214.233 1017.98 208 208 191
-19.7423 129.925 1055.77 238 221 207
472.667 -166.058 1111.24 204 182 174
-146.047 202.885 1090.75 143 125 115
440.184 189.557 1319.79 187 194 190
-115.631 297.696 1064.53 241 223 211
-13.8158 152.982 1018.63 244 230 194
-221.997 56.9201 989.017 255 239 235
-248.592 359.159 1133.69 182 169 172
483.824 174.212 1214.49 135 155 162
-212.938 247.579 1041.96 255 221 204
316.221 -143.781 865.482 153 152 145
421.074 -10.3233 1224.39 228 211 218
-239.8 88.7921 1004.17 240 216 207
-144.498 383.897 1089.2 73 58 31
510.734 23.164 1235.16 157 141 125
526.339 234.4 1392.01 136 168 176
519.38 -180.263 1207.73 176 163 153
-218.22 68.9121 969.517 255 251 244
614.247 49.7525 1248.84 217 222 208
468.784 -52.5959 1222.56 241 225 214
-254.069 62.3782 910.82 221 221 214
-284.06 131.608 956.062 250 243 239
-40.7878 59.1443 1070.21 254 232 209
289.113 92.9237 1290.72 81 73 64
502.112 210.309 1327.42 142 168 177
-205.749 273.958 916.467 177 173 171
-59.5892 359.393 1038.01 199 211 215
427.3 174.884 1261.82 63 56 45
-137.823 202.508 1103.21 80 62 49
357.798 -74.9324 1124.76 197 190 185
-28.9933 93.4553 988.584 253 246 214
386.378 -67.8313 1145.96 129 111 118
-87.2229 203.362 1026.2 236 224 198
509.821 7.89783 1233.12 251 226 200
539.062 146.44 1284.9 252 255 246
-222.805 236.447 956.489 93 15 6
-102.924 17.4561 1032.22 110 57 23
-67.5325 69.0286 1041.51 255 236 222
400.239 -76.0844 1164.23 182 175 188
-154.494 81.5115 949.009 167 158 162
448.275 15.4702 1131.06 160 135 123
-2.64191 191.876 1012.16 253 237 212
525.668 -177.357 1208.39 77 76 66
-198.674 280.179 1002.82 231 198 194
471.232 -152.744 1145.61 86 71 56
-85.6383 278.228 1095.92 241 240 235
-18.6607 259.271 1155.85 174 135 112
-289.02 83.7891 935.63 235 145 138
-180.792 221.959 1042.06 151 123 112
613.64 43.5449 1247.68 126 137 124
-158.281 319.383 1058.39 195 201 168
-19.3027 138.014 1098.61 187 161 143
-187.556 255.468 1027.4 144 118 114
410.046 -231.629 1195.19 206 177 170
-181.836 268.729 1006.19 251 226 224
-243.319 107.356 1027.12 255 241 215
-217.546 382.753 1046 220 208 190
-230.059 306.391 1086.14 115 73 71
461.667 268.581 1277.74 87 130 128
594.715 -164.524 1247.77 204 214 194
-195.541 407.062 1154.37 38 31 25
-87.2679 164.022 1100.51 182 155 130
-252.577 266.405 1011.45 226 226 230
514.649 210.967 1492.27 189 197 185
-51.36 104.017 1070.83 252 242 212
-217.185 302.284 1022.85 245 206 194
474.065 191.662 1381.2 114 108 99
514.651 90.9627 1243.89 240 243 223
-198.902 258.975 1011.63 247 248 246
482.901 -234.245 1301.04 125 126 119
-249.852 238.774 1010.44 191 175 152
-340.246 20.6176 996.434 75 55 40
-230.885 239.953 1015.48 247 183 159
460.495 -151.883 1117.88 114 101 88
-16.8217 142.284 1079.9 251 244 222
-288.342 90.045 929.003 188 105 86
-182.909 405.03 1056.77 175 177 168
-300.391 50.8156 923.192 193 168 145
481.176 -211.644 1106.01 102 120 118
538.988 -160.595 1162.24 58 67 60
444.597 -21.552 1173.96 218 199 197
-78.1279 31.9945 1048.06 254 229 208
589.058 151.689 1374.57 249 251 242
-226.166 96.2246 933.22 251 221 187
-251.245 -78.3849 1154.61 45 42 37
-180.137 291.154 1074.42 204 153 146
-70.095 76.7001 1041.3 253 212 186
-240.207 234.723 988.451 102 52 29
-111.48 172.499 1061.46 161 138 117
505.501 -221.841 1152.33 61 81 72
-77.5145 305.469 1163.17 246 237 226
494.531 287.428 1398.98 66 98 102
-894.564 -536.911 2342.66 55 74 67
448.737 -23.5744 1206.35 200 192 190
-117.721 400.738 1144.16 127 119 107
-66.5896 24.4238 919.022 194 110 83
-79.3165 293.346 1171.94 241 232 234
-150.85 82.8543 1006.75 159 128 120
-69.3436 31.1327 1021.12 165 153 133
435.909 -56.8299 1043.96 252 248 233
-255.626 296.241 1055.03 126 130 130
379.958 -86.0509 1124.48 241 239 241
-193.778 295.357 1094.74 83 60 50
448.066 93.6239 1239.01 205 211 183
-203.286 403.516 1094.95 215 202 200
394.378 -225.634 1235.62 80 63 59
434.814 -213.861 1186.69 33 29 24
-224.486 225.932 976.919 173 102 74
384.915 -87.3845 1161.71 255 252 251
551.058 -167.539 1160.54 206 232 228
-20.299 120.609 1001.17 139 130 111
659.131 -186.598 1403.9 67 73 62
418.353 -127.814 1112.87 153 151 131
-23.978 222.695 1000.13 240 204 189
-124.511 214.128 1106.97 163 140 127
-114.756 376.044 1070.55 115 108 95
-225.45 104.837 969.766 223 153 135
378.588 -27.248 1168.09 84 64 48
333.835 64.5624 1007.88 154 142 119
493.289 -59.2132 1172.43 206 197 178
-129.879 -540.532 2018.53 56 54 43
431.808 68.2275 1149.12 136 134 122
-207.981 275.758 1066.28 219 220 224
506.416 305.529 1402.81 99 137 141
-1020.58 -517.624 2360.72 53 65 60
-250.897 289.074 1038.81 249 254 255
-221.814 77.134 912.458 228 195 174
-126.116 281.852 995.497 135 125 106
406.787 -13.9389 1136.11 217 211 211
468.444 78.4155 1240.18 230 225 197
424.394 -81.2297 1221.26 86 85 80
-195.157 62.1081 974.68 255 226 204
-217.379 100.32 918.36 254 251 239
316.664 -191.284 1230.98 54 58 52
2.49637 217.628 1015.89 217 197 177
-387.529 -1.42442 1121.77 73 56 43
577.762 -17.2753 1186.93 221 240 220
-46.0861 112.115 1072.37 202 138 110
-257.559 141.314 884.893 249 245 248
-56.8605 99.6891 1027.29 255 236 222
469.516 -15.4985 1286.56 235 235 236
362.724 25.4318 1138.72 130 108 102
538.52 -116.524 1124.26 237 255 230
405.364 157.34 1425.12 136 137 123
-277.188 179.514 1041.67 101 90 49
395.039 -85.0905 1169.84 161 152 164
349.43 -82.3884 1040.81 192 198 197
