27.2784 351.383 1191.61 239 233 235
14.3142 409.608 1160.6 247 244 241
31.2937 353.791 1156.5 254 251 246
20.0853 407.027 1161.42 48 48 43
-62.9532 46.714 1014.6 52 16 16
24.5404 -37.8884 986.127 71 61 53
-27.8114 42.0055 1020.72 22 0 0
49.2546 10.2657 1109.31 23 4 4
14.2583 -36.557 1059.34 253 231 227
-70.3884 36.4986 1012.27 238 254 244
-54.8533 136.189 1104.96 89 45 39
577.129 -44.7423 1145.97 227 217 209
586.201 51.0238 1286.74 234 228 212
27.6475 415.792 1198.7 183 183 182
627.261 -19.6822 1314.58 254 247 247
-36.6936 173.217 1040.08 239 211 175
25.1441 299.9 1147.85 253 243 234
53.9291 301.353 1153.32 255 251 228
60.7356 81.0417 1082.25 242 217 208
69.871 108.141 1124.7 235 207 188
516.152 -134.281 1131.39 201 190 189
-47.9324 31.6433 1016.11 80 33 34
-5.06224 425.659 1192.84 243 241 234
83.6616 82.8727 1123.7 165 117 94
79.2017 -36.6673 1029.56 119 81 68
89.8407 119.849 1129.31 121 84 69
149.392 108.057 1180.81 106 50 36
-27.4337 270.049 1125.16 116 97 89
92.5278 108.614 1128.29 255 239 200
-81.5248 53.1413 1090.32 250 226 205
559.2 -81.5794 1256.27 67 34 25
12.1749 356.406 1142.07 123 121 111
-48.4271 52.0804 1044.59 106 101 98
609.06 -60.5104 1212.04 247 243 236
99.383 -32.1609 1103.94 151 88 77
-17.019 345.465 1181.79 96 90 81
-27.4404 258.598 1123.95 109 91 96
-28.7143 332.563 1177.86 255 250 252
81.4702 131.053 1129.4 88 64 49
81.0692 75.1318 1111.91 239 207 182
91.9221 66.3665 1122.79 111 71 44
-11.0936 337.573 1103.89 125 107 88
576.811 -31.711 1267.08 152 141 140
541.57 -75.393 1258.59 241 188 171
77.1564 89.4118 1085.82 214 187 165
75.9334 142.283 1129.91 255 249 235
81.7644 153.847 1132.28 249 238 230
86.6925 97.1427 1125.95 249 233 208
-45.8444 41.69 1044.29 252 254 249
-15.4566 284.806 1085.88 123 116 116
-76.6498 80.3042 1041.07 231 226 206
70.0035 119.479 1126.12 255 239 223
-24.5874 327.858 1131.64 188 182 178
-90.0423 11.3681 1006.24 255 243 234
559.913 -111.143 1203.69 238 233 239
75.8655 117.849 1192.25 92 52 38
20.461 304.459 1138.43 128 128 120
34.6664 193.254 1093.84 255 245 241
171.514 325.46 1156.1 73 71 52
576.611 -63.7222 1213.27 255 249 234
-38.2877 232.148 1085.21 95 94 80
663.72 -26.9784 1357.21 255 232 239
551.878 -272.115 1350.83 230 195 186
567.407 -122.9 1200.73 246 248 248
30.2642 223.787 1137.79 151 102 90
623.268 -50.0067 1396.68 86 76 68
25.9068 261.293 1134.86 255 249 250
-83.6795 56.7588 1106.75 178 85 70
48.8503 285.557 1141.84 214 212 199
590.032 -8.12655 1291.49 207 202 203
87.1525 131.167 1130.31 172 144 122
-41.3041 257.94 1120.95 83 86 88
614.895 -144.95 1237.54 246 236 212
-2.90519 326.684 1104.22 255 245 228
565.899 -137.483 1197.67 214 200 194
108.466 148.886 1180.71 255 248 237
683.97 -46.6272 1348.02 255 240 228
50.6994 -59.1945 1150.21 68 29 15
-33.0355 28.9562 1097.35 154 110 118
-9.40792 393.574 1198.66 249 241 227
98.0885 100.292 1128.05 115 72 42
49.2717 21.7321 1072.24 253 230 220
-88.6735 67.4417 1124.29 255 245 232
24.1494 323.737 1187.85 116 103 94
-34.1241 107.816 1032.8 158 123 112
14.1499 379.588 1156.64 252 250 245
16.8795 352.881 1153.59 55 57 53
-69.3058 132.795 1088.92 241 229 229
100.671 -43.3071 1069.61 140 52 24
150.087 171.782 1147.78 255 250 234
85.818 275.771 1130.65 239 235 203
17.2735 60.659 1099.66 255 240 230
-35.5094 112.468 1051.73 61 21 17
97.6995 290.576 1202.62 255 251 233
630.043 -18.9679 1266.75 234 221 218
87.8252 343.978 1049.37 191 197 201
517.12 105.569 1403.79 191 186 175
-65.52 77.0852 1016.81 213 183 186
-16.624 325.762 1001.22 208 194 184
53.3425 49.8192 1073.72 134 127 121
-46.043 50.2717 1060.28 107 95 92
30.5977 191.673 1070.25 129 120 124
-0.736729 248.7 1135.65 253 250 244
169.339 166.327 1231.75 144 97 67
-31.5748 229.098 1077.27 211 208 190
634.774 199.478 1424.86 98 122 143
-6.18811 307.004 1142.76 104 38 33
72.7191 160.949 1095.51 153 138 134
13.016 217.575 1093.27 218 167 157
-17.0604 52.4732 1074.67 251 255 233
462.565 -212.031 1232.25 57 64 65
107.76 -29.4486 1105.41 255 234 205
538.563 1.02894 1199.53 40 22 22
655.268 52.3344 1272.65 255 255 225
604.449 -81.3216 1253.39 254 247 226
555.667 -115.086 1248.7 170 156 154
-16.7455 244.219 1091.09 252 243 236
-57.9257 165.687 1065.64 255 249 226
-21.1344 373.711 1211.06 174 164 158
27.5589 400.396 1197.06 102 80 67
537.168 -45.779 1219 148 135 129
5.2458 368.724 1244.88 49 43 32
-21.9054 233.205 1122.37 147 79 62
176.065 -8.95863 1166.56 250 246 231
-24.2648 30.5632 984.282 255 239 242
805.135 -24.8291 1393.92 151 166 155
153.601 12.4922 1161.66 255 254 225
544.379 -47.7403 1148.69 242 246 241
-0.117811 81.7627 1109.5 251 220 199
-4.64034 314.575 1215.11 182 101 95
-90.4205 91.6499 1081.04 94 40 33
118.95 391.803 1269.36 103 85 77
23.108 266.901 1134.94 139 114 107
6.39031 373.992 1056.8 122 120 119
-53.7373 29.2487 945.117 252 250 238
-3.78595 304.157 1186.55 255 235 213
84.1233 -30.614 994.916 194 141 138
600.005 -63.2019 1175.38 254 249 240
114.679 350.394 1207.77 228 239 208
191.377 -6.18749 1253.44 159 146 131
637.392 -66.397 1239.41 140 116 113
-56.8129 151.885 1193.77 103 62 17
-12.5662 67.7087 1025.87 255 246 253
700.471 -153.009 1226.61 202 222 201
-10.173 235.479 1082.2 144 122 122
692.693 -25.1907 1206.01 230 246 229
158.18 -8.59847 1080.66 243 238 212
96.3185 174.287 1137.14 182 151 139
-22.9024 320.926 1177.8 253 251 251
630.318 -268.344 1209.1 147 179 185
554.691 -105.302 1205.24 137 128 133
591.04 -226.413 1177.42 140 138 125
157.195 17.4946 1122.53 253 221 200
689.039 -26.7685 1354.18 117 90 72
18.5779 234.63 1096.55 253 249 245
111.711 157.911 1171.45 159 138 126
675.98 -162.439 1182.98 229 240 228
70.1064 97.2267 1112.23 190 133 113
126.253 400.917 1303.8 165 149 139
-69.43 93.313 989.231 244 232 221
141.866 16.0232 1046.32 179 136 113
20.7477 193.778 1006.38 198 157 141
126.671 367.395 1219.63 62 45 39
22.7109 365.206 1156.4 214 209 206
-85.2153 31.3809 1008.91 203 144 120
-59.9652 433.494 1344.02 34 31 23
190.11 66.9281 1179.77 243 233 210
66.2026 358.831 1163.67 206 211 182
645.151 190.567 1451.06 95 142 144
14.0639 225.577 1085.87 177 147 143
-27.4712 212.994 1119.06 161 129 107
96.2147 381.429 1216.94 113 87 70
608.723 -98.6616 1159.54 255 252 240
6.46131 -9.0666 904.466 255 194 167
-74.6394 132.668 1087.77 114 107 102
584.204 -47.2413 1262.9 216 204 205
75.0367 60.6874 1078.29 250 234 209
145.704 -85.8246 1069.62 242 233 212
87.5374 159.688 1133.93 101 73 56
-63.2094 -104.929 1159.84 55 51 45
62.5687 230.794 1103.68 182 186 176
88.2908 270.269 1154.54 159 152 140
778.876 -2.89225 1567.46 250 246 217
-43.969 150.472 1108.78 250 221 186
-47.4358 176.789 1068.91 229 217 196
557.821 -131.669 1199.38 171 169 173
-35.7614 221.179 1118.22 188 162 145
602.688 195.57 1517.27 39 62 59
111.779 -22.1108 1073.54 151 71 37
11.0059 328.72 1149.15 214 212 208
150.065 152.277 1130.17 141 128 115
77.6439 317.442 1026.54 244 223 200
16.9832 370.807 1156.03 147 150 145
3.46604 288.636 1090 207 122 109
2.71043 101.171 1112.3 242 200 159
142.137 20.1642 1115.42 242 222 208
-42.9509 64.6714 1020.04 153 164 164
65.4475 295.924 1154.57 254 246 229
163.256 53.1261 1167.75 255 247 222
104.401 361.043 1170.52 107 81 75
39.1355 264.854 1168.57 130 86 78
-28.9888 94.0344 1064.21 175 164 181
19.8707 27.8186 1097.13 255 248 218
616.009 -59.54 1257.76 218 205 206
-1.93436 33.0119 1093.71 255 247 235
654.794 23.1689 1323.7 255 254 238
201.063 132.558 1191.07 254 230 197
531.358 -249.021 1266.81 105 87 75
-38.5001 161.852 1111.16 238 192 150
745.681 -186.365 1302.58 201 217 204
11.0809 -10.6477 958.479 182 111 84
194.026 100.535 1177.47 255 242 222
638.263 -55.0947 1304.23 218 208 209
139.541 140.503 1063.94 181 183 176
594.062 -90.408 1206.25 230 208 186
-5.59269 237.797 1171.75 193 168 152
-27.4892 187.514 1116.25 146 108 86
-70.9646 93.5813 967.119 177 161 150
50.4879 270.488 1186.61 233 205 190
184.065 64.5984 1274.13 194 136 113
-44.7638 62.5826 970.157 252 245 250
16.1087 -68.4582 1136.74 131 144 149
147.432 0.796366 1114.05 177 145 125
-5.78831 14.8012 992.275 255 176 165
-24.1074 55.3289 1010.15 209 192 189
9.09142 295.119 1135.21 254 206 176
110.597 506.656 1223.88 86 117 100
704.893 -141.005 1228.94 226 230 217
529.939 -99.9455 1253.49 138 119 112
