272.629 -29.3775 1688.43 255 250 241
297.202 392.97 1987.27 37 45 45
290.05 470.542 2003.63 222 245 246
-83.8442 459.037 1176.94 255 246 223
-43.8081 526.892 1247.58 19 21 20
-57.1099 488.241 1292.38 236 226 226
147.794 314.349 2051.26 253 254 234
-125.168 227.697 1083.06 19 17 15
-52.0004 492.412 1274.2 240 234 228
54.6482 217.519 1521.29 39 30 20
-72.1234 507.624 1135.78 223 217 210
-19.5911 59.2467 1221.7 112 65 52
280.196 480.537 2004 52 77 80
331.223 -34.0528 1973.81 246 240 222
-14.0369 229.794 1295.9 135 110 86
-11.1322 65.493 1281.56 135 24 1
240.75 -86.4851 1587.79 145 134 132
-83.9586 489.326 1179.72 27 14 11
-121.544 151.301 1103.81 171 97 74
-110.199 368.248 1223.72 148 153 151
-55.9761 42.4795 1306.43 218 205 192
-36.4146 422.026 1305.07 244 248 227
-58.1996 439.903 1268.36 115 91 85
305.833 481.742 2008.97 103 122 128
-111.922 134.2 1017.61 214 161 144
-176.695 167.615 1140.48 159 141 134
-69.741 423.498 1107.09 228 222 209
322.23 127.48 1911.21 233 224 224
-11.1448 59.1236 1280.93 160 67 32
-21.8891 15.5898 1336.01 71 58 35
-114.095 174.355 1061.28 223 177 171
-89.1156 571.376 1368.76 165 149 142
243.43 -4.18055 1568.74 114 102 96
-85.1504 341.341 1173 140 126 107
-125.856 119.232 1075.47 80 18 6
-89.519 275.406 1118.01 232 221 184
-23.6918 196.925 1290.92 168 108 89
-116.233 268.897 1161.62 101 97 84
-86.529 503.875 1236.73 85 83 85
-4.30037 266.166 1301.07 169 167 165
-30.056 235.609 1292.76 255 245 225
182.101 -112.818 1865.69 60 59 57
-17.2576 223.15 1294.61 247 231 203
338.425 64.524 1934.39 255 251 238
198.057 358.293 1824.07 45 60 65
-62.0158 360.999 1294.91 251 224 209
-58.2995 514.589 1274.46 79 72 67
279.253 -0.100937 1786.66 183 167 161
286.642 101.692 1718.42 255 249 246
-98.5533 533.282 1180.1 147 144 136
305.395 71.3544 1808.04 158 132 127
-20.4086 271.92 1297.91 248 237 224
-122.113 111.823 1033.23 202 134 111
-131.466 131.215 1154.9 198 143 131
287.607 280.558 1734.27 68 68 52
-17.1827 278.624 1299.18 108 85 70
-23.7041 183.973 1289.78 255 233 217
-30.0691 209.641 1290.57 166 134 117
-92.3381 431.071 1172.25 216 205 201
-23.3597 209.868 1352.97 229 214 196
-127.457 234.093 1093.95 212 186 167
-52.4686 411.095 1211.39 255 240 228
-89.5017 437.36 1173.53 255 253 251
190.606 52.7499 1784.25 31 10 6
-20.4233 258.856 1296.86 226 216 204
326.706 140.546 2030.48 140 132 130
21.1218 529.654 1374.49 88 89 84
-51.3452 444.792 1234.12 220 208 199
-195.29 121.344 1132.7 161 139 130
238.246 442.14 1987.45 61 88 82
-55.7698 539.258 1307.39 146 130 121
272.847 62.162 1800.77 143 98 91
-7.54369 259.466 1299.81 213 203 198
330.252 94.5349 2065.53 81 77 72
317.434 35.4939 1801.07 250 243 219
-82.0038 368.896 1201.17 251 250 241
-190.142 149.964 1135.91 166 150 134
-47.6092 360.839 1184.42 151 140 130
-70.5663 64.5037 1211.06 245 221 204
-113.408 129.467 1104.35 244 232 221
278.887 127.464 1722.46 88 59 54
-90.554 217.646 1164.44 130 77 61
241.918 47.079 1666.13 241 187 159
-102.658 295.106 1151.52 217 180 168
-62.1897 487.449 1241.57 146 146 139
305.671 -17.7465 1786.2 227 210 205
435.548 214.623 2067.13 252 255 231
198.446 460.848 1983.41 28 39 36
-50.0585 355.094 1156.22 254 252 245
24.9349 267.548 1307.59 137 105 92
316.358 107.719 1818.42 255 243 238
-11.2804 285.218 1264.45 152 129 137
-124.067 102.48 1055.25 248 204 182
-84.0191 358.432 1148.79 168 160 165
-122.12 203.637 1127.82 160 136 123
-7.56964 246.386 1298.73 179 151 138
-90.0474 58.3202 1153.6 126 88 70
248.58 26.3924 1788.21 182 155 141
-89.1076 568.789 1293.78 86 65 50
-30.1534 36.6962 1274.62 184 164 148
-113.454 140.518 1105.01 116 97 89
-100.443 283.166 1115.97 255 252 252
-62.1068 360.719 1179.24 143 124 121
-131.243 334.891 1186.39 242 237 225
-36.4475 39.7998 1273.54 255 247 225
-1.12947 240.135 1299.64 241 238 230
-110.723 122.348 1034.55 99 72 63
302.558 444.994 1946.29 155 173 170
135.719 -75.8533 1862.59 15 13 0
-45.8779 391.729 1285.39 174 144 136
-99.6141 376.664 1197.59 159 159 160
-94.7979 247.869 1137.83 240 230 193
-225.665 281.756 1122.36 66 18 9
-93.3588 325.627 1044.19 191 184 179
-91.0427 435.429 1204.22 152 147 142
236.526 114.135 1683.75 135 123 113
204.237 313.385 1950.92 62 71 63
-75.9254 61.425 1156.95 215 183 162
-56.6256 467.444 1133.7 249 236 234
348.969 79.0664 1939.28 236 223 217
-85.0993 317.75 1171.71 188 158 133
-85.2229 376.787 1174.86 187 167 151
-141.491 245.26 1126.51 214 177 160
-67.0041 310.183 1149.07 249 238 229
19.3609 140.402 1427.81 255 239 218
-119.003 257.071 1160.25 158 132 126
-16.7485 196.34 1200.29 223 185 158
-104.78 45.3222 1258.26 178 174 164
-73.6957 374.698 1177.37 255 243 228
-17.3206 177.714 1290.66 210 169 143
-143.87 197.759 1150.56 105 44 45
311.084 195.186 1838.02 184 183 158
-70.8381 185.968 1220.65 254 217 197
-105.218 96.5871 1104.17 242 216 197
-86.959 519.39 1181.68 147 125 107
-31.6085 212.141 1231.47 250 238 211
291.594 71.2705 1805.91 86 58 52
-12.1819 215.215 1314.44 183 142 110
-85.9832 294.331 1159.62 157 139 111
-90.5369 211.805 1164.07 222 164 141
-87.9211 299.904 1170.05 254 247 223
348.337 13.2423 1799.78 255 254 230
357.878 191.3 1844.23 251 247 224
396.521 73.9604 2210.18 220 210 198
17.9188 139.909 1294.87 255 237 207
-85.5136 200.519 1149.2 145 104 100
-104.255 523.519 1177.88 64 60 46
337.238 -151.607 1779.32 191 190 194
-36.4454 183.519 1286.86 240 183 175
-84.6198 130.516 1159.97 252 242 249
-88.835 215.821 1218.66 253 229 208
-101.557 124.223 1155.68 249 246 239
-109.925 298.589 1242.67 212 181 152
24.4245 120.972 1161.55 218 199 179
187.164 368.001 1655.35 99 118 118
354.632 -155.9 1778.1 182 187 172
27.3928 318.318 1449.58 255 254 225
178.629 333.046 1774.01 56 84 81
12.9912 117.48 1245.21 255 233 211
-100.277 233.244 1135.38 183 149 135
-94.2335 119.691 1127.17 255 240 218
338.561 -160.312 1754.19 182 199 199
-43.723 125.691 1222.06 185 177 175
-101.669 153.164 1157.64 194 192 185
-73.2085 113.426 1161.32 255 249 247
-129.124 91.7984 1053.55 157 138 108
220.253 519.233 2000.38 63 73 74
22.1036 171.906 1318.79 208 172 138
411.64 -126.769 2515.05 166 149 134
-79.0267 165.591 1163.63 255 237 218
364.794 -159.545 1846.22 94 98 93
309.741 -11.3533 1832.08 192 194 192
-55.0559 245.832 1062.01 121 96 83
-61.5569 448.16 1160.03 241 231 227
26.7015 167.688 1480.51 247 202 167
-68.7029 321.28 1076.94 190 179 181
-134.561 90.3446 1097.14 213 202 177
-49.7354 116.385 1219.98 255 236 215
-90.3234 141.939 1159.47 211 181 172
-55.8018 168.142 1222.72 253 231 228
4.70765 37.0298 1282.1 255 244 213
-68.1086 343.42 1232.18 250 229 208
388.368 64.7301 2013.26 190 184 175
-88.9618 55.7042 1080.78 193 168 149
346.858 -113.713 2146.5 85 71 60
-54.1512 263.783 1145.19 153 130 115
-106.69 12.5512 1146.52 92 96 106
26.7556 190.888 1435.46 255 245 190
-203.362 121.096 1130.6 166 123 116
8.98649 382.339 1312.75 179 169 166
-66.2875 392.254 1127.45 171 141 131
212.99 397.383 2087.55 121 140 148
211.339 411.178 2118.46 76 88 92
6.69186 357.07 1236.82 195 185 182
