472.324 -228.275 1574.86 235 233 224
-6.39012 369.481 1273.51 240 235 238
0.43106 389.996 1295.08 255 249 246
-47.4429 386.973 1284.68 255 251 231
16.522 -52.8135 1348.71 27 3 0
-54.0111 369.865 1296.95 233 231 234
-2.36889 -39.552 1126.44 47 38 26
442.587 144.198 1939.42 243 241 233
50.0377 -37.9227 1248.23 74 49 41
517.611 -171.369 1640.29 255 244 237
-74.9563 149.705 1210.07 96 63 51
-72.5003 41.2245 1224.01 65 25 34
-9.12645 -38.4417 1216.54 255 252 231
65.8055 -33.6155 1316.09 129 90 74
49.5845 86.4438 1315.93 255 239 216
351.69 114.376 1916.9 45 40 32
-18.164 -32.3975 1214.94 255 247 231
40.0446 128.303 1233.77 126 90 71
-2582.69 -170.545 3668.56 219 235 226
19.7052 314.011 1297.55 251 252 238
48.3903 93.1423 1296.09 147 98 75
56.2648 132.082 1318.2 118 70 46
624.937 261.937 2020.32 47 77 88
-28.3894 375.449 1288.6 234 230 220
587.898 -76.0316 1936.43 254 248 248
-106.057 39.1809 1158.95 252 185 160
-65.5824 55.0666 1102.6 96 86 71
-105.784 16.8895 1092.85 255 248 217
-9.24392 338.147 1291.95 146 126 116
-89.8076 41.2792 1097.08 86 47 32
102.816 116.616 1327.48 129 106 79
-36.5632 403.267 1333.68 118 100 83
54.9861 122.168 1298.71 244 226 192
-51.1361 289.19 1219.4 116 103 97
121.308 406.047 1406.6 106 104 104
-34.6218 443.186 1246.7 221 213 198
-15.5177 252.93 1304.49 245 228 213
-0.722299 338.962 1247.83 228 202 191
6.68322 223.45 1292.25 253 254 247
-99.4747 65.932 1078.96 121 28 14
116.949 177.699 1382.76 96 79 74
-75.5287 265.39 1227.09 41 35 30
-2.758 425.105 1294.99 123 98 85
61.2822 200.235 1448.42 90 68 55
35.5159 121.759 1294.62 255 226 212
536.631 -33.1559 1703.12 231 221 221
-89.7501 155.288 1206.92 133 104 94
-57.4334 202.294 1230.32 236 219 184
71.4622 167.669 1303.89 130 122 111
54.8205 73.9959 1296.55 123 76 47
48.6443 179.883 1299.65 134 121 112
-82.7854 55.9223 1120.53 153 102 89
58.9288 764.049 1838.13 103 132 120
69.0744 -46.5697 1316.33 143 53 26
68.1661 161.115 1302.97 231 224 226
47.7003 165.582 1367.61 255 252 223
-13.0949 440.522 1362.75 233 226 218
-88.4364 142.557 1151.21 249 249 247
646.082 -84.9743 1821.84 145 130 110
511.968 -123.543 1796.11 172 156 143
559.44 -8.59491 1818.87 100 86 85
-105.404 155.3 1218.95 53 29 28
495.052 -78.7521 1691.52 211 177 162
-98.4887 95.3879 1202.72 255 248 243
-34.7853 276.164 1284.74 150 124 126
34.6893 106.718 1248.36 138 99 66
58.886 396.855 1307.22 114 113 93
519.814 245.041 2001.81 44 72 66
548.908 -157.861 1689.96 254 250 255
478.266 -318.569 1877.27 211 163 153
-5.71004 315.875 1229.51 253 235 220
586.146 -20.736 1711.76 255 245 232
73.0889 839.683 2026.15 185 209 200
49.7179 170.959 1317.43 246 224 209
549.758 -13.0726 1816.76 161 149 146
501.315 -134.93 1640.05 162 145 143
-120.936 430.213 1314.55 146 137 128
-57.6112 126.163 1171.1 155 126 121
-25.7687 86.173 1177.12 255 239 215
-53.7649 351.521 1282.5 154 150 151
681.111 -91.0128 1948.63 252 244 238
684.183 -254.169 1765.92 228 243 226
64.8539 148.138 1301.79 171 131 107
397.724 -240.003 1655.63 70 76 73
57.8118 115.039 1367.44 252 244 215
525.64 -27.2137 1604.51 254 248 243
605.991 -31.1382 1823.24 167 153 137
-34.8562 284.702 1309.55 133 78 78
-38.0019 377.266 1300.39 227 215 198
100.63 14.4516 1259.66 255 240 225
422.713 -264.178 1719.49 96 97 98
-56.9086 268.771 1279.55 246 242 227
578.305 -79.9899 1762.88 247 237 229
593.59 -141.11 1881.39 163 149 138
545.288 -99.1586 1649.62 223 205 173
125.994 46.9863 1403.17 253 217 191
510.404 -14.6728 1754.87 166 151 142
665.965 -62.9751 1900.77 217 196 191
-144.284 475.5 1493.26 182 162 149
-80.9159 185.528 1209.93 255 247 228
-34.7816 304.789 1285.56 252 250 242
-20.1231 220.615 1151.05 128 97 70
-199.349 9.51856 1233.84 143 113 96
-38.9683 398.175 1207.84 144 121 106
-51.8277 204.607 1173.24 249 214 187
-70.5968 34.8568 1021.95 251 240 222
64.9921 203.484 1372.95 152 131 123
613.285 -114.372 1824.74 246 230 204
-122.54 495.949 1499.85 163 158 148
-138.367 70.8756 1137.59 144 120 109
110.658 -98.7783 1340.86 254 251 226
-50.2628 259.708 1258.66 145 84 61
107.778 188.105 1311.87 255 249 238
116.08 57.7051 1328.98 255 244 221
738.482 -263.447 1894.22 179 183 168
570.965 168.273 1840.1 33 28 15
128.742 51.2789 1428.01 206 159 130
-86.8078 161.329 1207.8 250 215 197
541.884 -53.7518 1758.22 107 105 108
-63.1059 258.533 1216 148 154 149
-100.667 146.906 1097.92 200 170 147
48.1041 266.805 1192.95 166 163 149
19.3029 318.727 1246.81 170 159 138
540.074 59.6566 1713.28 151 149 121
58.7346 303.021 1305.36 212 206 194
-1981.3 -114.078 2819.29 123 142 132
10.4197 218.359 1309.71 212 184 182
510.194 -122.988 1642.33 231 210 208
-54.1025 117.185 1213.55 185 149 147
741.578 -153.35 2045.05 251 255 241
-157.017 480.181 1513.32 44 33 20
-86.8268 179.329 1208.39 118 114 91
722.135 -179.873 1900.19 247 247 222
670.881 -4.60405 1960.36 255 252 233
-104.923 431.358 1318.62 114 101 86
-114.775 532.218 1598.73 123 116 105
582.034 -12.3047 1712.11 155 128 114
646.615 -71.6904 1946.54 255 250 254
33.0232 606.091 1453.28 151 173 163
-49.6799 47.9156 1127.33 160 157 153
25.6731 57.6992 1289.65 163 155 151
-15.6794 286.597 1289.26 186 166 166
679.05 -123.587 1898.1 199 153 139
-6.5432 302.534 1188.7 254 241 223
711.012 -187.402 1815.3 178 188 166
-51.1319 280.189 1219.16 171 159 159
-75.8539 213.774 1235.3 213 199 192
-34.8451 313.604 1309.27 160 119 123
746.749 -63.2698 1914.21 143 146 141
540.872 -141.271 1690.91 161 163 162
585.108 159.298 1841.53 77 62 41
-52.9818 412.09 1330.24 181 175 166
-113.557 102.215 1144.34 105 59 39
-47.6688 245.229 1297.35 190 131 103
484.046 -140.27 1586.73 68 49 42
545.086 -63.6771 1625.59 212 196 197
-75.0005 206.768 1211.92 255 249 246
-56.2854 475.059 1332.18 121 110 95
58.7059 290.056 1305.05 246 238 240
6.2126 79.0857 1225 229 162 150
-45.1247 42.3913 1212.54 255 251 242
445.03 207.636 1729.6 61 90 85
-40.1685 72.0446 1159.22 253 228 236
113.78 64.9043 1307.95 255 246 232
653.17 21.4319 1904.32 248 239 229
-62.994 157.505 1157.16 223 204 172
-89.2759 104.324 1063.32 155 134 134
-42.1353 60.4002 1213.95 246 251 243
-48.4784 213.877 1144.86 255 234 208
710.414 -196.19 1813.86 243 252 234
618.48 -203.271 1920.58 101 84 83
-24.6441 -3.46851 1122.8 160 78 55
815.797 -78.5767 2065.33 210 216 206
562.202 214.222 1969.88 103 130 132
95.8798 142.945 1376.87 195 171 154
493.762 159.435 1951.19 42 50 43
-38.3297 264.245 1113.29 252 234 228
-38.002 435.497 1306.97 83 68 62
598.544 279.344 1854.11 171 190 183
13.0489 182.038 1292.2 172 156 136
689.481 64.0405 1913.03 225 219 194
503.147 -310.389 1883.03 131 90 76
-72.0165 191.871 1212.12 205 184 162
757.872 -153.436 2047.92 245 251 245
144.332 75.2692 1383.33 245 231 211
649.643 -17.7439 1831.33 205 195 187
-71.0648 175.105 1104.84 255 247 230
-89.3694 98.8777 1332.5 203 153 153
-88.6644 485.236 1441.56 87 83 79
405.906 132.149 1639.31 115 119 112
-17.1607 -7.69468 1311.36 162 79 54
-63.995 238.853 1054.64 134 130 122
-24.0547 26.372 1234.38 255 233 214
-89.4147 176.412 1298.04 181 179 152
