-6.38639 399.487 1193.76 9 10 7
-42.6402 370.667 1133.28 255 248 236
11.0029 374.452 1144.42 254 251 246
2.63305 -21.7486 1023.91 234 212 205
-48.2208 353.197 1131.3 254 251 249
-0.362716 322.194 1092.37 51 38 34
12.4513 32.5936 987.209 59 16 3
-3.30056 -16.1936 991.702 45 31 24
10.0534 -21.0123 1052.1 255 244 232
15.2803 -26.231 1052.76 77 54 39
643.496 -143.882 1389.31 250 249 242
110.375 428.413 1247.12 180 185 199
815.885 304.847 1630.73 48 66 67
50.059 94.4032 1064.41 237 205 188
559.816 -33.243 1285.5 117 111 112
26.2745 38.9259 1171.49 44 0 0
178.233 382.671 1285.17 46 41 34
64.4001 145.052 1141.55 116 81 53
119.107 129.071 1149.84 91 59 43
615.631 209.974 1391.29 37 83 93
53.757 171.539 1094.77 255 241 230
631.997 5.52185 1419.52 240 246 245
-11.3116 242.614 1086.48 246 231 225
5.08473 328.004 1093.67 255 251 242
-97.5749 58.5519 956.293 229 220 215
735.457 234.02 1614.75 229 255 255
137.039 187.583 1196.38 60 32 17
-79.5277 56.2297 997.637 68 55 44
53.5582 157.359 1128.54 99 62 53
87.033 181.97 1169.93 126 107 94
8.09833 348.416 1142.65 207 198 187
55.4812 115.625 1066.23 238 228 204
5.28398 362.55 1142.75 198 192 187
116.656 425.627 1248.08 27 34 37
-51.4578 283.822 1080.41 92 99 90
-62.5313 210.154 1092.71 238 205 177
1.69745 317.145 1117.31 239 227 212
600.589 -11.0788 1290.67 254 250 245
63.4622 131.864 1113.83 243 218 190
48.2181 160.473 1093.12 255 247 233
644.53 -132.403 1394.93 245 245 241
50.0891 102.347 1064.75 101 62 38
45.9337 -14.8241 978.804 131 86 74
104.103 431.193 1246.15 46 49 56
-94.2149 71.96 977.317 98 65 62
27.9653 312.291 1144.8 247 255 238
82.8248 177.242 1186.48 236 228 213
-31.4339 374.342 1135.78 128 104 84
14.5352 440.271 1200 49 51 49
570.354 -110.916 1322.94 156 138 133
662.323 -54.7031 1345.42 236 230 218
652.948 -58.618 1401.4 255 250 241
-51.4544 275.695 1080.04 122 121 125
51.2121 113.118 1079.5 119 89 68
72.9592 161.115 1097.51 217 201 182
679.207 -140.737 1391.84 220 219 195
698.228 -12.0354 1418.4 230 206 208
588.637 -29.5003 1333.87 210 206 211
44.8853 139.249 1065.31 134 104 81
40.4222 118.237 1077.72 131 96 78
15.9769 -33.2076 1068.97 192 177 175
-17.6466 -11.5906 1020.58 204 182 162
-30.0912 285.028 1084.82 252 248 238
122.945 422.848 1249.02 116 120 142
7.76997 435.297 1174.71 165 166 170
673.951 -13.6885 1408.56 209 190 179
24.0846 34.5708 1126.22 255 247 226
92.0297 403.092 1161.02 150 162 183
-39.8453 356.65 1133.22 123 110 102
-80.3851 154.025 1042.13 111 63 59
585.338 -143.272 1320.03 209 203 198
36.8537 125.831 1063.38 255 239 217
728.445 -15.9399 1459.68 113 94 82
692.178 -287.616 1371.06 52 71 68
720.203 -30.3137 1457.76 231 215 210
-3.08606 316.554 1091.59 128 108 98
-31.4658 264.868 1106.77 150 148 141
629.909 -18.9685 1415.11 221 211 215
68.1867 -21.207 1061.98 101 31 4
-60.2075 71.9918 1104.3 96 73 59
73.324 124.183 1131.31 150 87 56
845.21 -52.7997 1479.72 233 243 234
-9.03488 244.626 1066.2 251 226 219
7.24973 179.027 1043.6 53 26 24
-95.6369 153.554 1038.98 237 233 237
-25.7724 431.941 1139.35 204 197 176
104.835 147.355 1137.38 163 144 122
-91.0468 -80.9014 1171.99 20 21 14
64.6257 149.971 1095.38 125 96 81
-3.95653 410.535 1170.6 213 205 202
-105.091 75.5928 977.476 255 184 174
630.217 -74.392 1341.2 227 213 190
-0.429286 411.964 1195.61 169 166 165
42.644 138.543 1090.79 235 196 173
-3.34801 296.25 1137.77 141 122 117
25.1571 90.2684 1018.12 251 234 205
-60.3052 66.0131 1014.66 140 126 122
-113.146 88.8744 1032.93 255 216 197
-105.46 77.1332 966.694 164 83 56
127.652 41.3023 1120.18 254 245 221
-20.8681 -9.70205 952.109 237 211 197
37.857 307.895 1099.01 160 162 137
-20.3243 425.89 1119.76 241 240 227
639.349 -143.693 1323.37 213 193 175
-62.5577 261.844 1094.48 147 141 131
674.952 -51.7777 1403.71 249 237 237
5.48243 206.957 1029.32 255 247 252
-77.7882 209.948 1071.25 250 246 231
537.64 -248.485 1370.78 208 177 168
7.53391 303.236 1215.96 179 156 146
70.0647 149.336 1053.08 130 90 70
672.786 289.5 1538.73 148 194 208
-50.4831 360.43 1182.29 254 252 251
-39.0973 296.343 1040.09 181 155 160
-6.42662 421.337 1122.37 243 245 240
-48.7272 346.215 1164.05 186 179 178
-120.621 38.6117 988.768 209 192 168
-59.1843 51.014 1066.05 141 137 125
80.8858 -10.1107 1152.63 255 235 212
-64.5507 141.091 1070.28 126 100 85
-75.2252 75.8263 1012.01 137 151 140
690.429 74.882 1544.53 195 186 164
5.37323 408.541 1144.75 121 101 88
778.69 -45.9096 1563.76 215 190 182
664.273 -282.095 1305.84 136 161 163
45.4589 327.69 1174.47 244 239 222
633.054 162.285 1425.18 59 57 54
702.651 220.766 1591.31 78 122 129
-11.27 272.469 1087.97 143 123 116
710.702 -64.1662 1408.85 171 143 139
-86.0344 95.384 982.224 208 204 204
564.416 -276.077 1435.46 181 152 146
597.474 -111.091 1324.85 234 232 234
543.53 -114.484 1237.01 192 179 171
804.231 300.089 1706.08 124 153 152
134.633 200.869 1179.14 239 234 214
-51.3315 59.1512 1005.13 255 245 237
611.64 -102.906 1369.03 148 131 119
-115.723 114.447 1033.35 67 33 24
29.1411 226.073 1065.45 170 159 156
-106.336 102.644 993.919 226 188 174
693.64 -41.4648 1406.21 238 218 203
-43.0548 104.359 1159.73 185 119 108
659.804 32.0706 1359.94 251 247 213
163.585 90.1562 1178.31 255 248 228
-77.0946 63.677 998.382 240 214 204
-30.2036 99.2905 1008.56 247 216 197
590.975 -213.61 1311.42 141 132 133
719.649 265.654 1533.26 123 150 151
-32.7572 320.207 1085.86 148 118 117
14.3709 284.236 1123.48 228 178 163
31.7501 185.499 705.846 120 111 92
623.402 -277.051 1369.23 82 52 45
701.97 169.282 1889.8 90 94 83
3.04803 236.965 1073.07 130 87 79
40.403 253.095 1096.85 189 179 180
546.888 109.315 1753.13 98 92 80
664.571 -246.746 1360.18 151 156 145
2.61178 448.327 1197.91 11 11 12
16.4779 285.921 1141.16 121 89 77
-46.7192 74.5192 1027.91 254 251 237
-8.42539 106.101 979.292 255 237 214
778.873 317.002 1706.05 122 165 170
-8.02834 361.084 1048.47 180 175 173
-11.9926 423.728 1121.36 171 171 162
-117.146 45.9268 963.737 211 118 96
766.887 338.39 1707.49 116 144 146
-81.3892 178.683 986.902 249 237 217
129.904 81.7349 1088.18 187 125 97
2.28772 285.182 1138.31 254 238 235
42.9613 80.4009 1020.78 247 216 199
810.993 76.7747 1584.08 245 247 218
705.633 247.344 1585.03 140 162 158
7.31673 207.551 1045.05 250 239 234
759.931 234.147 1615.69 128 164 155
-67.3205 245.286 1075.25 125 128 112
65.1807 303.508 1132.84 239 235 212
-116.98 57.7541 1003.27 203 133 108
872.319 -208.771 1538.82 238 245 219
144.42 63.7549 1078.31 242 224 206
-112.59 51.6593 938.892 111 27 8
-62.0331 240.168 1076.1 163 153 114
57.9742 -12.4007 1098.23 255 221 213
679.674 -86.2154 1399.41 249 233 224
621.365 -38.8448 1375.06 209 199 199
-31.4213 400.05 1136.89 234 216 201
843.808 -63.6785 1477.37 239 253 237
-57.174 259.388 1095.5 196 194 168
516.42 -191.48 1157.11 52 50 38
-67.239 183.658 1072.08 233 192 158
75.3733 204.881 1168.81 183 154 142
-56.3532 116.659 1008.08 155 148 144
-40.1229 251.846 1011.27 241 232 235
454.824 -235.077 1362.19 167 164 151
660.407 -179.185 1319.86 180 172 164
-59.7262 42.0475 883.208 253 249 227
-22.0718 242.124 1084.33 231 177 172
639.772 -194.852 1262.55 189 166 154
-51.7772 237.827 1095.89 150 77 61
-41.7294 450.668 1188.6 119 116 99
-24.0357 352.251 1209.11 249 196 199
809.633 -100.921 1643.34 168 152 139
101.356 485.634 1129.56 61 96 81
441.129 -276.511 1581.91 65 63 47
519.239 -233.896 1438.01 79 84 77
100.653 399.337 1242.88 163 155 139
-103.706 158.421 1062.94 132 125 123
88.2573 414.344 1241.75 137 123 108
599.658 209.483 1523.51 37 56 54
91.3811 292.505 1155.61 178 165 145
-74.7069 242.674 1030.67 116 101 100
102.861 311.289 1235.39 253 242 223
-47.6042 387.896 1297.94 175 162 160
115.862 40.5014 1136.22 221 201 184
44.4895 353.994 1057.89 134 132 100
681.879 52.7772 1417.22 134 141 116
126.717 561.339 1305.15 183 230 215
40.4153 75.132 985.395 195 155 144
-51.4431 251.421 1078.87 141 83 54
-67.9359 272.472 1093.7 205 203 205
-14.2205 83.4978 1076.86 255 255 249
164.591 60.784 1230.72 224 201 178
-642.396 -291.116 1530.97 98 111 103
