-33.4393 289.47 885.521 243 243 242
-202.924 114.087 857.966 255 246 240
-25.9063 320.947 858.523 214 211 207
-399.251 45.3841 1364.9 221 206 201
-8.15555 21.8781 993.093 249 255 252
-477.85 1.39781 1328.26 224 208 192
-411.119 83.6461 1441.74 65 49 41
-93.473 246.248 854.044 204 206 198
-450.876 -13.2641 1320.72 220 204 182
-403.64 86.0499 1368.66 202 187 182
46.7033 343.616 900.972 194 182 177
-417.283 76.3322 1438.2 208 190 177
-542.66 8.30701 1374.67 243 230 204
-418.297 429.925 1422.63 55 57 52
-40.1637 40.8686 1004.65 109 120 115
-47.8666 42.0912 950.793 246 239 237
-341.948 85.1143 1468 246 239 236
-123.595 24.6151 1095.58 226 212 220
-125.572 35.9423 1072.13 246 235 216
-26.4209 17.6849 1028.57 255 255 251
125.897 370.627 1017.55 237 207 195
4.01315 289.347 892.051 233 226 219
-13.086 16.9314 991.96 8 26 19
107.885 233.746 971.134 28 24 29
-420.119 -15.5004 1224.13 223 209 192
-114.636 203.566 794.818 89 105 94
-533.61 200.689 1493.84 77 53 44
-520.049 516.385 1763.73 226 228 223
-288.468 281.784 1162.34 64 61 55
-220.379 109.037 885.006 185 181 177
-462.871 -11.7295 1332.58 222 179 155
-355.206 71.8917 1530.44 204 168 157
8.90092 280.664 902.951 246 236 227
8.41656 271.765 892.107 252 227 216
-505.436 199.439 1420.63 242 237 225
-417.014 69.1942 1437.2 106 85 76
53.3312 246.833 844.974 3 2 0
-118.431 177.779 793.527 183 182 176
-163.734 73.8014 965.136 124 107 103
40.3566 356.677 966.235 242 244 240
-213.466 132.322 872.891 251 247 232
45.2002 357.004 967.072 205 221 224
-30.2437 21.8267 989.192 88 91 79
-101.798 293.197 816.678 157 156 151
107.796 223.892 970.58 42 31 29
-497.744 60.4981 1402.73 223 217 213
67.1756 375.459 971.512 185 181 186
-280.184 105.71 920.22 233 210 191
-224.819 115.988 825.016 237 235 227
-21.7071 261.112 857.274 205 194 180
-229.44 290.125 996.19 241 239 240
-186.746 140.111 862.254 231 254 251
71.7951 345.833 936.963 240 212 203
-2.32471 273.355 900.901 219 206 197
-154.386 59.583 966.53 64 57 68
-45.1139 30.9152 1003.33 255 252 251
-395.171 91.2201 1449.08 229 221 215
-512.605 51.1986 1431.42 196 189 178
-509.605 541.196 1773.42 92 97 92
-510.49 11.8662 1389.53 163 142 132
4.65411 32.255 974.021 230 255 255
-130.711 22.6844 1070.39 217 223 218
-362.578 67.4704 1439.58 174 172 167
-543.912 253.831 1644.9 148 128 107
-108.86 209.782 795.982 48 50 49
159.168 331.276 1020.68 208 161 151
-474.554 235.879 1439.88 86 69 58
-175.937 113.8 880.467 78 89 88
98.3702 269.855 971.687 173 162 159
-143.41 52.2331 1006.97 196 161 168
-75.6738 174.075 817.54 51 72 82
-29.0755 313.151 875.294 198 173 159
117.771 169.552 935.259 83 54 50
-163.213 106.067 897.304 75 116 111
-168.078 112.896 865.246 226 231 231
-82.5747 18.4492 1059.38 103 45 42
-320.024 11.8838 1388.86 0 6 5
-136.315 105.659 841.978 88 113 115
-0.189961 29.8176 973.107 106 130 123
-156.809 78.6434 966.873 93 97 99
-485.972 330.314 1612.33 188 198 198
-243.429 130.827 913.614 60 51 43
-428.945 -33.2191 1416.51 146 120 105
-265.651 252.538 1047.91 193 192 185
-128.588 18.8096 1076.2 108 111 105
-541.18 93.9812 1389.11 247 235 217
-90.3035 8.02439 1057.14 212 214 210
109.869 221.183 985.121 192 152 151
-206.534 234.519 860.081 244 244 240
114.936 233.749 986.37 197 193 195
-102.214 304.266 833.127 121 120 117
81.7812 359.307 973.259 232 165 150
-74.0813 320.88 867.253 200 177 164
-62.3783 50.6018 1000.84 84 87 80
-39.1084 5.00981 1025.46 216 183 169
-447.255 290.54 1379.01 159 140 133
-40.7733 10.5552 1067.21 255 214 197
-153.786 106.247 854.983 173 207 205
111.483 258.524 939.256 155 173 165
-120.452 255.459 821.121 182 180 172
-481.001 427.645 1560.68 87 82 79
12.9269 298.796 893.903 190 155 144
-42.5204 296.516 831.873 129 93 77
-21.3412 4.95057 1028.73 77 79 75
-8.085 246.635 813.411 161 138 128
-307.093 8.47281 1392.8 42 42 35
-323.689 38.0227 1467.27 173 156 151
-147.03 172.722 788.175 255 254 242
139.529 315.729 980.304 60 27 15
-546.159 76.5434 1384.08 235 218 201
136.989 294.256 1072.67 196 170 174
-399.692 58.9294 1366.53 182 163 159
-469.213 -21.9386 1357.27 191 166 132
-46.1306 70.0741 918.461 42 99 91
-95.2359 168.799 797.406 58 77 74
-142.947 108.142 822.131 70 101 89
-69.083 332.347 828.864 196 179 167
-116.999 306.655 890.183 201 197 189
-107.008 187.471 776.932 51 50 48
-341.9 -1.82753 1379.43 157 190 182
-276.264 106.813 939.975 187 164 146
-316.708 30.8113 1468.62 64 60 55
-322.539 -1.79418 1461.47 87 94 87
-165.203 61.9721 1002.62 222 215 222
-141.587 46.735 1048.4 249 212 198
-472.366 158.152 1351.64 87 72 60
-103.524 187.177 812.951 94 101 100
-105.772 15.7957 1054.38 142 124 127
-58.7841 344.082 858.199 189 180 175
-80.1108 238.112 808.33 120 124 119
-409.797 268.782 1331.19 54 62 61
-37.8017 322.436 885.915 65 40 30
-83.0856 230.757 807.611 19 15 15
55.1711 307.232 932.81 34 71 70
-72.5681 16.7315 1038.38 80 31 25
-58.2733 184.706 811.167 161 160 159
-446.088 301.985 1392.18 216 198 195
164.509 344.395 1022.17 160 133 125
-505.535 116.311 1332.43 225 199 185
-105.055 11.7028 1143.1 183 181 185
-459.605 205.665 1369.5 51 50 40
-79.5656 96.0831 798.222 226 232 232
-95.8739 314.024 818.4 221 224 213
-236.169 282.614 1017.29 250 250 247
-219.646 130.4 952.912 68 76 63
-110.219 11.1422 1097.65 165 161 153
-179.669 76.6282 1000.05 247 237 220
-470.764 298.62 1450.84 213 192 179
98.2748 257.628 971.03 192 171 161
-107.374 45.761 975.702 230 213 212
-144.286 143.22 732.831 200 213 201
-487.494 104.371 1268.68 160 134 120
-190.348 109.504 847.411 49 78 68
-528.198 219.965 1499.76 151 129 110
23.8017 205.493 891.84 106 49 24
80.1305 227.941 901.594 80 44 28
-513.219 96.1815 1326.44 164 140 127
-595.021 -18.1399 1345.93 134 132 124
-522.468 417.647 1634.41 125 129 127
-576.609 1.46372 1357.92 255 252 232
-183.547 61.7537 977.473 238 233 233
-73.1447 18.9321 1021.37 233 184 170
34.8672 183.63 892.567 147 99 82
88.8802 315.671 972.506 24 42 47
-101.192 60.293 941.603 188 161 156
-515.625 274.963 1592.09 68 56 48
-86.3749 242.621 827.033 48 53 46
-525.568 231.589 1503.01 255 255 241
-482.702 139.311 1347.65 62 49 35
-190.541 64.1715 975.969 110 110 111
-446.589 312.678 1393.86 178 151 139
-193.023 98.7377 890.689 217 220 210
-109.769 52.94 975.565 108 99 102
-522.253 49.0512 1470.83 227 211 197
-65.7719 299.609 823.401 115 89 77
-114.575 72.1326 975.501 146 113 100
-104.841 3.02564 1098.27 203 202 191
-105.687 250.997 744.747 117 112 99
25.4448 269.9 882.584 87 51 37
-540.197 450.649 1796.33 189 170 149
-118.99 50.0065 1012.1 220 220 204
-85.6367 167.599 815.526 58 72 68
30.707 268.384 895.673 73 24 12
-508.51 282.849 1519.56 171 149 124
186.93 412.716 1050.87 96 77 68
-102.188 8.45405 1099.22 185 175 167
-366.865 30.4344 1450.38 151 120 115
-235.509 118.577 898.646 125 132 132
63.041 318.916 979.003 31 55 71
-388.05 329.159 1348.28 202 191 181
-51.2567 332.041 854.446 189 173 168
-440.366 383.076 1567.33 243 240 234
-346.198 39.1349 1383.38 190 164 148
-73.4993 46.5496 946.294 114 77 55
-101.286 3.75441 991.433 147 146 135
-302.383 100.064 1011.18 155 145 127
-420.86 -31.7258 1346.45 134 119 98
-443.587 239.79 1308.15 201 181 161
-92.2202 311.694 809.843 83 83 75
-61.9111 63.0082 915.358 77 107 110
-271.57 370.968 1230.02 113 119 115
-106.128 11.0735 990.747 117 109 105
-79.9664 370.376 839.93 134 125 124
-575.273 422.996 1839.9 235 208 181
-90.4165 326.025 799.023 236 239 224
-461.174 62.2766 1401.99 145 140 138
-113.522 101.159 875.664 180 163 160
-119.231 52.8353 973.626 163 118 98
-312.709 140.953 1054.44 147 146 146
-62.7847 20.0259 1013.08 191 177 159
