352.515 132.578 1198.98 255 249 241
-392.454 440.795 1137.05 255 252 247
-432.589 459.754 1220.72 218 219 217
-161.248 441.451 1206.98 218 212 209
-397.839 51.2603 1023.47 249 247 227
-412.599 440.902 1130.19 85 83 80
-474.484 198.971 1031.3 68 57 44
401.44 98.8162 1151.43 241 225 224
-404.439 110.604 1049.06 97 80 64
275.154 -18.9731 1083.07 234 223 219
581.797 157.672 1168.92 248 255 254
438.654 -116.644 1002.97 206 215 209
-346.149 199.244 1066.27 255 248 227
285.704 -157.583 1194.19 214 217 228
-365.392 203.378 1060.53 213 190 178
-319.507 237.986 1045.98 237 229 217
-222.691 474.958 1247.67 251 253 248
-381.722 106.541 1009.8 66 46 38
-429.374 444.454 1220.12 211 205 194
-253.112 98.5025 1068.23 254 250 218
477.259 -125.652 1079.73 241 255 250
524.835 27.5971 1147.24 82 91 71
-399.312 396.47 1167.83 251 255 245
-360.887 214.324 1062.86 229 209 195
-327.998 198.076 1053.28 58 31 16
510.8 -79.1717 1079.87 236 255 255
-425.92 414.541 1174.03 84 64 52
370.603 126.733 1199.83 255 243 240
-355.189 174.762 1061.43 255 235 216
-343.979 210.027 1067.83 242 225 202
-253.265 111.705 1068.98 255 250 230
-335.632 174.337 1005.62 85 51 31
381.621 126.552 1184.57 222 204 201
376.157 121.677 1152.44 91 64 62
-246.175 150.282 1121.29 231 218 205
607.987 149.115 1216.06 195 201 191
-372.134 47.7827 926.439 201 183 162
349.952 -128.022 998.354 182 162 149
-271.653 275.785 1143.65 133 90 79
495.016 -147.682 1147.8 50 55 57
-369.016 248.653 1111.06 231 216 198
-544.583 128.863 1052.62 200 220 203
-379.834 649.418 1342.5 66 64 61
575.034 110.846 1161.6 245 255 249
-243.217 115.723 1045.53 255 254 234
407.614 -154.67 1035.32 39 66 64
-257.817 122.159 1024.12 247 226 212
213.747 -78.8861 1017.37 180 181 174
-410.401 528.705 1251.84 82 85 82
394.223 138.508 1186.97 255 249 240
-387.564 210.708 1135.21 88 59 41
216.49 -130.752 1140.53 23 25 23
-248.26 111.864 1070.32 237 229 209
-469.994 460.687 1207.57 138 134 122
-427.427 451.068 1178.46 93 95 92
-349.703 249.887 1069.3 246 234 222
369.128 3.6177 1079.82 250 250 232
-262.817 101.718 1089 255 250 230
-331.642 57.5533 1000.69 82 15 0
446.624 -54.7916 937.812 251 254 237
-349.617 222.372 1096.27 152 114 79
611.693 120.697 1231.94 235 243 234
277.952 -14.768 1069.57 254 253 251
-196.516 293.967 1132.07 255 244 223
484.883 -4.62005 1087.08 254 254 233
-183.474 369.786 1205.82 255 249 238
-362.245 235.251 1093.29 128 100 80
383.986 -145.068 988.279 239 250 250
464.156 378.955 1411.08 224 250 255
440.093 6.78233 1177.02 242 223 207
-245.617 131.37 1090.39 224 207 201
576.717 131.289 1164.78 219 227 219
-238.671 141.838 1048.64 255 238 226
378.136 -10.1058 1122.95 253 245 221
626.482 -131.57 1263.83 106 120 97
-248.103 115.561 1044.21 253 246 232
-472.119 185.018 1031.8 100 75 69
-438.117 350.868 1097.62 254 247 235
-223.741 184.831 1081.02 254 250 234
-278.294 299.294 1175.19 235 221 204
570.477 163.519 1169.43 233 246 232
278.286 103.495 1123.4 182 178 176
-378.315 398.549 1136.81 237 237 220
423.159 351.207 1285.04 183 213 232
-232.266 247.733 1212.5 251 240 231
358.378 51.0169 1098.37 248 229 218
303.405 -0.304033 1087.73 226 213 214
432.15 352.548 1261.81 52 85 102
407.479 -3.25042 1137.72 203 185 171
294.491 -9.53128 1071.72 253 229 232
443.442 -81.9896 1119.75 89 77 68
503.59 338.396 1347.52 93 118 133
-396.602 349.906 1111.44 93 86 87
262.113 2.42047 1084.34 255 253 246
-368.827 338.683 1119.42 157 153 155
-394.369 373.314 1080.22 255 247 228
301.036 144.026 1195.26 205 199 196
-228.95 152.645 1052.01 227 215 182
439.234 -118.624 998.836 219 232 226
432.924 348.186 1285.66 214 249 255
279.847 -145.13 1100.16 236 176 157
-351.609 240.109 1122.17 86 61 44
284.747 18.4675 1088.32 229 227 230
-433.854 427.946 1159.33 106 104 90
-380.661 685.422 1398.9 118 122 117
262.476 42.3493 1116.31 236 223 217
401.228 126.989 1202.38 106 76 71
568.104 476.892 1433.83 75 115 130
-254.98 253.715 1052.22 87 69 61
408.253 -126.016 1074.6 111 114 110
289.644 2.33004 1051.46 249 249 251
-309.849 224.073 1006.51 99 73 43
-340.604 599.022 1226.45 202 204 201
-444.091 386.585 1099.02 119 112 110
382.35 203.45 1244.01 206 201 184
595.571 182.857 1221.16 223 235 223
-414.669 475.535 1170.58 87 85 82
277.619 28.0544 1096.43 109 89 94
261.6 -14.7124 1067.85 201 188 184
330.155 -164.559 1235.16 219 174 180
620.667 105.68 1252.14 203 215 206
-490.816 118.748 1042.51 151 142 142
-206.42 237.054 1274.66 198 166 141
-260.289 129.681 1023.87 226 169 133
-493.642 268.032 1069.61 251 255 232
283.642 50.3837 1143.07 143 107 105
-230.895 178.303 1098.26 230 216 179
-408.04 672.675 1404.28 88 88 81
-403.988 349.133 1108.92 127 122 127
391.143 127.549 1154.39 236 217 213
303.981 -182.802 1245.8 235 211 186
-415.117 146.819 996.226 255 246 241
463.762 315.15 1231.62 111 133 143
444.496 369.936 1409.75 45 82 94
388.292 -119.776 1077.84 156 157 146
-276.761 116.497 1018.82 237 209 201
-229.052 160.502 1052.56 248 236 240
-447.389 435.915 1169.18 225 222 207
-279.875 211.218 1087.16 174 133 111
573.862 315.966 1402.14 191 193 185
514.351 345.523 1349.35 89 112 120
587.265 47.6812 1190.86 213 228 211
424.013 136.444 1158 128 111 102
455.915 224.909 1219.83 239 236 213
564.386 -22.5181 1180.73 238 255 247
-484.335 269.847 1082.01 233 213 186
-406.599 455.245 1141.6 148 151 144
349.376 -111.03 938.997 216 215 215
-228.578 149.765 1023.25 248 225 198
-194.697 335.565 1200.7 151 124 107
-427.954 329.059 1110.91 152 141 134
522.458 290.566 1290.33 248 248 242
453.524 130.298 1206.56 216 199 184
-209.762 214.272 1061.46 253 240 215
-469.433 297.689 1081.43 96 68 50
-181.137 302.321 1091.55 232 210 194
484.372 -63.1791 1080.5 164 160 155
-433.939 370.947 1100.97 255 237 224
-418.135 330.622 1102.48 252 252 247
548.463 45.6508 1140.6 229 245 240
-319.484 64.991 964.264 109 39 17
483.55 -85.0764 1008.1 243 250 229
410.703 -51.6168 1121.03 200 202 180
335.433 -14.8726 1075.12 210 179 154
362.316 217.358 1210.68 240 238 213
-266.488 165.76 1087.33 255 239 239
-254.148 188.132 1092.62 151 132 109
-250.841 324.193 1131.09 226 221 209
317.204 99.5307 1175.07 170 162 175
-288.027 184.852 1193.37 189 138 109
-481.146 351.383 1134.41 160 150 152
-420.462 58.5185 1016.64 195 196 188
556.329 469.238 1499.07 129 167 175
343.371 207.917 1207.59 97 106 86
276.096 21.187 1162.78 252 250 253
-259.096 135.911 1116.79 251 231 214
271.205 113.303 1097.58 179 160 157
338.719 -186.363 1248.62 202 181 167
533.585 -27.6674 1095.38 229 242 219
-205.318 215.339 1035.12 255 241 221
-205.91 235.274 1248.64 175 149 131
-483.528 406.044 1196.14 152 143 135
282.763 47.21 1134.7 224 204 201
513.232 -39.4015 1084.62 221 227 223
-435.489 324.538 1147.88 234 209 198
488.304 -83.7075 1037.59 194 211 196
358.499 64.1087 1190.21 250 233 211
-479.047 360.404 1136.17 152 126 126
277.185 61.5057 1166.79 236 228 217
265.533 50.6464 1117.4 168 147 142
-415.77 486.738 1187.33 171 166 160
-437.486 331.357 1095.96 254 245 242
316.136 72.8996 1081.09 255 243 231
-249.599 258.991 1026.94 199 178 152
438.004 436.323 1416.38 86 108 117
278.654 2.38544 1085.88 216 214 216
-444.011 352.764 1147.91 252 251 253
318.882 55.8879 1171.06 199 152 134
-528.207 187.808 1048.08 254 253 246
374.433 94.8606 1104.98 244 210 192
520.516 -10.0296 1088.32 234 236 226
-427.75 111.995 912.427 229 221 216
299.632 198.758 1153.98 146 137 110
277.94 90.5027 1169.57 202 186 184
229.286 -81.9758 1039.3 125 130 129
-375.832 169.213 1111.03 255 240 223
272.205 89.5222 1121.51 238 219 212
-295.231 110.393 1057.43 252 244 238
472.037 375.928 1356.82 91 133 144
-537.454 147.291 1027.62 243 235 219
-417.035 361.841 1118.94 112 105 97
361.779 -46.7984 1046.07 179 164 144
263.385 -167.157 1243.5 216 206 211
-307.091 99.0578 996.722 186 140 124
330.599 84.177 1143.8 226 218 212
603.04 15.3224 1187.3 236 245 232
-401.806 306.504 1074.85 207 177 163
420.518 73.1099 1149.24 136 117 113
-256.007 312.419 1128.98 237 223 217
394.958 127.102 1137.87 154 122 114
-508.708 196.156 1017.54 249 254 255
450.936 -138.454 965.449 239 246 233
-220.976 211.866 1103.65 229 216 189
-439.194 359.188 1150.29 154 139 138
272.83 -100.778 1061.2 162 162 140
-229.145 582.663 1202.67 96 126 112
263.84 56.1388 1090.59 235 231 221
509.542 521.122 1443.31 121 153 151
-258.581 306.626 1127.92 180 165 156
-490.539 246.797 1068.56 221 212 196
-218.283 370.988 1087.97 163 148 127
578.642 100.998 1197.01 233 247 237
-512.206 116.717 1014.51 247 228 213
-375.604 508.571 1160.57 101 101 94
285.247 35.9843 1133.57 208 174 164
489.955 248.259 1277.37 215 207 186
407.385 -82.7586 1043.74 160 142 138
548.266 -46.6299 1129.38 201 217 184
416.038 419.907 1291.89 63 94 103
339.779 -5.4565 1049.66 217 231 217
-334.165 385.463 1134.42 239 237 212
507.449 -111.105 1042.34 216 234 207
-487.35 436.42 1198.39 248 249 248
-349.477 92.8117 1114.74 165 115 91
367.923 110.927 1076.19 71 49 45
-297.852 102.79 1073.17 248 232 215
-383.221 314.582 1112.56 176 171 166
358.574 84.5509 1130.5 221 206 207
349.706 79.3287 1176.68 255 243 235
-242.878 164.576 1097.15 230 218 208
334.715 62.0287 1126.02 224 168 146
-283.551 91.6951 1036.33 198 130 108
-497.745 128.776 1040.76 239 241 228
354.241 42.6516 1126.11 233 222 193
-471.155 346.722 1137.54 246 238 235
362.747 320.232 1274.97 87 87 76
1074.81 -180.003 1585.53 91 93 91
-270.877 147.273 1089 245 225 206
-233.832 176.319 1077.91 255 241 199
-418.389 339.005 1103.19 255 252 254
-259.065 176.992 1090.34 224 208 177
-270.997 26.1494 1015.71 234 224 187
-405.162 -54.5149 1224.71 67 67 60
-503.609 373.551 1245.21 174 172 166
-545.611 143.306 1073.67 154 157 145
346.136 74.5704 1031.26 232 208 193
-439.059 306.309 1092.97 157 104 93
514.835 246.247 1334.4 228 224 202
-447.346 128.862 1072.87 255 249 226
-440.626 168.586 1016.81 242 202 183
-266.398 160.362 1086.92 238 203 172
437.435 -210.593 1200.64 36 93 90
-412.192 295.219 1101.07 250 247 246
476.775 -225.113 1301.62 69 108 106
-339.003 370.516 1131.63 165 165 150
302.528 112.469 1144.55 179 186 189
-482.57 328.236 1090.54 249 245 246
-504.374 253.581 1064.11 250 246 233
-492.348 126.743 1124.46 255 217 197
-228.418 288.643 1122.68 205 174 155
-467.716 236.066 995.502 208 205 186
-332.713 67.1844 1016.73 163 76 44
-449.217 137.549 983.994 234 219 205
-342.096 281.704 1122.75 173 153 144
-518.127 159.915 1003.45 233 227 221
-493.206 135.775 1016.66 184 187 180
-435.92 55.7566 1011.41 107 87 77
231.196 -182.986 1313.66 157 143 122
-269.757 154.901 1115.08 243 181 141
449.674 -176.704 1108.84 170 195 191
284.547 12.6256 1047.39 130 129 130
228.479 -198.984 1291.95 87 80 67
-498.86 209.428 1015.22 232 230 230
477.876 198.683 1324.33 145 141 137
328.885 80.918 1099.58 252 246 251
-344.325 87.4331 1115.97 172 90 60
-481.14 135.796 1097.17 243 211 197
-521.258 184.95 1177.14 219 142 126
410.977 197.703 1246.59 183 181 175
-279.367 374.281 1294.08 121 87 76
-264.323 155.824 1013.92 247 226 197
460.108 183.586 1265.83 253 249 238
-432.31 317.26 1107.81 189 163 150
-505.211 218.705 1060.17 122 105 95
416.997 160.968 1259.24 249 229 206
547.641 413.197 1337.29 108 131 135
-428.701 404.892 1072.02 194 188 176
-444.718 373.236 1149.85 249 216 204
538.208 401.982 1311.68 224 243 241
-269.921 251.993 1072.64 252 253 254
559.865 461.856 1431.12 103 154 172
499.935 251.665 1278.54 228 214 196
407.602 350.968 1403.45 79 80 67
456.462 -154.168 1075.24 188 235 228
432.118 -66.6763 1012.93 140 135 129
-408.95 -56.2003 1262.5 116 132 134
-135.62 482.399 1450.19 99 90 80
-290.64 106.319 1081.75 242 229 220
243.956 -0.185116 1016.98 173 163 159
-276.379 138.053 1049.35 249 207 176
231.462 -181.626 1238.07 139 124 117
349.143 62.1025 1127.48 167 105 83
