18.8592 -39.4152 1168.18 255 252 236
-27.2619 342.628 1131.6 250 243 223
-24.4116 49.886 1167.04 36 16 9
-16.0486 446.899 1250.07 240 241 237
6.32873 -33.664 1231.35 255 243 238
336.302 162.289 1935.23 235 235 224
424.561 -142.837 1598.9 255 249 241
13.1061 -36.0072 1096.41 91 71 64
381.732 -194.314 1507.68 192 198 197
60.33 127.832 1261.4 112 85 62
256.813 140.524 1932.27 56 51 46
-16.4848 366.925 1216.07 66 46 38
45.9684 90.0103 1161.97 61 12 9
10.9318 327.726 1273.75 255 242 234
492.502 264.227 1982.18 66 88 102
8.58674 335.189 1248.91 106 91 84
71.7188 -30.1378 1288.28 94 9 8
-72.2075 26.3311 1061.94 253 192 175
-22.3155 364.655 1244.03 40 36 27
-67.4022 57.9919 1158.62 251 233 216
-59.0179 41.6045 1110.56 247 254 245
7.78347 334.019 1273.7 70 47 32
463.28 168.695 1756.46 44 45 38
71.5985 -42.7419 1286.87 103 46 13
-67.2296 60.7947 1110.14 179 80 57
0.56285 -31.4814 1132.37 71 37 26
-72.2181 31.598 1062.26 87 13 4
-33.0404 122.517 1170.71 103 80 63
63.2998 124.121 1302.74 242 226 199
-72.6246 38.7352 1107.53 252 175 151
477.34 242.491 1872.16 115 145 156
11.7329 347.981 1250.39 245 243 241
12.9493 375.939 1240.61 207 194 186
406.474 257.851 1970.46 60 78 78
57.1164 172.938 1306.15 255 248 244
-33.0178 195.958 1175.86 242 220 192
57.3278 105.758 1241.29 242 232 211
24.4548 421.562 1257.42 251 255 252
4.32929 250.135 1264.25 244 219 200
-67.4701 92.6813 1161.15 253 248 233
-41.9499 61.346 1191.48 135 146 141
410.112 -44.6827 1618.07 250 231 227
28.7491 295.491 1219.34 249 246 234
-28.5144 292.382 1237.99 126 107 117
-16.0596 437.448 1249.56 254 250 227
-34.6941 360.232 1266.17 235 223 210
-70.1962 22.1559 1010.85 184 114 82
464.231 -133.888 1686.84 255 252 244
435.439 -117.331 1688.32 235 212 197
311.874 -214.113 1572.27 96 95 97
513.469 4.9545 2072.64 235 225 222
54.4535 178.503 1266.35 132 122 114
50.9683 84.0361 1238.13 244 204 182
0.764311 359.26 1186.02 116 105 99
369.391 -104.723 1448.97 111 92 79
484.126 -115.552 1792.46 120 102 95
62.1538 396.214 1306.85 77 57 46
-13.8528 350.525 1305.52 158 136 135
402.401 -100.37 1521 246 239 239
-15.144 259.625 1207.17 123 106 90
39.7729 115.734 1203.31 255 251 225
-59.1715 163.978 1118.42 77 56 50
89.6764 137.751 1309.21 135 126 110
497.262 -38.6651 1712.34 251 238 230
485.042 15.4296 1834.56 76 56 42
-53.7939 45.5369 1003.76 93 96 91
12.3954 431.854 1316.94 126 107 90
-125.113 478.587 1426.06 187 187 179
76.7973 170.216 1309.83 158 142 132
20.6349 216.673 1243.1 223 218 204
-146.79 496.432 1501.03 186 178 169
56.3519 561.605 1366.68 162 173 163
76.894 549.414 1369.98 64 83 73
38.5708 80.7098 1235.44 251 221 203
-27.261 105.073 1170.64 113 87 83
-71.1928 72.7566 1185.74 255 246 225
434.084 -6.68904 1597.01 237 241 235
-76.136 147.659 1163.13 78 56 44
-20.3918 366.834 1115.83 163 151 143
51.4053 152.205 1244.14 255 244 227
-43.0667 35.0956 1157.33 134 129 126
105.368 163.942 1273.96 141 125 108
100.059 393.555 1314.07 99 98 96
66.7004 140.496 1305 255 252 239
19.5963 255.036 1338.03 187 130 119
-49.2922 206.501 1194.36 248 247 225
531.991 -65.8061 1825.14 255 241 238
764.869 -302.809 1131.77 89 97 93
103.526 37.3198 1257.49 187 135 110
62.9403 78.729 1298.13 172 119 96
73.0187 594.07 1458.47 195 213 204
-30.0203 371.324 1186.98 124 116 109
8.46121 288.063 1245.74 177 136 141
-113.147 68.5771 1100.67 139 121 108
465.003 229.868 1810.07 208 244 248
460.12 -2.69991 1723.23 229 226 223
-8.02976 333.08 1270.16 184 121 105
-13.1601 293.213 1241.43 250 247 239
-6.95585 87.9703 1173.51 255 245 223
-78.9982 153.393 1162.88 207 168 150
459.937 -13.3 1715.11 255 246 240
-4.31862 401.871 1221.56 255 250 247
-41.6774 32.3918 1162.13 255 255 236
474.969 -57.7868 1715.95 255 253 239
477.776 -44.1742 1866.59 119 98 97
-61.8568 153.928 1166.73 127 74 39
35.4826 440.26 1322.52 54 61 62
455.524 316.629 1886.05 198 222 240
-172.741 203.31 1254.79 82 30 4
-70.5892 232.685 1170.02 115 98 96
-41.7318 272.383 1178.88 102 90 92
507.111 -87.9745 1817.48 250 242 219
92.7996 31.0516 1156.78 255 246 235
-167.732 13.6109 1147.84 161 127 109
70.1622 152.693 1247.81 237 231 221
585.177 -309.83 1885.13 177 200 199
287.004 -188.494 1655.28 41 37 14
-3.6579 307.861 1186.08 255 235 216
611.978 -74.2508 2067.95 158 139 132
391.95 -0.755955 1625.04 165 141 130
379.701 248.536 1936.34 51 69 71
-42.2088 445.039 1236.46 138 127 113
390.445 -6.55961 1531.89 167 147 136
516.194 -162.996 1803.24 227 202 182
73.3141 147.18 1306.95 230 207 185
-38.8224 251.817 1178.24 142 159 133
44.8949 64.7924 1104.52 254 239 222
-38.8215 160.492 1172.18 245 231 197
63.1971 558.722 1367.9 112 124 116
383.932 -4.91563 1799.71 164 140 123
475.231 -42.8401 1709.53 243 226 228
66.5508 440.413 1368.46 244 247 247
443.962 -80.6357 1577.58 214 188 165
614.76 -61.5476 2266.54 240 233 232
-50.4063 212.947 1173.22 224 201 187
67.1072 192.936 1310.01 171 160 152
465.551 67.9126 1734.4 229 227 201
-41.8491 42.6153 1045.44 250 242 243
31.7727 336.74 1314.6 213 197 175
314.806 -236.728 1568.04 209 181 169
-82.6588 8.22725 1179.46 174 139 114
2.24191 278.372 1243.74 133 132 125
-128.746 396.713 1210.05 143 138 125
470.332 -8.77121 1631.45 230 204 177
540.758 -138.416 1690.91 156 153 124
7.58119 67.7218 1174.84 240 218 217
-84.694 156.166 1161.78 190 147 133
-102.991 338.276 1283.39 50 24 24
-64.7027 142.207 1165.28 192 194 191
25.028 290.033 1309.54 163 122 119
376.556 -0.44769 1787.02 34 21 6
514.854 -264.624 1632.9 62 77 73
-22.3564 320.789 1241.26 141 133 130
-67.313 107.944 1113.19 126 83 67
508.594 -4.81524 1721.32 174 155 137
513.574 -105.411 1697.38 251 235 207
320.517 -8.43876 1524.3 133 111 105
-31.4686 309.201 1132.39 133 126 125
41.6276 21.998 1350.35 203 173 158
583.808 72.2107 1837.62 250 252 231
20.4402 16.3497 1078.87 255 241 203
117.267 66.5094 1370.33 255 238 207
447.872 289.788 1779.52 131 158 161
61.324 311.761 1318.94 170 176 153
-13.0598 83.691 1256.46 255 254 240
293.593 -8.09989 1422.75 42 20 13
-22.4399 233.579 1235.18 192 154 136
337.972 -4.70571 1617.61 125 105 91
-15.7997 6.57212 1165.35 255 201 185
587.571 -109.645 2219.4 216 201 190
-110.324 519.351 1513.48 123 123 120
-22.0985 246.59 1286.23 248 219 211
-44.5956 145.637 1169.91 191 147 124
105.548 176.803 1275.56 155 132 113
20.5006 80.1055 1205.52 214 158 148
-21.6116 -33.5337 1160.95 117 83 64
417.485 -63.5237 1699.23 203 165 155
108.454 50.1168 1303.69 255 240 215
-10.0248 3.73596 1166.26 200 126 96
-4.20079 18.1773 1168.58 196 128 100
467.524 11.4066 1635.41 229 209 191
-97.483 314.848 1212.28 155 140 131
442.1 256.711 1666.04 154 176 174
447.319 -98.9142 1856.2 105 62 47
-28.5996 234.565 1201.58 188 105 103
307.43 -21.5024 1695.33 44 48 22
-5.78544 2.78105 1233.47 255 226 198
-67.1149 97.9002 1067.2 146 72 47
409.677 -82.1841 1609.39 205 157 157
5.21518 290.61 1141.81 251 222 208
573.172 -146.02 1813.44 231 222 189
471.961 408.69 2017.3 125 143 138
-134.519 26.2663 1141.13 123 96 88
453.103 -53.483 1713.7 132 102 92
580.287 76.1353 1934.5 255 253 235
-11.029 217.768 1103.12 183 107 91
67.8683 -84.553 1322.68 114 85 68
-81.7101 103.956 1158.82 105 31 24
523.678 -96.9092 2007.94 128 87 79
421.967 -123.4 1319.98 198 206 189
137.774 79.2711 1542.76 209 158 114
534.542 234.589 2000.89 129 173 176
25.4377 80.107 1248.97 255 246 241
-41.1425 248.932 1282.06 206 202 175
36.5606 193.328 1381.23 155 138 128
70.7469 286.515 1272.85 255 253 251
59.1747 272.216 1223.17 237 235 227
101.885 50.1563 1302.49 255 237 215
-80.1677 94.971 1064.33 118 64 49
7.47384 -79.9233 1270.61 111 117 119
475.003 270.276 1686.35 183 189 188
404.747 5.98816 1429.26 183 163 147
492.505 281.866 1827.66 177 192 193
437.368 54.4075 1493.65 249 251 231
590.781 -159.378 1812.48 218 222 206
