460.552 -125.342 1688.53 254 230 222
504.933 295.384 1991.73 8 43 43
44.157 -23.6027 1203.56 255 250 233
54.6718 -28.2993 1295.26 66 46 30
39.8835 -21.4124 1260.1 103 88 74
30.6112 384.553 1256.44 255 252 249
65.3299 487.448 1399.6 211 219 219
84.3202 -15.2447 1269.16 92 33 20
1.91309 462.18 1227.3 231 228 217
438.906 -190.071 1671.27 227 222 201
-1.17477 68.1085 1173.08 66 45 41
427.769 -38.1806 1706.1 248 207 189
40.6199 443.117 1391 222 222 210
-48.0816 50.5608 1113.37 138 51 30
93.9627 -8.87036 1271.45 143 96 69
-50.8181 44.988 1112.43 251 166 150
-48.7693 55.5785 1156.83 252 191 171
446.279 -21.4131 1711.84 242 230 223
72.5068 129.942 1277.07 116 75 57
-40.7871 69.7187 1070.79 247 204 178
-118.263 497.927 1429.34 176 170 165
55.7985 478.173 1358.65 13 18 17
-36.0663 61.8855 1192.73 245 252 236
23.164 410.742 1227.92 142 136 137
305.961 -178.382 1502.42 81 79 79
51.2338 37.1167 1155.86 122 85 76
26.1776 -14.7011 1200.7 134 109 95
-30.0717 273.642 1181.34 46 34 32
32.0773 413.86 1319.91 49 41 35
450.321 -88.2573 1696.5 222 214 202
445.06 184.977 1647.96 64 58 46
418.437 288.779 1980.01 42 71 69
63.8989 113.702 1207.42 113 86 68
-106.7 535.655 1515.84 227 222 214
62.3905 41.1318 1269.12 171 136 127
116.877 415.414 1304.28 89 87 88
67.4341 444.576 1290.52 85 92 94
-40.9838 102.433 1092.68 254 250 241
489.147 33.4125 1934.29 237 229 228
-30.1699 73.5375 1167.62 98 98 87
95.421 184.882 1284.88 123 103 89
534.676 33.5495 1942.66 216 207 207
-15.3272 352.035 1188.95 203 184 176
-6.76789 426.161 1250.8 17 6 6
27.0823 277.017 1248.76 142 145 140
-9.20779 218.223 1206.51 250 243 185
480.543 382.993 2011.81 57 77 97
-32.7987 64.2992 1048.17 96 85 75
79.384 481.44 1402.22 169 177 177
1.81748 424.743 1224.48 222 214 209
-0.00530533 52.6857 1283.83 104 96 92
-15.4251 274.376 1184.51 161 154 155
-50.3732 166.557 1170.03 47 23 11
38.5438 380.947 1319.09 234 218 202
459.453 15.7866 1635.48 255 252 253
90.959 215.174 1397.81 87 69 50
79.5312 108.545 1304.3 248 234 210
29.346 420.571 1229.98 90 70 57
458.959 29.0594 1696.95 145 135 134
-7.21245 440.908 1312.95 36 31 26
30.4617 343.404 1253.9 255 243 233
33.4584 308.841 1252.26 130 111 107
80.2922 193.787 1312.63 240 220 204
-9.76626 144.203 1177.05 139 100 71
12.323 405.816 1315.06 224 215 211
27.3517 349.546 1253.63 150 129 115
61.0759 359.938 1388.92 234 233 219
-100.171 464.942 1320.79 129 125 117
91.939 613.326 1447.08 213 227 218
76.9122 195.666 1272.52 137 115 98
76.8809 180.516 1310.73 255 249 231
96.7123 181.08 1314.65 255 251 241
86.5373 154.476 1310.15 179 142 109
38.3243 397.252 1346.6 199 183 174
5.96007 485.233 1318.55 245 231 216
-4.65096 121.853 1146.22 108 104 97
-7.28614 397.799 1310.14 238 238 237
-9.9683 362.958 1246.47 171 167 157
89.746 150.471 1346.14 249 235 208
-58.4945 518.294 1446.63 181 177 165
-24.4315 27.2129 1165.22 255 224 209
489.207 -29.9064 1713.71 255 242 235
474.928 -104.897 1694.61 254 255 249
-18.5232 67.1066 1050.84 142 150 136
-18.6307 50.4226 1168.21 245 219 203
549.376 -271.805 1897.69 215 224 225
10.8065 295.989 1270.33 184 165 165
-53.667 164.831 1119.55 205 179 162
412.126 -66.6199 1679.07 137 117 109
490.16 -17.2433 1716.8 253 244 248
-22.4135 460.117 1221.83 118 111 98
-148.263 31.6683 1165.55 174 142 120
19.4171 249.474 1212.96 147 120 110
-20.513 53.6678 1119.1 137 129 123
-15.5523 179.47 1178.33 252 237 218
357.781 206.003 1575.23 66 92 93
149.66 218.247 1513.38 145 121 105
79.1454 165.202 1280.54 155 129 109
-34.382 164.418 1145.4 188 135 126
-7.10821 293.273 1160.7 171 148 147
17.5739 107.545 1206.45 255 242 230
89.9006 161.135 1311.44 255 246 231
463.241 -88.3188 1697.61 254 252 253
101.294 176.494 1379.66 226 211 198
444.192 12.4724 1719.48 64 38 33
70.1113 157.354 1307.21 243 213 188
-38.1429 147.613 1075.83 177 173 177
510.578 21.0556 1727.55 250 234 225
-97.2769 90.6136 1180.78 140 119 106
44.8097 311.457 1315.32 164 136 126
744.611 -270.857 1143.23 84 84 79
583.929 -269.798 1867.2 205 218 215
-20.3539 321.057 1301.73 119 113 114
24.0453 298.891 1249.63 178 155 158
94.8799 228.416 1383.79 154 142 138
-50.8063 31.1703 1111.5 226 212 184
69.978 140.98 1305.62 244 222 199
503.176 -106.671 1796.84 169 168 165
36.3544 255.44 1249.13 205 162 146
82.2095 193.016 1375.72 137 115 100
10.9071 321.829 1272.99 255 239 230
512.296 -13.0183 1719.58 210 193 186
63.8086 140.52 1245.48 230 200 186
66.133 636.309 1462.92 73 100 88
-44.5893 131.575 1168.84 170 145 134
-10.24 -27.5812 1344.36 102 68 50
374.709 20.9373 1713.56 164 143 110
94.4333 579.75 1376.04 120 143 131
34.4838 385.839 1371.01 168 146 130
31.1381 86.1709 1180.79 253 248 250
524.562 -76.0824 1705.22 246 245 215
58.8622 643.29 1462.37 179 217 201
-175.111 54.0839 1185.08 92 42 22
47.7567 248.697 1310.85 205 177 169
-11.3219 -29.4654 1272.03 106 85 71
22.3303 456.529 1320.48 210 196 190
632.601 110.603 1947.31 250 251 223
18.7159 258.177 1232.73 246 213 198
90.1068 103.968 1369.45 196 153 123
-0.769916 242.331 1185.58 182 140 113
543.481 -34.1165 1832.85 227 205 198
-12.3247 391.172 1191.59 104 95 85
466.338 -104.852 1693.92 255 254 249
-21.2059 166.655 1201.53 177 137 122
-47.3761 227.1 1073.05 215 191 181
581.342 358.771 2015.71 176 183 182
597.563 -278.372 1894.26 181 202 197
517.592 -208.371 1605 232 248 232
40.0449 95.1746 1183.19 180 137 128
43.7691 466.318 1452.28 68 67 65
466.902 259.098 1977.94 111 140 132
477.233 -242.264 1661.58 125 134 138
6.1807 80.4333 1224.96 255 255 251
-154.764 223.558 1261.13 102 47 26
154.541 223.413 1394.86 198 167 150
-61.886 174.974 1168.08 172 148 127
435.274 390.363 2147.7 65 82 80
-74.2307 159.085 1189.57 88 44 28
129.587 211.93 1344.64 190 155 141
105.233 154.739 1272.71 185 170 152
18.0103 279.976 1214.77 239 227 227
25.0674 300.498 1310.24 175 182 177
20.7009 40.0474 1285.73 192 118 98
485.309 -246.301 1661.12 195 216 216
16.7439 17.7307 1117.72 221 146 124
39.9518 219.292 1180.21 209 190 187
27.2718 297.449 1188.46 238 207 198
575.004 23.5941 1917.98 199 168 156
-59.5803 123.82 1191.03 94 38 24
568.344 -118.433 1740.5 200 200 183
21.0396 279.432 1180.97 251 245 247
516.975 -57.9372 1798 246 229 207
393.352 7.06744 1528.43 159 137 132
557.655 -34.1471 1834.6 170 152 136
630.478 -126.715 1935.08 184 180 152
488.468 239.658 1813.68 180 197 195
16.577 127.163 1181.1 246 211 179
50.1188 104.766 1298.15 196 165 155
495.323 -63.491 1706.17 220 195 166
611.48 -7.50838 2033.8 206 196 175
-15.536 191.286 1179.14 211 190 155
298.784 -167.393 1503.54 148 145 132
-46.0145 277.147 1292.42 217 204 198
