274.337 -35.7881 922.415 250 255 255
365.85 176.823 1052.54 7 15 8
-495.93 347.408 1309.93 61 57 56
403.144 235.297 1020.19 255 253 251
-282.519 397.18 1326.89 218 217 213
-376.638 113.041 1246.84 255 247 225
-522.799 330.016 1366.7 48 45 39
233.812 -8.43872 953.081 213 210 205
96.1599 30.4053 973.266 228 220 216
266.075 12.278 924.814 230 224 221
431.713 279.307 1078.29 212 216 205
-332.946 315.926 1393.41 218 208 192
320.29 3.0932 928.895 174 196 183
176.405 -123.16 1136.71 220 206 196
-480.311 127.564 1252.84 102 67 47
175.749 -161.266 1233.66 17 20 9
313.985 3.05207 897.405 244 255 249
-377.661 63.2291 1182.09 237 219 190
349.78 22.2725 965.79 247 255 240
-422.38 149.593 1134.26 137 101 81
-464.501 340.734 1260.82 237 238 227
332.071 7.86859 963.306 74 99 94
330.041 111.903 970.137 49 59 47
-439.447 421.619 1347.36 58 56 55
-457.102 210.899 1304.81 128 124 126
281.395 -35.8709 923.021 204 219 210
234.95 -8.79131 988.129 251 249 245
-475.231 -3.25287 1098.74 255 246 232
-477.274 326.16 1253.02 242 237 232
-366.131 144.845 1253.63 242 223 202
-360.056 114.073 1192.41 147 107 91
264.821 -40.5749 903.957 42 43 46
366.661 40.653 934.94 243 246 221
405.483 148.974 996.685 240 238 223
-479.347 323.87 1313.5 246 245 227
253.999 -81.8755 949.932 228 232 228
-420.475 527.277 1443.31 49 49 46
358.848 27.1148 916.417 222 221 196
217.517 -67.5783 963.669 211 199 188
320.944 26.3269 930.473 227 234 224
-311.073 312.855 1307.29 118 80 66
88.8241 32.748 972.349 242 233 232
-377.035 488.538 1318.53 101 103 99
-378.001 77.9824 1183.28 255 251 226
-212.349 316.254 1405.49 34 28 17
-514.4 331.456 1298.79 105 105 94
338.375 53.7998 967.062 246 254 241
-339.303 178.998 1221.03 89 56 41
163.189 175.362 1049.02 232 210 210
202.81 -67.4413 961.993 232 214 199
185.976 114.114 1027.93 252 248 233
141.74 -139.196 1130.55 239 237 228
-352.327 132.265 1196.55 142 111 85
-268.819 59.3908 1341.79 165 157 151
211.166 67.8029 990.495 249 246 236
325.58 7.55164 898.563 233 248 237
211.079 62.84 990.183 158 149 139
368.309 194.906 945.983 204 213 202
391.236 143.115 1028.69 223 243 221
210.995 57.8045 989.874 241 236 220
410.71 225.684 1041.13 214 228 212
-485.569 265.13 1237.77 102 90 88
-328.111 182.791 1176.74 255 242 240
-529.223 337.221 1433.75 253 253 236
-313.178 397.381 1317.08 57 58 51
409.175 273.996 1062.41 233 236 231
-502.568 0.674522 1131.81 255 249 240
-451.768 116.56 1173.21 246 212 190
194.661 -113.16 1033.42 110 94 70
100.061 106.893 1074.81 255 249 237
266.475 -88.9508 1043.53 114 117 115
80.961 -42.3181 967.032 163 131 113
-485.997 369.34 1318.61 27 25 21
-382.977 520.611 1386.82 57 61 56
216.283 159.723 1016.19 205 183 180
-265.803 66.1326 1343.52 58 51 46
308.709 53.6558 964.457 167 165 161
378.244 73.3754 953.587 234 240 229
414.374 236.364 1002.81 150 152 140
64.0252 -35.0795 965.049 93 86 84
-255.824 52.1904 1416.26 56 54 43
244.595 -1.04623 921.838 67 56 55
230.811 -83.5778 930.346 110 109 117
-427.738 182.489 1192.34 255 241 236
128.905 157.67 1063.03 240 233 239
-288.47 197.103 1432.69 177 142 126
349.096 135.689 957.202 213 233 219
-412.398 171.672 1093.49 252 253 238
217.945 23.1227 988.471 213 211 199
-296.998 65.4366 1333.52 149 136 129
-333.783 52.2888 1024.03 248 228 196
-407.383 -10.2699 1165.65 92 63 40
165.847 -98.0816 1050.1 230 190 170
336.814 68.2552 950.339 241 255 252
168.061 -44.3008 943.838 186 181 178
-405.438 47.3981 1230.13 255 222 179
-359.736 122.928 1207.43 175 153 131
-309.321 65.0585 1329.48 187 173 167
391.504 212.2 1038.35 214 228 213
-406.832 15.8072 996.59 126 78 65
-335.832 113.042 1109.7 255 245 226
344.382 7.7924 964.305 130 148 141
-269.333 86.2409 1344.75 144 137 137
196.101 55.7522 952.828 247 238 221
328.198 32.5756 946.447 220 235 233
-257.743 339.876 1173.22 251 238 198
217.266 15.3318 952.836 185 176 170
280.264 -93.4188 947.955 95 118 118
-415.279 126.108 1090.26 149 122 102
-247.17 46.0083 1291.78 27 10 5
157.727 -108.225 1048.25 246 243 244
289.579 -54.6661 891.781 115 125 111
215.697 169.086 1035.05 237 222 221
55.7057 -41.6734 979.399 78 76 67
137.684 -46.2602 1045.43 179 170 166
-266.199 215.96 1308.98 192 162 144
-549.08 305.032 1425.02 147 138 141
246.754 -81.8317 949.285 231 224 225
277.244 21.7276 880.919 159 159 152
-393.633 88.7287 1191.44 236 218 199
-435.702 168.112 1185.56 133 105 95
87.8847 99.1056 994.352 255 254 240
97.4228 91.122 1002.14 165 138 138
-523.905 136.993 1328.6 152 116 99
397.841 148.883 996.148 242 252 225
264.041 -86.2891 933.561 207 222 222
235.141 80.4554 1011.68 246 236 220
-395.385 -15.4587 1115.81 220 199 167
-367.992 107.819 1189.25 254 246 218
-463.036 364.253 1265.58 108 106 98
183.57 182.643 1093.66 236 210 194
221.991 8.23441 952.899 226 227 226
193.001 59.755 1025.49 249 239 226
-213.631 303.206 1401.97 213 194 175
373.457 -6.65478 965.378 171 173 165
-377.029 528.867 1390.44 225 233 225
259.228 82.8606 978.593 248 245 221
351.356 68.3213 951.375 227 234 217
-323.664 25.1505 1320.09 162 135 133
262.939 -160.294 1097.37 64 66 64
263.221 1.04541 956.637 49 57 51
336.633 63.484 949.893 198 213 207
304.427 80.2503 965.756 240 234 215
424.257 238.246 1022.2 60 53 44
163.61 120.85 1065.94 255 241 213
-249.992 235.47 1299.19 37 13 7
-269.906 90.8522 1416.94 120 118 121
-374.889 274.063 1280.61 128 103 88
151.874 130.109 1043.79 255 249 230
127.28 -52.4917 972.663 177 170 156
323.093 0.816343 897.963 238 252 227
106.879 93.1742 1055.78 240 223 219
372.139 119.982 925.443 194 219 197
-461.638 143.844 1230.34 243 221 201
-505.855 370.351 1310.56 109 106 104
270.505 157.886 1056.8 255 233 221
219.96 205.705 1123.49 239 225 212
-372.697 3.92144 1074.84 253 250 219
248.316 259.991 990.702 246 247 226
-289.123 218.977 1436.33 87 53 33
245.367 200.992 1040.63 150 133 132
-381.905 299.75 1331.29 146 133 123
216.854 187.999 1018.49 151 120 113
109.126 -59.2037 1006.44 166 164 153
-377.363 -4.15554 1072.87 255 251 220
157.966 -138.797 1161.92 70 77 81
-506.378 195.606 1343.97 169 144 125
-570.839 260.682 1403.82 217 190 183
-380.207 260.591 1276.91 143 106 99
-285.377 386.607 1324.71 165 157 136
391.533 190.655 1013.52 223 234 221
424.051 230.476 1021.76 57 50 38
-424.075 208.303 1194.69 164 158 156
125.048 54.6773 996.221 227 222 221
172.895 340.159 1123.78 121 119 115
53.8349 -33.9365 1000.08 85 81 71
173.827 -98.2155 1051.07 189 176 165
174.879 -6.14961 981.471 180 163 150
128.879 -87.3789 1046.23 184 171 150
-417.035 138.439 1135 170 126 100
-272.347 79.4523 1343.01 130 119 109
-422.542 183.54 1250.98 172 147 136
-363.726 385.338 1298.63 116 107 80
-430.566 618.346 1621.74 145 163 154
-450.666 114.139 1120.1 254 224 208
314.455 46.9821 903.685 234 235 212
369.728 -4.10459 959.559 97 106 92
263.349 -3.69319 923.526 51 35 24
168.591 88.7218 1064.55 232 216 193
-440.337 21.9807 1114.44 147 61 42
206.322 180.086 1016.56 243 208 196
-344.761 212.622 1267.52 255 250 226
271.136 200.238 1102.19 223 199 190
-433.666 149.425 1384.76 255 240 221
108.868 141.163 1102.53 248 237 229
279.002 -51.4976 936.793 102 103 91
-634.491 86.6036 1271.59 255 253 254
-379.022 -13.6686 1233.26 139 125 109
-347.606 37.3225 1189.68 156 140 132
-636.542 49.5664 1259.44 253 251 238
-358.806 -41.2698 1237.38 139 119 103
-365.038 -24.8366 1178.67 136 119 106
-276.653 70.9333 1559.26 12 12 7
-562.431 104.924 1242.42 251 210 190
257.498 -65.2608 902.151 38 59 62
103.853 64.6753 958.989 238 237 233
-558.821 258.049 1408.72 228 190 187
182.576 59.7407 1024.14 246 238 225
166.801 46.9509 1021.22 238 208 192
-440.071 13.582 1113.72 166 116 95
-511.976 -5.12481 1127.68 120 100 91
131.466 -92.4393 1046.15 90 69 65
-552.099 109.184 1187.51 146 130 134
84.6614 51.5096 1009.84 188 171 170
-545.464 71.9206 1159.4 255 248 249
198.078 181.406 1054.24 87 79 78
-393.879 130.986 1242.73 191 135 104
82.7413 84.0309 992.497 238 226 222
-362.719 90.0382 1098.92 207 160 129
-238.006 178.602 1438.56 73 41 29
120.374 46.8175 1014.81 250 243 238
-528.865 60.2734 1184.41 251 237 225
176.079 253.861 1075.17 199 201 177
382.981 151.647 942.141 146 150 130
123.318 -64.2811 1089.54 48 48 43
-587.254 61.4019 1160.07 238 236 222
356.018 63.5397 969.212 204 214 197
-215.412 212.854 1531.12 73 50 39
356.68 26.3848 933.272 210 218 190
-519.688 244.924 1219.85 164 156 154
-560.133 197.669 1258.88 255 244 225
-399.752 64.6414 1133.47 254 249 233
210.865 149.61 1053.2 243 223 216
-263.651 -24.6066 1277.1 63 66 60
-359.709 288.003 1419.92 239 218 202
-255.331 199.518 1435.76 122 85 67
269.921 85.6716 998.232 233 230 204
207.335 106.453 969.657 252 235 220
105.258 74.5109 1014.28 152 121 120
-373.386 -16.6777 1234.88 121 104 88
193.521 67.6596 988.358 225 203 192
375.897 117.724 988.262 200 223 193
235.894 -127.618 1097.9 161 133 112
106.679 72.0921 1054.39 255 248 250
-404.75 106.369 1243.19 213 172 147
-249.926 173.72 1308.34 108 89 72
340.073 -152.005 1088.66 33 91 86
342.669 31.9952 965.903 215 231 223
218.895 16.662 1065.95 129 107 84
203.013 4.4905 933.38 112 97 85
150.352 18.3504 979.931 165 164 150
253.938 -3.57522 922.63 102 93 83
-444.223 188.852 1184.83 178 179 174
-389.934 382.434 1289.16 107 110 106
-306.805 68.2403 1265.33 118 110 109
274.206 183.838 1024.82 185 170 158
142.843 154.5 1128.5 169 160 164
188.948 282.88 1247.5 71 74 71
220.801 216.871 1146.36 185 163 139
292.345 92.2755 965.317 238 237 210
100.544 66.4249 1006.64 250 237 241
105.034 49.2089 1012.74 180 171 171
361.619 174.085 976.582 206 229 195
151.963 135.108 1052.11 214 211 207
124.572 57.8381 1138.53 252 247 245
-508.792 254.002 1226.72 246 240 236
228.516 143.238 1035.18 222 205 196
-328.063 249.486 1276.43 168 133 114
-389.846 70.5796 1137.54 185 163 139
-463.104 115.701 1225.86 196 150 128
285.208 -20.5628 907.387 65 77 59
441.225 -208.669 1150.95 82 77 68
-252.123 239.859 1351.22 147 128 123
-658.22 19.4477 1250.04 232 228 213
-283.949 -18.2596 1397.6 65 53 44
-418.471 76.7256 1237.85 231 204 174
212.437 227.251 1059.81 246 241 216
115.495 -130.592 1060.95 107 102 95
203.233 154.377 1014.17 210 168 153
-545.777 54.0905 1073.53 178 171 163
-422.912 86.7866 1227.9 234 222 215
-353.349 332.185 1295.71 163 143 129
343.951 291.998 1099.05 253 253 220
-375.006 -143.681 1001.23 110 107 99
297.008 112.386 1041.2 240 236 208
-605.678 7.98054 1148.16 225 212 192
-471.616 -43.7941 845.415 157 160 154
154.8 -81.1846 1117.13 118 117 110
342.542 118.019 949.884 219 247 227
361.099 120.367 990.901 233 248 238
336.105 -22.2752 928.327 200 213 175
-513.227 237.856 1222.62 206 202 202
312.277 -19.8905 835.976 169 174 150
389.165 -187.749 1030.15 97 94 86
-708.953 -78.8949 1331.17 191 193 182
-360.307 -129.046 1356.42 91 78 61
283.445 101.889 1039 239 234 214
148.557 246.742 1086 192 190 181
323.515 -61.2393 893.766 99 113 94
-491.743 489.246 1571.12 224 226 225
-382.851 253.814 1275.08 197 182 158
153.462 -156.847 1178.82 160 134 114
293.993 221.059 1069.18 189 188 187
325.285 -14.1709 868.098 125 133 110
202.889 205.28 1076.61 145 123 102
224.854 200.362 1079.34 254 238 232
241.876 194.258 985.6 167 142 127
290.906 306.763 1118.16 200 187 165
-241.527 185.707 1438.36 149 110 95
200.301 182.458 1076.7 226 206 204
188.211 12.6718 944.109 184 161 146
101.603 60.3806 1134.72 187 184 184
188.979 -112.506 1074.57 97 84 72
-501.142 298.789 1297.58 179 154 134
109.749 131.848 1037.88 121 90 83
361.158 131.04 957.705 181 203 175
-330.484 -41.4726 1246.7 169 152 133
-600.683 186.435 1301.94 248 241 229
365.401 309.687 1043.95 185 181 163
