318.669 -49.9616 1011.55 246 255 250
352.648 99.3538 1045.7 20 24 14
327.33 38.1951 1000.47 227 222 215
239.596 -66.9272 949.292 232 227 224
-306.124 428.735 1163.78 208 206 198
387.426 159.626 1114.05 9 18 11
-520.51 51.7614 993.214 215 207 194
240.171 8.55254 989.743 248 249 246
168.402 173.249 1049.62 251 231 222
242.462 162.297 1096.77 195 176 169
-507.366 401.701 1094.78 244 242 231
295.699 -53.2204 955.32 28 37 31
424.258 219.097 1102.81 216 214 210
-506.392 50.1954 986.799 193 190 171
225.199 67.4137 1070.31 252 250 236
-369.824 149.775 1037.94 255 249 230
297.707 354.125 1122.56 28 54 66
-369.232 164.109 1056.03 255 250 239
-406.894 279.743 1101.34 249 243 232
196.686 183.52 1118.5 255 246 236
298.216 1.16973 994.931 225 218 210
-437.03 534.193 1143.85 31 35 30
-462.803 241.93 1078.15 252 250 247
265.487 -88.7294 984.667 250 253 252
307.971 -64.7762 1009.57 56 49 48
-469.377 168.843 1022.29 239 218 197
221.076 147.553 1015.95 186 154 143
202.462 178.893 1074.94 213 211 210
158.72 238.687 1053.26 61 69 46
130.683 77.034 1058.18 243 242 235
-342.392 346.605 1181.43 231 213 197
238.835 133.992 1035.96 243 231 230
254.541 189.92 1055.95 53 25 16
-556.907 527.889 1312.71 92 92 87
-482.976 193.671 1027.37 250 236 218
114.279 40.3151 1053.26 242 233 230
322.999 65.4102 1002.16 254 253 229
435.342 254.906 1122.84 206 213 199
-365.025 102.587 978.95 255 248 235
-328.057 340.395 1132.42 255 249 236
-515.494 386.345 1085.79 249 249 244
-272.186 352.758 1217.22 37 37 30
-323.676 231.209 1231.43 209 186 169
235.23 13.4436 989.568 58 40 31
395.513 512.818 1348.14 221 240 255
73.8984 -23.4778 1003.52 28 30 25
270.302 269.751 1089.05 230 235 205
-296.669 323.748 1032.22 252 233 212
-454.556 170.096 993.46 100 61 38
-471.186 222.6 1026.44 255 248 239
296.507 425.988 1268.7 73 97 109
-461.137 547.264 1187.01 79 81 79
187.315 1.12088 983.312 204 190 169
172.373 -95.3948 1093.08 206 192 189
341.648 8.1483 963.899 240 239 238
-551.246 397.641 1169.14 243 237 228
216.22 162.686 1016.61 55 34 31
-396.295 115.483 1074.33 135 111 100
366.653 -8.72833 999.828 250 255 246
106.543 98.1005 1073.98 250 247 239
-360.919 112.475 981.091 231 214 201
-364.88 180.156 1058.75 255 242 216
262.557 179.617 1056.62 233 211 200
208.464 54.4421 1026.93 226 212 193
228.4 198.267 1123.95 255 248 232
138.358 56.352 995.583 253 255 252
333.887 -3.73479 962.347 189 213 202
-406.701 39.2825 1019.97 244 225 186
382.996 327.948 1151.11 242 255 253
-312.486 308.813 1063.09 122 98 80
371.445 116.565 1027.49 231 243 228
-386.78 289.736 1073.46 99 78 67
91.5209 -119.46 1173.25 222 220 201
-345.209 113.811 1256.69 169 164 146
319.868 -85.3331 1048.95 203 221 220
411.38 225.325 1074.8 216 225 212
-283.443 380.535 1165.21 189 200 192
384.56 116.643 1028.46 226 240 219
117.982 -131.388 1176.13 69 70 61
-390.322 133.641 1012.73 255 231 203
245.623 195.865 1126.13 143 117 105
293.663 -97.2036 1023.61 208 228 223
275.892 465.058 1223.84 79 107 110
-463.612 200.349 1035.59 246 206 178
336.19 -8.4803 962.152 84 102 94
-515.426 201.619 1104.14 118 97 76
126.458 -55.3317 1048.06 206 199 173
-342.39 245.454 1071.23 255 252 221
115.248 139.796 1059.8 255 244 242
-380.272 309.51 1077.88 244 241 226
162.337 128.733 1045.09 246 242 215
410.944 249.099 1103.58 226 231 221
211.165 115.749 1090.46 243 219 208
161.314 -95.2532 1091.68 250 201 187
-482.149 78.3623 1055.15 158 72 55
167.602 114.949 1025.59 244 215 178
-388.966 284.09 1072.08 227 204 189
283.234 -12.4289 1010.18 75 79 77
367.992 28.379 1003.09 247 254 235
-520.388 366.451 1131.18 231 238 217
266.21 -92.559 1042.85 86 98 99
-347.402 276.526 972.778 142 122 107
357.286 -36.9532 961.388 247 253 230
387.428 123.969 1068.34 218 231 221
-402.378 49.4158 1021.91 243 231 190
115.781 37.1625 976.447 241 234 232
-496.155 70.6734 1037.11 132 107 93
249.484 157.733 1171.57 216 189 181
-358.459 328.55 1050.57 82 62 52
168.412 242.636 1016.19 206 211 185
203.208 174.075 1054.32 120 116 112
270.861 142.212 1040.27 249 218 192
-488.905 170.176 1015.29 253 228 205
194.526 273.197 1171.73 205 202 172
232.355 -3.65059 988.023 62 54 34
-360.318 188.31 1060.88 255 245 221
392.666 181.274 1035.64 219 231 218
318.103 -13.5862 995.507 145 148 131
-379.449 122.612 1251.57 189 176 164
297.574 348.454 1122.13 120 158 177
394.525 415.727 1261.24 105 127 123
-346.864 229.088 1068.48 252 253 240
-339.91 265.846 1273.21 48 21 8
273.134 -83.9798 985.743 227 249 242
-384.588 295.365 1074.85 210 196 189
-547.459 310.847 1111.43 161 133 136
224.117 55.9771 989.109 215 201 190
115.973 134.325 1019.29 176 129 127
164.663 266.269 1166.57 226 227 216
156.717 75.3631 916.634 225 214 185
-328.677 102.424 1214.63 48 30 9
-378.135 249.458 1028.32 147 119 98
220.67 8.94369 1025.06 213 189 168
-435.415 222.525 1120.15 136 107 92
-456.432 178.945 994.955 191 169 146
161.756 0.731046 882.821 189 171 152
123.415 182.607 1043.86 232 227 226
215.85 54.8277 990.259 147 107 100
-548.437 56.0981 1026.72 66 59 48
144.353 -51.6442 974.547 180 177 154
-323.309 360.89 1135.7 251 240 218
133.305 42.5392 1075.57 199 188 184
-443.001 241.496 1048.08 131 134 123
114.979 -41.9847 971.454 170 171 142
348.955 5.75854 964.281 249 247 241
-537.242 373.907 1116.06 151 148 142
-505.468 487.934 1210.48 91 89 89
-480.257 387.102 1015.14 248 252 248
-411.185 144.194 1071.46 195 152 119
330.491 380.647 1224.29 208 240 248
-380.399 477.926 1255.01 93 109 103
-369.422 171.989 1056.62 231 211 195
-552.562 306.822 1101.97 168 130 133
-464.925 236.299 1076.82 130 114 99
360.016 35.1205 1017.84 242 251 242
214.914 -66.6989 963.045 138 127 119
-416.065 518.091 1103.96 142 144 142
183.005 18.0513 1039.2 159 145 135
142.221 148.287 1064.43 159 148 156
252.254 380.335 1213.75 87 112 124
-501.064 338.491 1041.97 212 192 170
-408.856 34.2234 1019 135 101 68
200.623 13.6589 933.848 216 198 177
-348.619 307.025 1074.36 153 118 100
-407.72 110.603 996.035 253 244 231
-362.528 113.605 1190.88 70 54 41
247.974 -17.775 953.684 159 141 143
-566.74 331.59 1103.12 249 228 227
190.194 243.916 1099.69 195 196 177
303.227 459.971 1373.89 90 122 130
-326.345 295.333 1080.22 171 134 111
358.489 50.7168 1004.14 240 255 249
-483.577 242.867 1070.67 236 226 211
-613.031 363.526 1198.38 121 95 91
-646.02 113.77 1033.3 251 245 237
-463.018 587.635 1247.41 54 60 55
387.998 134.646 1030.6 238 255 236
-501.461 309.371 1034.42 155 147 148
185.902 -46.3757 1016.81 164 165 140
275.508 -88.8315 985.55 96 120 112
-389.784 105.46 1029.12 255 246 220
-475.638 213.841 1070.66 158 123 104
383.215 52.8687 1044.56 250 255 251
114.946 -137.089 1175.13 170 168 157
315.334 -121.778 1063.01 181 175 170
215.722 177.282 1035.63 255 228 217
-496.012 212.252 1062.92 247 233 212
110.516 98.913 1016.48 139 119 122
119.758 73.5363 1045.97 252 240 236
258.471 -69.3855 985.596 193 212 210
139.708 162.751 1081.87 201 197 202
-487.509 226.368 1067.53 159 142 120
366.292 344.836 1199.72 214 218 207
-490.308 302.346 999.043 255 250 248
298.954 289.251 1117.59 222 211 190
-326.727 235.141 1212.82 173 141 126
411.5 233.31 1075.06 104 110 103
311.018 -104.808 1184.76 124 117 120
157.399 132.548 1025.22 236 232 232
244.033 223.639 1055.61 117 111 109
244.09 3.91164 1027.29 93 95 77
399.21 516.226 1298.74 234 253 254
311.268 7.0845 975.911 168 167 154
-367.8 132.104 1020.19 215 187 150
-530.971 426.822 1136.14 136 140 128
-328.5 213.084 1006.42 185 182 170
293.601 88.3939 1039.04 208 203 186
127.71 44.7884 960.847 241 232 231
152.559 108.841 1063.48 225 197 178
274.44 396.811 1218.29 194 233 243
328.687 -69.8548 974.313 91 95 80
-520.89 325.394 1065.58 150 130 128
253.436 70.0402 1033.33 232 208 186
-508.966 406.276 1089.17 235 236 225
-556.686 297.938 1099.24 245 233 222
-526.219 330.003 1027.52 255 254 250
135.665 46.9484 979.738 221 213 204
-594.056 157.567 1108.9 232 215 208
412.932 85.5976 1050.56 242 245 228
382.542 6.11165 1002.3 224 224 196
312.147 8.13913 961.471 151 155 140
188.622 113.599 1047.19 143 131 111
-356.473 339.366 1212.12 205 176 153
-351.434 218.089 1066.15 182 158 137
403.646 193.994 1099.12 195 212 200
-315.779 132.93 1167.98 161 165 157
196.386 -121.799 1139.04 212 185 177
331.489 312.63 1098.65 58 58 46
198.012 54.3883 1025.63 247 241 217
-656.725 205.842 1096.52 249 252 254
252.769 -12.0244 970.1 163 148 136
115.513 83.9026 1016.34 225 190 183
224.797 184 1051.87 253 244 236
-573.481 154.495 1026.12 189 132 120
-413.246 29.1557 1017.31 224 209 186
383.502 182.23 1048.13 198 214 195
128.387 -86.8764 1087.99 78 71 61
-364.711 352.337 1087.85 133 120 106
230.267 249.714 1150.38 137 137 132
128.932 96.5411 946.753 204 159 134
208.261 200.426 1077.02 119 99 77
-489.544 70.8229 1039.51 88 63 49
390.781 547.438 1359.72 219 245 245
100.685 53.5783 990.017 234 227 226
-604.975 333.979 1138.49 153 136 137
186.029 169.782 1092.7 215 180 181
147.395 155.525 1096.29 66 42 51
206.061 118.636 1104.42 224 183 154
-670.239 157.945 1082.86 246 243 232
-535.144 377.3 1079.1 191 188 176
-498.573 141.84 1009.17 181 177 175
218.887 153.3 1054.5 220 167 151
202.696 -110.309 1053.1 140 99 84
-471.546 227.644 1073.55 146 122 108
87.2878 -84.2157 1106.24 73 70 58
210.189 287.083 1199.14 209 212 184
120.375 56.2751 1015.36 241 236 235
290.106 397.562 1220.51 109 139 143
-362.446 358.14 1089.23 200 196 185
274.852 84.8548 998.783 225 210 188
-414.617 99.623 1020.91 186 142 113
-327.735 333.727 987.138 146 154 129
107.841 49.4987 938.856 179 174 176
249.007 72.5197 1050.27 238 213 189
-630.694 454.249 1270.12 171 171 155
189.484 46.0739 1064.16 213 175 146
171.442 342.008 1123.62 81 67 58
-570.728 105.594 939.985 148 157 149
-353.934 119.745 1208.18 134 119 105
226.047 16.5395 1026.25 194 177 157
-416.964 104.6 1020.45 255 245 222
115.368 68.7871 1015.41 237 225 221
379.621 87.697 989.016 253 255 236
-354.947 323.36 1341.9 130 110 108
-431.524 178.792 1148.62 255 234 210
100.301 103.788 1015.23 224 208 201
-629.423 132.048 999.223 235 226 220
349.194 12.9002 964.865 249 254 241
-354.715 33.029 1245.55 57 57 50
279.944 259.406 938.673 180 167 151
-593.95 365.31 1153.24 165 141 139
-399.213 149.546 1045.01 201 171 148
-570.703 269.181 1040.1 131 107 89
-306.891 111.837 1173.08 70 67 53
-588.144 118.016 1016.01 255 251 251
288.401 -76.8477 987.673 160 174 167
110.711 -136.927 1226.58 120 112 95
391.505 297.719 1128.2 208 211 177
-552.829 298.507 1058.41 179 177 181
-533.54 324.146 1070.09 255 251 247
417.721 240.602 1120.56 196 214 200
395.085 106.526 1091.4 235 253 248
260.419 387.519 1185.74 202 240 246
126.308 174.344 1063.53 232 225 223
-580.488 104.899 975.787 156 152 149
207.109 130.91 1031.8 223 194 182
-460.078 80.5388 1018.26 249 201 165
334.767 476.655 1287.15 128 162 163
-588.04 238.801 1029.51 250 249 230
-593.532 225.239 1025.67 255 255 230
-555.962 178.547 952.983 232 221 221
-430.215 202.961 969.995 237 222 206
-617.693 114.703 1041.79 179 174 172
-574.218 186.855 983.916 128 103 92
-594.823 260.918 1078.87 241 229 205
-369.462 60.5268 1243.26 149 127 116
-377.987 164.242 1009.55 196 143 124
-566.103 270.082 1048.65 169 139 122
-550.277 432.643 1129.34 185 186 174
386.236 96.1332 1026.38 209 224 197
346.351 88.6153 936.807 233 242 235
312.229 -69.7343 955.313 156 163 155
222.385 -165.91 1238.87 109 112 104
199.944 194.879 1075.54 181 156 143
-546.587 97.8817 911.676 254 251 248
-514.092 382.072 1136.04 198 190 165
322.698 80.9242 1041.43 245 246 216
-342.255 205.358 1035.64 177 153 139
142.473 172.113 1065.88 241 244 245
244.685 -152.281 1123.62 130 138 134
308.902 96.6409 1058.62 171 160 130
456.862 577.425 1506.7 229 233 232
198.389 -68.9658 1016.5 97 92 86
346.356 384.43 1226.57 163 184 193
313.913 -147.599 1131.88 59 107 106
350.672 73.1659 1076.79 162 155 130
411.348 199.469 1078.03 161 173 159
334.894 279.082 1166.09 246 250 216
206.797 208.258 1140.39 203 178 166
348.258 14.3985 981.011 173 191 171
256.402 89.9165 927.158 208 201 190
-588.969 173.154 1024.33 162 157 151
-462.338 65.7775 1003.12 114 55 32
261.786 133.505 1004.62 244 219 205
301.923 3.90647 1033.2 149 153 137
-319.282 283.037 1182.33 146 120 114
-555.281 270.611 1007.95 145 134 115
293.98 103.856 1040.21 161 162 124
302.364 -74.3717 954.161 58 76 71
-380.671 40.839 1345.23 64 57 51
253.601 -150.593 1142.62 130 141 140
212.497 138.678 1032.96 173 132 123
-524.545 367.57 1037.23 154 150 130
182.831 84.7003 1025.73 180 158 130
343.51 -91.6423 1111.4 144 188 189
156.132 -73.7884 1092.85 172 146 120
-482.648 156.958 1026.71 220 179 158
-524.669 442.722 1141 124 120 103
-486.031 60.9348 1089.32 192 129 112
-630.943 306.119 1181.32 236 200 183
153.518 190.285 1133.81 183 183 189
-405.871 -63.7218 1161.42 84 78 67
237.625 -152.814 1171.65 113 103 102
102.769 -39.5053 969.99 152 124 95
139.383 -68.3375 1009.48 165 124 95
237.548 -50.5854 950.299 145 136 120
192.994 42.5046 986.749 145 105 75
