-102.201 75.883 955.964 249 241 230
-399.304 115.975 1451.37 228 222 217
-58.8912 -16.2935 1106.55 253 253 245
-356.015 106.408 1466.16 243 243 230
-386.808 301.824 1570.11 37 9 5
-58.7158 -8.51039 1155.39 242 248 238
-356.243 113.726 1467.2 27 28 23
45.1552 -38.3932 1150.23 224 219 210
115.071 453.177 965.349 15 27 10
-72.8659 -14.1771 1151.94 251 255 254
-442.143 72.1919 1509.9 249 235 217
-368.853 97.0003 1252.52 88 64 57
-17.3677 98.9255 862.523 249 248 238
175.782 -40.2803 1016.06 38 33 21
102.555 232.367 983.914 180 176 165
176.97 292.625 1020.33 175 173 164
-469.993 545.206 1590.66 100 102 99
-361.418 257.811 1404.75 100 74 56
90.7124 -32.6276 1086.89 245 254 253
11.3794 39.7055 960.83 253 255 255
-514.856 6.15245 1041.83 47 40 32
-430.04 75.5212 1433.1 211 186 174
-390.36 262.695 1481.01 255 243 226
-548.087 114.112 1389.32 252 242 222
35.1917 242.431 894.141 253 253 242
-542.917 128.231 1393.91 255 243 225
-367.313 218.419 1407.61 197 183 180
32.5945 -12.846 1036.9 210 226 222
68.8608 -37.5521 1083.07 216 221 215
-545.007 180.424 1468.58 254 249 236
-499.193 175.429 1347.33 118 89 62
-405.812 332.502 1644.9 199 174 172
109.877 210.678 984.234 181 172 161
127.821 279.768 989.26 166 152 149
-481.245 86.8508 1338.43 178 177 169
-70.2281 100.436 900.86 233 235 225
-328.881 227.532 1581.58 64 42 33
-358.614 250.161 1574.29 178 141 124
-517.734 38.7505 1390.7 223 199 180
85.2478 -32.5936 1086.05 137 141 139
-59.5006 64.7806 949.661 236 236 235
-508.461 31.9764 1393.67 164 144 128
-279.02 376.959 1626.08 75 75 70
-26.6314 53.5228 955.052 2 16 18
119.839 290.29 1026.87 165 164 157
14.7512 120.3 885.906 185 179 164
114.109 259.583 917.414 43 41 37
177.323 -41.95 1055.79 15 13 10
-54.0908 340.531 1082.18 135 127 118
-492.113 116.068 1685.5 247 239 231
-358.495 139.679 1555.17 142 138 140
-14.6799 106.183 835.009 240 239 222
-336.329 97.3919 1467.25 39 21 10
-483.986 217.61 1361.56 147 126 111
-64.0514 114.806 884.985 230 236 232
-464.193 9.22721 1331.67 190 165 152
-76.2233 19.5763 980.47 38 42 37
-420.399 410.282 1417.49 252 254 238
-502.735 237.174 1428.43 254 244 234
-427.682 97.0423 1437.38 56 29 20
-122.13 301.252 1112.34 255 251 242
37.7519 -17.9543 1037.41 95 98 96
-398.98 244.659 1450.2 234 215 202
-376.334 19.3808 1445.13 139 174 172
-507.749 80.6397 1401.69 200 189 175
-79.7693 289.071 1031.33 254 252 243
-187.389 155.177 1043.49 255 251 248
-483.201 296.267 1450.57 151 122 106
-831.86 -123.122 1511.22 234 246 238
25.7071 -23.9963 1076.94 226 225 212
-520.078 190.868 1412.37 248 233 210
-99.0051 83.3295 960.863 39 43 45
-65.2089 64.6082 945.532 62 66 66
40.3959 259.598 949.228 140 139 127
-415.943 264.468 1249.86 255 245 232
40.2182 167.122 836.525 162 151 148
-68.1214 -10.1935 1181.55 136 143 144
201.028 535.598 1144.59 20 51 48
223.23 103.181 1072.81 23 8 7
104.219 519.659 1083.19 80 104 106
175.714 293.245 1059.49 159 167 158
-32.8157 15.8483 1069.04 143 123 115
126.97 223.754 961.987 229 203 199
-413.663 390.867 1350.55 67 65 67
-111.335 307.469 1115.14 253 244 231
-118.244 26.8932 1096.91 239 241 243
-59.3902 55.2361 985.522 237 250 248
-354.275 226 1339.32 97 71 66
-338.991 89.7105 1553.57 108 97 88
62.353 368.591 968.723 225 227 220
-515.314 26.5031 1378.94 145 123 108
213.63 185.933 1076.98 175 154 152
172.055 -36.7441 1055.55 125 136 136
-529.918 158.222 1400.86 218 192 179
-94.2141 34.7965 1016.38 250 195 177
-445.253 318.877 1648.3 197 178 163
-75.7407 5.69352 1152.89 255 250 242
317.534 296.971 1300.79 64 29 24
-568.114 142.282 1467.35 158 132 113
-40.6205 -32.6986 1209.21 152 142 124
-82.3127 301.807 1031.26 248 242 233
-480.718 -9.98461 1533.31 163 140 117
80.1693 426.515 1010.59 248 254 241
-13.0698 116.149 863.745 249 250 235
-14.1542 -27.4772 1177.44 50 33 22
-517.527 29.8502 1375.58 161 133 113
-510.429 126.228 1490.57 155 153 146
-449.791 315.512 1393.08 175 151 132
-438.809 345.268 1402.62 243 233 230
-38.2515 1.45778 1088.6 236 208 187
17.1145 -7.67003 1034.64 225 191 180
20.5419 157.038 910.71 141 142 137
45.811 281.592 928.887 247 252 236
-527.426 98.8135 1320.76 180 143 106
-534.732 142.67 1399.82 197 173 158
-48.6176 23.6299 1066.48 121 114 87
278.626 261.887 1166.13 203 158 140
51.9364 116.258 922.281 39 47 41
-194.179 162.983 1106.81 203 201 192
-9.45006 172.769 928.59 244 251 241
-77.9594 21.8008 1105.29 25 31 22
182.661 520.128 1114.98 116 143 143
54.9941 356.144 967.131 251 255 239
209.2 166.275 1105.86 59 37 28
-427.502 -12.1435 1346.51 169 149 132
183.307 522.415 1140.87 39 69 95
-524.374 30.0948 1312.64 84 65 53
32.6785 290.326 938.657 237 255 239
41.0319 265.567 897.717 166 171 149
-32.4477 60.5448 920.353 99 122 118
-374.113 -9.41896 1522.16 80 77 62
-360.959 108.599 1548.68 238 237 231
-11.6169 10.5725 1072.67 140 109 108
-352.146 58.6844 1543.03 67 66 63
-282.696 447.54 1734.21 45 40 31
-61.0188 34.2275 1040.55 238 223 209
-61.8404 79.1783 826.596 118 136 138
-170.448 193.646 1042.08 155 148 147
-512.115 368.064 1606.74 255 249 229
247.692 292.065 1111.46 75 35 26
-578.616 38.0072 1362.96 240 223 199
-459.801 132.68 1200.07 117 81 70
-21.0912 168.695 912.986 243 253 246
93.1234 407.942 945.274 102 99 88
-499.1 246.893 1433.48 117 92 71
-39.7596 25.1475 968.479 255 249 236
218.754 161.978 1076.19 59 58 55
-24.679 167.205 881.433 148 159 153
-231.733 187.492 1209.25 104 68 59
145.572 5.81677 994.383 162 142 119
2.0387 157.236 867.307 114 115 99
-583.006 -29.1881 1120.34 210 213 203
145.36 231.364 1050.84 164 144 133
-56.6994 113.76 859.134 226 238 230
-87.7817 84.5871 896.814 108 143 141
-555.945 96.5187 1382.94 234 199 151
-396.153 424.395 1594.04 187 187 180
-523.15 289.818 1591.12 220 204 175
-497.344 255.481 1433.56 235 232 212
202.015 155.229 1066.56 53 42 24
-733.364 -91.7263 1350.74 107 111 105
-416.754 402.337 1498.41 203 188 175
-439.133 352.312 1403.77 181 155 146
-493.177 199.888 1426.12 49 56 45
-33.9857 25.3027 1027.57 157 127 120
-107.142 206.088 1022.18 242 240 226
15.5322 -16.7046 1120.81 107 93 73
202.251 158.863 1073.78 142 126 113
119.671 204.247 953.583 196 164 131
-616.666 -26.7361 1197.3 124 126 112
-934.781 -130.167 1725.23 170 177 170
-15.9484 156.686 882.498 241 253 228
-439.025 460.682 1421.38 167 167 165
-488.826 -2.39611 1396.68 60 35 18
-60.8144 95.4575 886.037 99 104 88
112.134 522.431 1103.18 240 253 250
-1415.36 178.511 2232.11 117 125 121
-95.8136 198.547 984.692 254 249 238
164.833 224.322 1072.2 53 30 16
103.294 440.614 1014.82 194 190 179
-365.514 39.5913 1534.45 116 116 101
-0.282602 -20.9482 1009.17 224 198 180
-30.1098 197.911 912.644 222 218 200
-641.98 84.9287 942.94 44 34 26
109.779 -43.3429 1088.91 72 87 76
-118.079 285.277 1062.97 255 250 242
44.3745 351.491 1001.9 250 255 253
-469.528 278.897 1452.69 141 122 97
-401.671 398.261 1489.83 190 185 175
-44.8054 94.1412 846.276 177 192 177
-667.242 -63.4867 1253.32 176 180 172
-408.075 273.672 1471.7 158 125 114
-143.686 90.7879 988.27 74 75 65
-390.626 54.9167 1445.25 199 158 141
30.2916 5.98332 978.845 90 134 141
-103.498 89.8616 942.312 179 146 139
-130.361 244.553 1040.39 255 248 229
-8.77054 124.821 864.692 209 212 202
208.095 146.68 1052.69 141 123 108
-26.3633 22.8427 1028.83 237 223 213
-351.745 47.2845 1541.1 114 116 108
-417.228 -8.51128 1300.79 137 121 99
238.566 167.812 1143.46 123 117 113
44.9581 107.064 920.68 37 43 36
-501.131 34.9938 1255 170 152 129
-21.7088 151.402 852.38 227 246 227
-71.8025 279.085 1055.56 178 175 170
-27.3047 -28.5154 1160.19 139 127 108
-160.002 181.843 1051.42 222 214 203
-15.9249 176.318 883.292 225 231 213
-538.496 192.393 1315.69 154 142 132
50.0642 338.804 965.732 249 254 248
10.7386 185.411 869.347 231 236 221
55.493 528.236 1190.18 219 223 208
257.584 305.261 1151.03 183 149 135
-466.59 321.252 1543.83 211 206 194
-15.7209 184.191 895.419 225 225 222
-41.1489 -31.256 1270.56 91 48 33
-369.733 93.953 1527.9 135 103 90
-126.325 73.8073 973.07 142 136 136
-369.742 85.3177 1417.7 116 99 89
40.4353 385.451 1016.08 144 144 139
27.9663 283.031 937.742 247 255 233
-9.34487 176.586 884.421 243 248 226
46.7971 8.05722 944.094 38 87 87
-20.3952 19.6292 990.754 173 138 127
-563.451 537.026 1749.16 156 155 150
-684.227 138.075 1496.99 246 237 228
-408.589 236.136 1245.96 67 55 34
47.9943 420.013 937.244 139 144 130
-586.325 108.159 1294.8 170 165 166
-7.13716 183.219 885.053 251 255 226
-223.256 228.69 1303.53 213 208 212
205.641 317.683 1107.66 154 147 153
199.647 514.52 1144.85 150 176 193
-2.45093 221.304 931.224 252 255 244
-145.303 82.7936 951.128 126 129 120
-137.175 42.1055 1110.75 213 200 177
-566.198 173.729 1387.43 199 185 157
-363.886 256.874 1668.78 153 106 84
-331.18 269.006 1583.46 166 128 113
-427.591 303.184 1399.68 109 110 100
-13.6751 222.549 885.321 194 198 189
-165.235 76.285 1003.27 144 148 136
32.4198 109.853 888.133 42 52 47
-656.149 89.0783 1393.39 244 250 248
46.4117 451.201 1045.49 156 153 134
-27.5658 222.001 1012.77 115 114 103
-103.82 209.32 1065.69 180 166 148
-84.0449 381.099 1150.95 172 171 162
-134.001 240.123 1078.44 239 225 206
-567.44 332.473 1500.92 242 243 226
89.7269 241.602 922.279 161 128 111
-70.7108 298.955 996.156 182 168 159
-207.681 205.632 1188.25 248 244 246
-24.7391 209.118 869.669 234 233 216
9.15967 226.41 933.343 245 255 239
11.6734 19.4415 996.285 255 229 219
-60.816 452.781 1134.33 150 146 137
-76.4109 267.927 1013.24 220 217 210
-179.715 198.789 1132.03 255 254 250
-1164.95 166.224 1877.05 215 220 218
-1254.36 121.117 1938.19 212 211 210
-9.70885 200.99 916.395 249 255 239
-9.00517 125.883 814.753 253 252 246
-604.789 123.4 1357.29 178 154 146
-488.515 80.9476 1201.63 179 131 89
-18.8038 120.611 834.729 242 255 239
-159.453 70.7457 960.244 59 63 49
-606.172 166.312 1440.32 234 224 205
-15.7782 128.911 893.802 246 254 241
24.1231 296.069 972.917 228 236 222
-455.813 393.795 1560.29 177 134 113
-493.72 105.581 1411.65 143 125 115
-539.477 44.8657 798.575 144 150 145
-80.5369 209.04 971.568 223 209 190
-103.295 435.76 1290.76 251 252 230
44.7202 406.847 1058.97 201 202 197
4.01612 217.44 919.462 234 238 215
-600.655 361.213 1577.43 150 154 137
-950.993 87.1388 1452.23 137 140 136
-525.272 200.03 1323.73 201 185 172
17.8244 304.041 943.624 185 188 181
-782.786 63.8844 1182.4 226 231 226
-355.107 333.402 1259.2 220 199 189
-390.403 255.379 1658.02 176 168 165
-60.34 406.556 1021.19 211 209 203
-138.45 270.383 1056.48 170 152 158
-384.565 321.45 1287.22 181 145 129
-479.218 183.525 1357.29 104 91 64
