20.6698 37.7871 1285.86 80 11 0
-13.3777 432.741 1216.61 231 227 226
-7.27762 444.794 1218.01 237 232 214
-11.7327 439.972 1339.1 35 12 10
-16.198 28.7925 1135.4 255 232 206
-4.4684 344.913 1215.22 48 23 18
-16.0594 457.067 1245.27 74 74 69
-0.334102 468.607 1180.84 91 92 88
207.2 237.956 1792.19 221 223 202
27.1184 44.2387 1287.83 133 43 8
318.652 -62.8817 1575.8 255 249 243
-23.0813 293.6 1134.92 254 238 225
-45.3143 454.51 1231.35 244 231 209
20.3746 478.827 1223.63 169 176 178
-7.22571 444.837 1311.4 244 246 233
348.152 231.53 1652.6 42 35 24
-17.0692 18.443 1182.1 207 191 193
360.558 82.6272 1725.91 245 240 240
326.361 -66.7581 1575.42 238 218 207
321.094 365.469 1699.12 230 252 254
-31.3969 371.073 1011.88 235 234 219
24.8477 249.576 1306.52 255 253 231
401.475 341.439 1992.56 224 253 255
-55.6792 263.646 1147.04 251 235 213
-34.4336 432.293 1176.83 151 126 106
-53.122 115.439 1090.66 144 124 112
10.3791 492.892 1246.02 149 154 155
-34.4355 421.626 1177.27 230 218 213
4.14199 495.154 1244.5 247 248 245
284.069 12.4663 1530.53 245 199 167
31.3714 220.831 1212.83 232 225 213
23.2605 252.99 1268.81 146 115 112
359.251 42.1107 1809.13 249 242 239
-54.8765 188.999 1109.96 126 70 51
-21.8117 34.3406 1134.86 173 145 127
338.933 1.61133 1705.22 131 85 70
-31.5817 466.579 1293.41 154 143 132
333.867 58.9459 1608.17 241 222 216
35.8519 237.759 1269.8 124 112 105
-94.8669 216.341 1113.02 69 46 42
354.696 -37.8401 1788.26 205 187 183
14.7288 200.004 1170.53 255 252 235
-89.5915 126.365 1021.86 135 42 27
-42.1298 275.845 1216.18 55 32 24
-69.9109 324.276 1146.73 139 120 118
23.6163 191.423 1242.07 238 203 178
-99.7493 113.718 1125.79 238 166 132
299.424 -123.843 1558.85 141 138 129
346.944 40.8519 1675.04 255 248 249
-95.2184 83.298 1011.25 240 205 177
4.787 391.189 1277.27 203 197 181
17.3327 166.732 1238.87 161 112 94
14.856 187.798 1299.17 135 102 80
2.66532 173.114 1263.02 254 227 216
-4.60905 287.987 1211.17 122 97 90
21.4968 226.768 1303.94 142 115 99
24.9517 205.564 1272.35 195 165 137
20.5659 203.608 1242.35 121 86 54
237.338 -144.95 1744.72 72 76 71
376.486 21.0133 1739.29 252 233 221
303.66 -11.0106 1697.55 160 135 129
399.354 -4.79065 1818.02 254 239 211
-68.4561 382.196 1293.95 113 108 113
274.311 29.2055 1431.42 214 195 188
316.582 82.2145 1719.64 169 157 151
375.39 31.3493 1716.55 255 252 247
-54.987 465.005 1130.38 143 141 129
311.81 -43.525 1580.15 102 83 78
322.5 70.0593 1549.44 244 240 240
-82.9647 232.442 1221.36 254 243 252
-46.8322 339.639 1122.36 184 168 169
15.2872 179.839 1266.54 244 227 212
449.317 21.0572 1909.2 131 126 123
-8.33931 484.936 1241.32 137 110 87
-54.2 315.29 1144.06 159 161 152
7.33182 157.529 1123.53 170 130 118
-95.6493 103.745 1080.72 218 134 104
-64.5708 122.137 1069.2 136 135 135
49.9644 585.148 1269.81 81 95 84
-67.5411 23.3478 1208.56 186 187 188
-99.6927 102.659 1124.85 251 189 157
279.872 328.468 1828.13 73 106 96
-14.5659 472.482 1239.55 160 156 146
-12.4047 349.306 1186.88 135 110 113
11.6658 200.55 1299.6 231 207 183
23.2144 0.515263 848.342 254 249 224
439.283 16.3141 1906.84 255 250 239
-49.5296 412.064 1207.7 192 184 184
-31.4762 375.92 1146.62 140 130 123
364.939 65.7838 1629.43 213 194 178
22.0785 178.474 1206.89 185 137 111
335.047 -147.817 653.02 107 108 104
353.649 61.9244 1633.12 255 248 246
35.7276 218.788 1267.72 200 175 153
-81.2264 211.618 1115.89 255 247 254
-52.4555 385.231 1119.38 203 187 178
294.355 -25.8011 1449.97 254 248 249
30.7077 255.272 1228.97 166 158 149
380.633 -59.8451 1785.66 215 207 196
-81.7252 107.48 1041.8 146 135 117
-53.7222 182.724 1120.55 224 187 176
-34.5847 44.5505 1181.42 215 191 172
332.55 -143.653 653.709 95 101 96
67.7282 235.951 1275.92 186 157 150
351.542 46.1329 1714.41 137 119 121
18.2558 151.523 1262.74 178 126 102
-87.3026 160.511 1100.13 255 248 242
338.509 -6.81397 1703.3 179 138 130
354.764 -27.726 1700.69 138 116 109
6.74106 377.291 1185.68 226 222 200
-150.259 161.074 1200 170 143 135
316.118 205.573 1496.51 111 99 79
-48.2439 286.899 1125.44 162 109 79
-55.3264 39.636 1128.66 102 68 47
72.7686 506.756 1381.57 89 89 89
-21.529 174.356 1162.3 187 158 143
-81.2328 159.793 1086.58 134 64 53
-61.2622 229.582 1143.56 248 237 207
-53.3097 185.557 1170.86 179 146 147
-46.1679 455.626 1170.09 46 27 14
411.639 -201.436 1751.43 180 195 198
177.973 -100.691 1618.6 49 49 26
-70.0903 111.091 1113.04 153 167 155
-77.0505 111.752 1023.84 144 121 112
27.9788 186.573 1270.04 185 148 119
-190.835 263.125 1128.9 49 15 3
-8.8184 305.238 1226.87 215 160 151
-51.9253 374.209 1262.87 184 165 165
-73.5481 256.413 1170.13 255 250 230
-38.0052 39.1383 1045.51 187 160 136
-66.251 340.119 1166.69 187 189 189
17.8346 154.235 1213.01 253 240 214
-5.341 152.348 1116.32 154 114 100
-34.5505 363.516 1209.49 253 240 231
329.999 -144.605 657.899 93 101 95
443.29 -133.664 1772.33 145 145 126
-214.339 113.907 1064.57 58 12 1
-34.7162 384.137 1265.25 176 141 138
-42.6802 325.088 1126.85 255 250 251
78.2452 294.097 1459.24 255 248 244
14.0842 -6.57467 1279.86 81 58 43
-53.7869 270.298 1123.91 236 205 190
-82.133 250.203 1167.87 153 128 114
4.5394 11.6863 1222.7 160 132 111
199.945 44.3641 1660.94 33 30 9
-53.2325 105.197 1165.48 189 165 162
-2.45081 96.1165 1245.8 201 161 146
442.652 -142.224 1769.97 212 214 194
-103.395 74.4847 1076.75 237 211 179
36.8192 508.494 1311.83 130 130 132
417.817 -69.478 1646.37 179 180 159
-108.324 177.243 1128.99 101 56 44
-36.967 329.884 1104.52 255 247 236
364.654 489.7 1968.2 153 169 165
392.695 401.668 1940.68 175 195 192
-196.085 92.3863 1100.66 147 123 108
504.632 161.534 1955.5 227 229 201
-77.0537 36.9709 1264.41 118 88 71
-81.6913 112.005 1096.47 248 240 226
309.55 477.758 1959.49 105 119 114
22.2629 334.588 1139.44 177 177 157
-43.151 169.605 1318.91 214 117 119
-50.3044 39.4258 1161.11 178 144 123
-4.08237 83.2153 1174.04 255 225 214
-44.275 143.138 1140.46 255 227 207
-35.826 157.502 1143.47 243 216 193
-67.5245 212.253 1118.94 164 122 110
-12.3961 92.4266 1199.81 255 240 220
294.67 85.4261 1930.52 87 75 56
429.486 -63.7145 1712.5 189 186 162
-13.8797 153.527 1197.1 228 159 158
383.665 292.424 1827.07 178 189 187
411.122 -30.1057 1723.42 255 255 227
532.13 -80.9757 2056.76 254 255 235
-155.425 99.847 1066.76 126 100 92
343.628 -61.7332 1373.92 231 233 211
-42.7404 -0.357791 1268.48 130 147 150
-0.0203743 147.417 1161.38 249 198 186
-29.9891 386.602 1039.68 100 83 69
323.978 88.2446 2044.47 138 116 94
-62.3594 18.4407 1371.24 25 50 63
22.7058 1.63358 874.742 216 188 167
357.946 329.776 1676.88 178 197 200
306.006 300.616 1822.76 110 136 141
