263.387 -45.2731 1683.43 255 247 228
-53.002 457.093 1242.18 255 254 247
-55.6424 44.7441 1212.63 255 245 232
42.7175 189.337 1368.89 53 43 29
-77.9213 422.369 1106.6 232 212 191
-46.1886 39.0532 1177.96 123 114 100
-127.239 226.379 1106.82 33 11 12
-70.9002 559.103 1274.81 248 249 248
279.82 470.391 2001.62 56 79 83
-54.856 446.84 1182.55 97 91 88
-46.8786 473.322 1244.39 233 225 223
-187.127 112.098 1085.84 181 161 140
-43.5315 508.081 1220.46 122 128 124
-55.9669 31.249 1158.91 148 145 147
141.204 298.847 2063.84 241 241 232
-82.145 397.554 1080.18 238 227 227
-202.102 551.422 1301.48 214 213 208
-49.9538 504.472 1245.19 69 58 49
-16.3456 213.262 1234.88 124 107 82
-119.103 140.57 1058.38 126 50 35
189.708 352.199 1848.87 7 22 21
-110.177 362.338 1223.39 103 105 104
326.801 300.6 1974.7 126 128 107
-13.2683 492.226 1226.16 216 221 221
254.479 59.3752 1704.3 242 225 223
-90.6314 330.398 1139.62 124 114 115
-74.3554 473.988 1238.13 134 127 115
-46.8722 438.8 1242.62 207 199 191
-59.0112 338.059 1233.98 255 249 237
-22.4975 176.069 1230.68 149 114 85
-22.6655 220.771 1201.4 170 155 148
256.112 -12.0605 1689.46 249 232 217
-113.375 260.718 1161.82 102 90 77
-74.403 511.548 1239.93 223 207 198
-69.714 418.076 1106.26 181 180 165
158.845 -119.548 1737.02 108 114 115
-169.232 156.041 1092.81 160 144 136
246.611 -108.814 1670.63 154 153 136
-84.1409 320.969 1121.55 136 127 103
-17.2754 210.691 1293.52 255 247 219
-74.6291 59.6306 1241.02 254 249 227
-28.6885 179.999 1159.08 222 207 187
-82.3307 368.347 1175.12 150 131 126
-34.5114 384.932 1213.42 242 243 221
-55.6414 361.683 1296.5 133 127 124
-53.7471 434.129 1283.2 122 97 86
-94.9398 282.704 1140.58 136 125 107
-111.904 130.012 1017.4 213 155 134
-56.2796 328.711 1178.85 168 156 148
-23.7101 178.16 1289.23 255 244 217
-110.834 339.79 1167 212 204 199
-28.5736 194.304 1230.77 125 88 69
282.474 114.756 1779.38 75 58 51
269.223 -21.4615 1779.71 121 95 82
295.054 93.785 1717.97 139 115 108
-4.3145 260.036 1300.56 194 204 195
292.745 445.085 1945.21 113 140 141
-112.352 167.476 1039.15 181 125 107
-19.3508 259.585 1237.62 154 151 144
304.118 44.9823 1801.3 247 237 219
-126.714 116.378 1100.48 152 74 51
-40.7389 364.19 1239.76 118 97 92
-31.6545 212.137 1282.98 233 215 198
-42.6435 332.13 1131.06 177 165 159
-14.93 214.666 1358.6 146 112 86
277.211 85.0698 1713.34 243 224 223
-124.079 106.298 1055.41 222 152 129
295.891 97.244 1780.61 215 209 212
-86.5992 197.699 1114.39 169 124 110
-86.6132 203.264 1114.71 129 90 74
-115.048 126.116 1126.2 247 246 229
224.078 10.8874 1684.86 171 145 137
-22.4245 250.135 1236.27 251 240 223
324.532 -172.219 1749.29 184 209 207
-88.3829 405.035 1123.51 189 174 170
307.62 22.6845 1796.35 255 249 225
293.417 112.622 1815.91 202 193 184
202.065 386.445 2082.3 134 160 166
192.494 116.032 1799.07 17 16 0
216.697 111.907 1917.9 144 126 103
-93.9825 265.211 1054.69 178 155 141
-192.82 555.979 1304.45 100 98 95
-125.776 96.3416 1074.53 241 229 206
200.92 93.6329 1795.52 156 135 121
18.9812 499.675 1317.79 92 93 91
-73.2856 418.772 1207.19 145 139 135
-7.58911 237.067 1297.93 170 147 130
247.126 107.614 1807.07 170 147 130
255.255 490.351 1888.19 123 135 131
-99.9155 119.816 1106.74 136 136 135
-7.56949 246.841 1298.75 252 250 247
-103.339 211.129 1039.06 145 121 103
-47.5559 308.52 1179.63 229 195 187
-110.768 141.5 1105.65 170 143 130
-96.3187 244.13 1164.78 255 240 209
-47.8747 334.867 1107.82 255 250 243
-62.653 315.098 1199.02 139 96 94
-115.534 166.096 1079.57 248 239 225
-119.045 193.583 1106.85 155 144 132
-135.574 207.471 1153.19 233 208 196
296.038 -32.713 1794.15 244 240 241
-55.2716 448.581 1134.79 228 226 222
-72.0809 490.856 1134.3 90 75 57
25.7178 93.5244 1328.57 179 179 162
-84.1606 408.257 1152.27 162 158 157
-52.4626 405.105 1210.96 255 246 227
-37.6901 169.436 1226.83 247 230 221
340.663 428.975 2250.9 151 171 173
-98.8042 142.556 1157.53 156 153 156
250.065 345.654 1967.41 108 138 134
-124.036 84.3952 1012.56 153 133 108
-58.0858 462.927 1135.32 254 251 244
-15.8942 263.659 1271.86 128 117 99
261.05 103.648 1705.58 147 133 119
-95.7845 109.616 1061.75 251 239 221
275.878 27.0755 1792.62 145 98 98
259.415 -21.9644 1648.79 249 249 251
-116.6 254.67 1110.82 215 178 157
-148.53 217.08 1101.3 91 48 35
-84.7817 189.332 1163.9 135 94 100
-236.763 295.428 1186.27 93 43 25
-70.0325 103.992 1112.24 246 252 250
-120.53 181.76 1180.02 229 211 202
-85.1872 359.275 1173.99 183 173 179
-105.685 224.652 1111.66 223 194 191
-88.4297 288.283 1072.46 176 165 148
361.016 170.276 1785.67 255 255 234
-44.6428 290.933 1179.25 249 240 223
-114.833 181.634 1054.13 181 124 100
338.222 -3.9326 1793.99 255 254 223
420.049 65.8551 2393.36 253 241 231
-87.2643 209.039 1185.83 211 179 149
-22.251 241.647 1263.48 249 232 215
-237.934 504.711 1246.11 123 108 91
-25.4473 6.32443 1275.95 103 79 68
-87.9061 296.622 1113.59 167 153 131
-73.4626 236.483 1169.52 141 102 91
-47.841 281.846 1104.19 176 150 145
-85.0265 305.141 1140.02 210 150 136
-67.6497 192.912 1167.99 209 173 150
-81.7656 125.731 1160.23 252 247 244
-107.19 203.797 1021.86 201 203 203
258.461 -61.722 1679.1 140 130 120
-70.4759 172.425 1165.98 250 223 206
-134.63 176.892 1056.81 126 77 64
286.612 70.8315 1896.5 105 83 82
11.5992 115.954 1205.71 241 196 179
-79.0124 160.508 1163.26 255 242 235
5.29092 224.553 1299.71 177 166 147
-100.258 222.127 1112.74 174 134 127
335.638 -137.841 2158.87 57 48 36
-45.6123 400.147 1145.42 174 153 134
-84.0599 210.834 1247.76 239 215 190
-10.7232 285.875 1301.21 210 185 163
-114.21 46.3259 1214.72 99 76 61
359.313 113.606 2402.11 57 35 29
357.713 50.7477 1935.16 145 132 119
-51.7753 364.309 1097.35 247 226 200
-38.3761 150.243 1109.17 200 167 165
-72.1863 47.5745 998.671 208 183 161
30.1339 160.875 1316.43 209 180 142
-28.3778 515.956 1250.54 27 28 31
300.613 -128.575 1938.09 173 164 146
273.521 45.5726 1917.56 216 169 157
-120.038 78.2731 969.278 235 222 196
-62.0792 368.925 1235.18 187 168 162
-72.7004 336.193 1149.78 194 171 174
214.88 508.768 1997.01 99 116 109
-26.1801 142.559 1072.45 254 213 193
39.7932 185.483 1486.13 221 192 161
220.413 135.659 2024.35 36 24 1
-50.3686 161.434 1169.65 197 155 135
-67.2316 176.787 1071.47 246 218 194
340.691 365.33 2123.79 161 182 179
-101.453 329.12 1313.58 245 224 201
270.94 18.2031 1789.69 153 122 111
-87.3377 489.796 1326.5 196 198 194
-163.463 255.375 1270.03 204 180 151
-42.1067 297.759 1218.94 204 164 157
-137.271 189.263 973.733 145 115 103
