-62.6214 13.3742 902.929 241 245 241
-66.8067 -75.9347 1056.53 248 255 245
-36.6307 24.9445 856.911 255 253 247
-79.7148 4.53916 909.687 255 252 241
-26.0248 41.7758 859.237 247 254 247
-66.1894 10.6802 880.952 45 21 16
27.6233 184.499 935.283 108 105 95
-451.177 15.7664 1272.35 230 207 192
-74.609 -60.3104 1055.99 253 246 235
16.7203 18.9165 776.669 253 255 255
-409.29 166.433 1376.75 245 227 216
-26.9437 84.7292 890.475 248 249 227
22.4302 28.2396 790.131 147 149 127
-426.11 210.376 1376.13 66 43 29
-496.433 156.452 1206.64 99 72 53
-32.5013 -5.42592 901.935 218 214 206
96.2507 316.227 972.906 246 245 233
-79.7389 -75.8261 1054.02 223 232 215
-495.074 -32.3542 1188.05 154 141 130
101.241 326.128 974.119 254 254 238
-85.7369 -30.142 976.181 222 212 187
-431.498 189.3 1371.34 77 46 30
-408.853 61.0058 1362.98 66 61 60
-436.481 336.992 1265.66 231 231 226
141.928 195.439 973.166 199 182 173
-365.16 160.647 1267.58 212 184 174
-77.6097 -30.7996 958.094 244 210 204
-411.666 54.2156 1361.02 196 187 179
-401.759 70.6155 1297.08 173 162 152
33.3259 -103.044 1072.43 235 237 230
173.402 -111.396 1023.74 59 54 42
27.2686 43.7047 803.027 163 163 144
132.034 192.656 971.614 194 183 173
-435.012 202.893 1371.77 235 206 190
-75.1047 -54.5099 1100.5 74 21 14
-445.907 180.537 1420.6 81 41 26
-463.489 257.706 1244.56 255 254 239
121.993 124.987 932.626 174 146 130
-107.235 216.944 1022.67 244 233 220
-441.525 258.055 1198.46 121 96 75
43.1588 227.502 926.643 78 85 80
-38.8517 -5.54154 866.158 118 126 119
-30.2506 -4.0311 987.735 86 86 77
-174.523 90.6887 1043.2 252 251 246
-449.656 53.5986 1277.24 41 21 10
47.7882 43.6002 842.243 159 152 143
-88.6096 8.94423 908.248 199 167 145
110.806 287.801 973.869 185 180 161
-510.639 122.932 1197.54 255 243 207
-417.368 224.814 1381.3 47 30 28
-77.1825 -65.4952 1055.17 47 49 46
-35.7532 -15.2032 885.027 241 251 244
-59.7426 60.3812 883.952 239 230 219
-397.181 78.2254 1369.63 154 155 151
-357.449 272.679 1472.37 245 233 216
-94.6817 210.935 984.988 236 218 206
76.7971 199.919 910.74 249 250 236
100.041 265.223 907.375 54 40 34
-9.05207 -14.7744 859.7 224 246 252
32.2057 -84.0747 1032.08 83 85 77
-399.487 32.7457 1437.92 89 85 77
-495.54 297.518 1360.74 229 219 201
-377.599 44.609 1372.44 56 41 32
-25.4032 -51.5863 985.953 118 103 83
-63.2549 212.656 991.661 255 251 241
89.9552 -103.747 1081.1 206 231 222
-66.3228 222.06 975.241 247 238 231
-1724.4 5.15563 2610.99 191 196 188
124.157 148.893 967.686 179 165 155
83.728 276.598 969.115 253 255 245
90.5614 237.709 956.992 251 254 240
-526.762 288.182 1489.61 158 153 150
-107.414 222.561 1059.89 124 92 83
-470.797 -32.8732 1147.7 180 156 138
-3.23348 -18.0797 875.849 25 53 48
-430.674 171.105 1374.33 159 125 107
-447.883 60.1976 1347.82 186 173 164
-453.984 265.11 1300.17 139 130 126
-59.8827 55.7837 826.376 248 237 226
-389.842 41.0454 1367.47 62 38 27
-26.1028 15.2705 845.86 156 174 169
-368.384 154.663 1390.22 43 14 5
-510.546 139.572 1263.31 53 54 28
-136.875 8.70004 899.069 187 189 171
32.7212 -32.0423 894.73 222 231 229
-45.9909 -63.0743 1061.32 247 216 208
-428.217 179.064 1299.83 174 158 150
-515.172 108.03 1194.15 237 209 183
-32.5822 236.055 982.569 255 250 238
-663.68 315.551 1453.65 159 162 147
-39.1017 -63.3394 1021.33 237 191 193
-425.136 232.619 1460.48 14 5 4
-512.964 116.908 1195.98 158 118 85
-25.2275 18.544 819.553 112 105 96
-35.7502 2.21784 885.738 243 250 249
-109.538 -36.4724 987.4 208 196 203
14.5759 92.2464 884.537 247 254 248
24.4886 -83.9779 1030.85 72 81 61
-542.564 39.9263 1175.94 234 185 145
-513.072 -22.1439 1185.47 146 129 112
70.6904 180.501 868.093 162 168 153
-399.258 47.6723 1364.83 212 203 196
-4.98976 -10.7276 890.095 108 133 121
-96.5164 -35.8426 1012.04 227 169 174
-707.122 83.8939 1305.99 161 131 124
-34.0576 -60.8261 1022.39 114 104 97
-1380.88 38.3912 2121.84 79 77 59
88.6877 286.655 970.373 240 248 235
-114.607 -24.762 935.278 235 208 183
76.2123 37.918 861.564 41 43 38
-150.759 117.648 947.43 253 245 238
-85.1208 127.311 966.214 254 250 231
-601.79 165.591 1297.12 255 251 236
-394.557 169.891 1460.77 173 138 118
-503.247 -14.8721 1186.48 136 120 98
-522.302 95.9875 1190.03 227 206 182
-12.6334 -48.0241 952.331 142 97 86
-507.845 -10.2127 1037.55 236 238 224
70.788 182.483 897.557 253 254 244
-141.699 190.022 1074.89 252 252 248
39.4968 80.5117 842.441 135 134 123
127.676 181.418 905.44 99 104 99
-57.1464 195.714 992.369 246 240 237
-64.0679 -11.0969 911.819 187 229 222
-75.3961 87.2508 913.806 208 195 180
48.3696 199.325 894.917 239 248 234
-72.5612 222.922 1072.98 255 249 240
88.0164 290.172 936.443 241 247 235
75.3668 191.648 898.661 206 211 188
75.4527 279.003 981.277 245 255 253
-712.616 -15.9194 1202.38 225 215 196
-511.059 15.5327 996.483 191 110 80
-502.806 27.6177 1196.44 192 182 173
-12.79 28.0595 832.931 141 145 127
16.9145 82.8794 867.432 253 253 235
-560.351 -3.40372 1164.1 225 206 171
-562.533 -9.11807 1162.6 122 102 70
-478.885 33.1499 1143 142 137 127
-77.2327 -44.8658 1056.44 67 54 53
24.4749 32.7014 820.723 250 255 231
88.9434 325.313 972.135 252 255 247
-1713.6 -32.3688 2546.14 114 114 103
-98.5924 179.401 1065.15 248 236 220
119.504 170.506 968.439 64 34 16
-465.776 248.05 1242.32 155 121 104
-119.243 173.116 1060.31 255 249 226
-501.286 261.717 1407.98 127 128 116
16.3218 99.5888 856.419 218 226 219
-540.436 48.6862 1177.72 164 120 89
-79.8625 84.8764 912.89 123 113 103
-391.928 32.2497 1296.3 164 131 120
-52.5085 27.6619 900.37 156 158 160
-52.2606 193.438 993.226 160 149 147
-412.537 235.971 1358.09 146 134 128
-89.7037 86.4295 962.925 223 222 205
-156.862 88.2537 967.209 255 252 249
-144.395 219.103 1075.37 251 248 252
164.343 -106.201 1009.65 158 167 158
31.0069 113.036 900.837 237 254 238
-97.5584 -38.8251 1068.57 97 98 92
-811.043 -5.61307 1375.8 233 223 207
59.0803 223.664 988.606 145 147 145
-736.148 335.357 1606.27 223 224 207
-157.536 181.823 1052.08 255 250 243
-610.424 129.439 1287.91 191 169 142
-88.7576 75.6427 910.881 242 233 216
-34.4571 13.1125 844.452 51 79 74
-54.2019 -38.4404 1020.03 195 172 179
-538.193 54.5425 1179.25 247 225 200
-1722.09 -7.54858 2587.82 130 133 125
58.5365 208.109 908.228 250 255 244
-147.624 197.5 1033.42 224 216 206
-442.219 211.283 1139.05 251 254 226
-551.828 -10.8722 1280.63 140 123 101
-68.6662 80.6534 914.786 215 205 197
-113.448 166.858 962.615 255 250 239
-81.3606 160.547 986.111 245 232 208
23.513 -96.08 1115.9 216 212 198
21.2541 87.2574 868.248 159 168 154
-36.5413 259.126 1038.94 154 142 137
-107.098 156.2 928.81 191 155 128
-400.002 -22.6522 1355.28 61 61 55
-61.7532 -39.5902 980.165 98 97 63
-103.315 4.86012 938.739 140 129 119
-634.674 99.7207 1272.12 245 225 201
-37.568 -37.3902 984.621 96 86 64
-54.8163 -36.0913 945.78 155 148 140
75.9809 249.841 932.866 250 255 250
-137.655 197.958 1035.76 242 238 243
-421.815 232.026 1435.1 185 167 164
76.4634 286.052 968.39 237 247 243
-315 168.935 1340.88 99 93 85
78.6272 219.346 845.918 250 255 244
61.3181 -62.1175 962.833 57 109 103
3.29317 -33.8361 905.878 102 95 84
23.5116 120.99 887.388 243 250 234
15.2516 -71.1041 921.861 202 187 164
18.7899 -59.0446 992.821 234 201 185
-12.428 30.8816 850.018 235 245 225
107.003 293.507 939.474 147 142 130
-457.16 28.2871 1271.46 61 32 20
-470.782 -55.4593 1256.73 135 120 96
28.7288 104.105 900.142 234 241 211
-412.347 74.4713 1363.43 163 158 154
-456.431 283.444 1250.92 183 142 126
-1326.18 -147.494 1799.96 202 222 212
-656.238 80.2246 1258.73 169 162 156
-602.444 301.59 1324.4 246 246 242
-121.664 17.598 902.368 97 93 77
-492.631 242.251 1282.81 188 157 136
-618.441 225.838 1302.02 158 154 155
-32.3809 77.2909 859.469 161 161 134
3.16943 145.906 900.415 244 239 214
-511.667 261.867 1349.46 228 202 184
-448.462 225.694 1377.03 197 171 162
-56.7143 -95.8429 1127.17 171 164 154
-82.0301 117.885 931.847 141 118 94
-705.427 18.507 1224.21 241 230 219
17.8736 145.026 846.044 159 165 138
264.759 173.081 1174.21 107 74 56
-164.206 16.0245 926.942 176 182 160
-600.587 119.568 1222.58 205 181 159
-36.1756 11.7585 792.577 84 112 114
-128.941 37.0546 918.335 188 173 166
68.9949 258.966 965.894 249 255 249
80.0601 216.425 900.471 244 248 233
61.7686 145.695 865.278 133 128 115
-615.3 122.793 1284.67 241 224 207
117.013 176.803 983.752 185 147 126
-474.094 30.8354 1013.04 173 125 85
-646.607 70.3436 1194.94 233 219 218
-142.972 107.769 971.063 255 253 246
21.2586 109.952 886.481 249 254 251
45.0205 235.814 949.932 165 166 160
-75.1969 122.68 933.421 252 244 225
1.28673 27.3742 798.709 204 213 193
-137.537 180.014 1034.59 199 197 185
21.2424 82.9809 868.092 225 230 211
33.4127 -85.7861 1145.05 94 90 77
-56.2452 226.415 958.919 173 160 153
-4.26685 78.6383 913.863 85 85 71
-681.765 309.699 1521 242 242 227
-53.1648 25.3239 841.999 79 91 91
-315.784 234.876 1418.85 93 69 52
-373.422 -2.76397 1298.94 96 92 90
67.8729 193.406 817.539 241 252 226
-639.027 61.4498 1197.43 233 229 230
-74.6521 203.237 1028.86 221 205 194
-104.572 158.828 1020.56 253 248 225
-158.414 136.827 1007.74 246 222 213
15.4985 53.452 756.25 247 249 228
-109.687 95.0539 893.182 220 196 175
-33.2718 70.1318 808.362 198 195 179
-698.434 37.6336 1219.69 221 214 211
-551.232 11.0331 1169.39 113 76 31
-503.408 78.2215 1095.35 248 238 211
28.838 139.651 901.469 246 247 236
-437.982 59.864 1218.79 134 128 119
-3121.28 -204.196 4507.42 160 165 157
-95.6795 118.504 981.407 241 233 215
-391.727 3.99563 1361.88 85 78 76
70.8717 195.912 898.19 247 253 234
-692.058 67.0606 1238.66 249 244 240
-8.94161 63.0887 862.727 88 96 82
-112.919 152.903 942.942 155 111 90
29.0367 -46.6124 906.188 91 117 113
38.8104 139.262 872.647 245 255 238
-684.826 131.662 1406.83 154 129 108
1.45053 122.503 883.963 197 181 167
-380.025 291.64 1200.52 151 140 130
-657.307 192.019 1333.5 255 244 234
-76.4127 240.726 1011.82 147 129 118
-568.513 149.252 1185.13 232 227 215
34.933 -50.1684 959.657 55 81 77
-124.056 76.1112 937.66 218 220 205
-396.326 308.747 1256.51 83 89 84
-170.443 131.383 1004.75 249 251 252
-464.06 210.952 1074.78 158 157 153
-632.335 70.4631 1201.74 221 217 216
-28.8659 258.658 1022.46 169 157 139
-3.64092 26.7116 744.432 154 174 154
-97.2 192.007 1023.67 242 231 228
-555.858 5.20991 1166.86 170 152 109
-101.796 2.48413 934.103 123 127 121
-149.418 -1.91139 964.768 55 54 43
292.869 191.848 1279.61 122 99 84
221.04 244.737 1173.36 129 123 108
-604.259 250.501 1313.65 251 252 237
8.18152 -35.8414 972.357 119 125 120
110.046 212.481 952.844 168 148 140
197.568 224.063 1076.44 128 121 113
-23.7742 113.785 871.555 191 179 158
-517.168 36.7924 1248.39 158 151 143
-476.43 172.9 1169.8 185 160 138
-528.717 197.972 1311.12 255 252 232
34.3914 121.939 871.425 246 255 242
45.3184 192.769 925.354 241 250 247
-95.9844 194.503 1004.98 247 234 239
-8339.74 -621.619 11987.2 163 169 161
-98.4371 129.008 1062.48 158 145 124
-150.035 187.082 1032.18 209 204 204
71.2587 232.464 964.914 237 244 203
-380.012 13.8724 1242.6 102 62 54
-31.3641 161.349 943.673 206 193 172
5.04785 135.942 950.668 146 134 117
-6.7877 71.6737 863.37 149 154 139
44.7995 118.852 758.895 237 245 229
