-288.579 70.1963 972.308 36 15 6
-62.2848 403.142 1237.82 229 224 213
-256.511 160.698 1070.83 240 229 204
-190.341 171.6 1088.57 63 30 9
524.523 -170.876 995.826 236 241 232
-309.379 448.586 1202.19 54 40 31
-116.933 403.725 1169.57 248 246 248
-278.607 210.569 1135.82 254 235 225
449.243 71.3377 1184.98 238 221 218
-310.691 22.4892 1004.37 118 93 79
-320.535 362.987 1151.97 98 93 87
-234.541 158.347 983.64 250 232 204
-261.474 157.839 1069.32 88 54 26
-270.845 162.929 1041.15 255 246 234
363.459 -71.5196 1071.39 252 248 247
-260.717 134.741 1041.9 255 234 211
-276.901 349.014 1115.22 242 234 220
514.404 41.8421 1186.19 247 234 228
-189.229 462.814 1314.08 42 36 28
386.099 85.2677 1148.41 242 242 243
496.099 272.934 1229.36 212 234 244
475.777 -64.8823 1123.25 242 233 207
507.543 -185.48 958.986 40 41 38
-273.547 222.295 1138.4 255 247 229
-417.098 175.699 1122.8 109 95 86
-277.006 180.133 1085.4 255 239 227
464.278 68.3743 1185.83 247 217 208
-244.466 213.026 1125.91 252 245 227
564.578 308.451 1361.82 217 251 252
-308.362 387.099 1142.84 223 229 221
365.651 -204.679 1151.19 216 190 176
357.992 -11.6215 1120.68 254 250 241
-251.72 179.619 1073.24 100 53 34
-285.567 163.52 1111.13 98 74 55
-324.446 284.466 1128.77 109 68 61
620.768 -33.4482 1133.24 80 95 73
-166.02 61.6286 1087.7 244 228 196
-280.127 141.824 1036.99 254 248 224
-305.45 372.862 1142.46 245 237 225
-306.008 158.349 1156.74 136 106 91
742.531 120.25 1258.57 215 223 210
-159.44 69.8974 1045.14 255 248 231
-365.368 399.332 1179.8 255 251 235
-194.975 451.478 1295.38 255 253 244
618.598 -129.278 1075.99 245 249 235
-293.13 281.16 1138.02 106 104 107
-346.639 401.379 1186.06 97 74 65
495.181 -177.294 960.235 210 216 214
460.331 -51.48 1080.09 241 232 223
-231.854 158.003 1032.4 144 105 78
-246.813 190.589 1075.2 94 68 61
-253.413 141.737 1026 113 70 44
499.953 -185.915 1112.59 193 196 194
-314.533 314.635 1106.23 255 253 254
-317.661 354.4 1151.85 229 196 182
-345.048 395.902 1147.96 176 149 141
-291.304 179.618 1136.22 100 54 42
-247.389 30.4225 1021.62 122 30 17
-315.756 15.2183 1045.72 246 223 213
-275.183 272.548 1107.49 135 129 124
-438.527 91.5141 1026.63 232 238 230
370.476 -32.1665 1075.97 255 253 252
390.864 50.9788 1177.66 215 202 201
-229.498 336.274 1127.62 241 234 200
347.851 -50.3538 1072.28 242 239 228
659.408 -14.214 1136.73 246 255 249
-173.607 80.718 1184.01 255 251 237
546.463 304.569 1294.57 49 84 94
-174.569 85.0543 1042.46 255 234 225
-264.399 192.469 1070.59 163 142 126
-147.965 105.033 1094.76 219 198 184
436.879 5.80928 1140.37 245 236 210
-258.58 174.85 1026.41 151 122 104
576.231 -243.719 1192.15 91 115 110
-90.9381 299.977 1169.79 255 243 233
474.576 77.0659 1139.47 253 231 221
-118.93 211.088 1157.61 252 253 240
-265.688 26.1985 992.342 144 112 88
397.896 146.023 1157.25 187 175 150
428.599 -167.009 1110.06 169 169 161
-269.895 434.668 1212.7 228 240 209
-254.582 32.9337 1019.9 101 52 42
603.972 -66.4018 1128.33 234 231 207
-301.424 20.0915 1006.79 122 104 89
-410.381 101.578 1068.69 128 130 121
-166.924 231.947 1073.42 249 242 219
379.633 -3.93574 1170.56 173 146 148
-314.781 316.848 1134.7 124 113 115
-100.508 250.85 1137.07 255 246 226
-156.66 74.918 1022.54 252 242 236
-405.082 86.781 994.918 104 103 97
-464.858 139.832 1103.34 241 234 228
369.131 -66.3347 1072.37 252 253 255
665.465 229.614 1338.44 214 219 209
401.017 -156.808 998.537 38 42 30
517.208 304.596 1293.59 58 85 109
-93.3312 262.926 1109.26 255 236 219
605.374 -165.86 1032.75 111 128 105
375.296 -9.04201 1122.47 247 239 238
1344.51 -299.088 1804.81 89 86 80
514.725 355.195 1302.99 170 204 225
-134.57 109.708 1004.28 233 207 191
654.881 -132.421 1157.59 243 253 237
-404.766 178.584 1045.53 132 118 119
-219.928 210.023 1058.41 142 133 120
-450.791 97.5557 1054.33 90 93 84
-162.12 330.606 1256.57 237 231 225
464.708 -4.05575 1129.78 235 211 204
-291.839 305.179 1091.34 126 102 100
-407.613 83.1473 1068.31 164 156 154
635.009 -102.206 1123.99 236 250 229
608.496 417.012 1479.19 92 124 133
-279.093 236.329 1138.05 144 139 131
421.566 -67.3094 1166.51 239 221 222
-153.686 246.802 1050.79 213 209 192
-148.128 352.455 1239.83 199 184 177
-156.698 130.92 1190.17 251 252 242
368.086 60.6102 1106.38 190 174 168
-145.533 252.319 1024.16 221 204 191
-171.476 152.924 1166.42 161 127 108
-257.293 20.7117 1062.16 151 82 57
681.145 98.4074 1160.85 187 188 177
-165.797 307.783 1233.29 175 167 158
-358.92 344.292 1137.12 148 123 116
-408.225 235.668 1096.93 254 253 235
501.894 -222.43 1061.67 154 181 169
-326.021 285.297 1093.17 135 131 122
-149.472 85.5337 1048.31 244 216 202
-134.973 146.361 1100.38 255 249 234
523.08 79.1264 1155.21 115 99 89
-336.197 287.799 1076.7 255 242 244
-370.877 308.615 1168.75 134 136 134
652.713 236.484 1339.45 239 244 237
565.268 -78.5025 1008.22 213 231 208
-284.358 336.912 1111.69 210 211 192
645.144 -14.1328 1136.45 211 229 221
554.628 160.632 1202.58 248 247 225
418.716 -1.26565 1174.19 210 172 153
-389.478 318.718 1163.59 139 124 122
-235.344 68.3099 1070.82 195 140 123
484.808 -58.8076 1089.32 245 221 214
-401.123 104.198 997.468 132 132 132
343.034 -31.8851 1073.7 249 245 245
657.98 375.279 1363.26 217 248 252
-370.461 431.07 1252.48 255 246 237
300.57 -126.332 1020.89 135 137 130
468.672 -76.246 1168.52 243 215 187
-83.3213 332.911 1228.65 228 199 182
-163.888 272.074 1150.64 122 104 87
-119.611 186.731 1095.26 230 224 215
-278.637 639.018 1427.18 94 94 91
-218.218 61.8042 968.573 229 175 165
484.842 -199.795 1106.89 152 137 131
-184.523 77.064 998.356 255 244 230
-393.641 236.789 1101.97 216 203 179
-145.257 109.411 1069.44 150 123 99
-332.799 312.375 1128.74 162 148 138
-361.674 138.704 1056.27 246 211 186
-199.22 69.1968 1035.7 255 238 234
-324.137 316.831 1052.29 255 235 219
543.618 -237.553 1103.83 168 200 194
-248.616 349.95 1211.01 210 217 204
-326.51 294.041 1080.16 240 238 240
-170.283 502.448 1384.04 70 79 75
-397.356 158.328 1076.92 139 107 95
628.71 371.13 1341.49 123 168 180
-403.066 80.0477 1023.17 254 248 242
510.596 -191.284 1111.79 224 223 220
457.191 -99.7353 1007.11 105 101 89
667.574 50.4394 1145.62 218 227 216
-134.516 130.271 1054.21 241 223 190
-420.315 105.527 999.328 142 137 123
597.395 -115.829 1040.79 215 233 209
-368.126 22.9555 1076.93 111 97 94
-137.04 368.852 1217.99 166 105 84
-350.503 321.71 1137.17 240 216 195
490.418 70.7369 1152.6 197 161 160
-430.045 108.925 995.881 244 231 218
-124.866 180.936 1093.44 253 241 228
-341.538 281.797 1135.21 107 66 53
-217.135 202.796 1163.62 174 143 125
354.448 -160.959 1061.4 160 148 129
-363.429 304.221 1083.09 157 142 137
-277.728 305.541 1144.79 166 168 166
440.942 63.4238 1091.01 205 201 193
509.908 19.3082 1145.43 214 192 192
-185.989 272.907 1248.7 227 222 208
437.834 -61.6984 1077.6 215 199 174
-370.911 412.152 1237.24 255 254 242
-181.339 -1.20824 1036.03 214 193 161
-328.447 269.343 1077.53 250 241 224
401.372 42.4999 1143.63 194 191 195
-428.769 183.478 1068.5 247 247 244
520.084 76.3418 1201.79 152 118 115
402.836 -208.619 1147.8 65 71 67
381.563 -215.227 1106 193 172 160
-351.011 325.128 1124.16 151 100 113
-242.575 20.1337 981.762 72 33 21
-173.88 142.567 1139.62 255 249 219
-389.395 153.043 1057.28 121 107 105
-178.351 95.464 1060.4 226 168 130
466.765 -44.2609 1040.34 188 168 147
383.023 -61.219 1073.95 255 244 244
-407.887 215.903 1057.87 252 255 236
641.285 378.19 1424.48 135 167 169
500.043 -211.561 1027.38 175 202 195
379.866 1.80505 1171.22 236 218 211
647.183 -91.3708 1125.7 236 249 225
431.961 19.7769 1142.19 234 212 203
-345.634 54.7426 956.054 221 188 167
-144.009 223.613 957.448 140 132 112
-90.9115 291.168 1169.27 255 249 225
527.931 43.5281 1239.04 255 247 236
287.551 -165.975 1098.18 84 82 77
692.959 39.2212 1196.96 221 234 227
513.375 -199.571 986.906 157 211 213
512.265 -143.54 1071.61 169 156 158
532.205 61.9117 1241.72 96 77 81
630.74 94.4095 1369.38 169 155 145
-378.472 108.957 1032.61 255 251 243
-152.992 301.792 1155.14 164 147 142
-130.216 173.032 1123.44 220 204 179
524.702 291.097 1342.77 92 129 154
-233.251 10.5502 983.607 179 135 111
-161.015 91.2166 1090.78 255 219 208
573.403 389.041 1422.29 157 190 212
410.202 27.4964 1098.53 254 253 249
-329.131 264.507 1157.87 250 254 249
-389.766 89.6712 1000.13 247 239 236
304.873 -184.661 1143.3 77 79 85
-93.7476 285.087 1168.26 188 160 134
-236.459 30.0935 926.844 164 130 122
306.919 -244.384 1239.18 76 60 54
350.394 -55.6683 1071.96 158 150 151
-155.532 183.198 1044.64 255 246 226
-378.113 379.775 1173.67 251 248 247
-230.687 43.213 1026.53 140 79 49
-365.449 194.888 986.443 188 189 167
355.83 37.5079 1102.51 229 203 200
657.862 -87.3375 1162.66 216 230 212
448.095 65.9616 1064.77 187 156 154
-226.253 5.74263 985.082 255 236 209
395.326 60.2466 1131.39 126 130 135
-181.677 1.37311 1029.54 248 227 191
-374.697 266.191 1111.07 173 126 101
-318.138 364.855 1104.28 218 216 211
477.186 -248.452 1306.01 81 78 83
395.077 -231.302 1245.62 95 49 45
550.131 -27.5567 1095.37 230 225 210
-400.94 153.383 971.012 232 233 234
-281.875 305.968 997.568 243 207 192
-127.18 185.324 1104.53 249 234 213
382.092 -53.0437 1118.28 229 220 228
557.506 -130.807 1078.9 143 145 142
434.573 29.4564 1131.4 253 253 255
671.263 382.909 1410.37 107 142 156
-194.16 53.9979 1036.07 203 145 116
-395.639 131.566 1052.71 154 132 111
-184.56 81.994 998.589 237 220 212
561.511 -21.5721 1132.81 186 186 177
422.297 148.619 1115.01 199 200 172
537.308 331.082 1249.75 115 147 164
-260.356 121.154 1023.09 255 246 226
503.081 136.547 1210.59 253 254 250
-206.338 394.031 1139.93 215 221 185
443.003 121.304 1080.24 151 145 131
-383.121 284.465 1090.41 253 254 243
519.45 -138.035 1077.78 96 87 80
-388.693 292.067 1161.06 185 97 68
-80.3583 351.674 1230.57 254 239 210
-377.783 367.789 1172.56 240 237 235
-249.98 246.736 1147.51 169 159 151
-245.979 334.574 1156.48 186 192 171
474.423 93.6911 1155.24 177 161 136
-171 122.07 1064.23 255 242 205
591.946 -66.0865 1042.57 240 244 232
485.53 68.3464 1187.41 103 88 85
402.455 -218.783 1150.53 131 114 102
-429.06 151.084 1034.93 232 225 220
527.655 115.765 1195.78 254 252 243
602.274 307.399 1396.65 132 163 165
539.598 -52.9092 1180.38 227 205 186
-382.132 265.565 1108.57 135 100 79
673.728 -35.331 1182.03 239 255 251
281.532 -208.587 1145.94 74 59 45
639.005 -83.4786 1114.48 220 235 211
-451.459 176.516 1111.12 176 174 175
-245.551 17.8347 1007.11 251 204 180
-415.036 221.352 1093.2 234 239 216
553.209 55.9856 1152.49 165 154 141
-304.278 13.9038 943.731 67 47 42
496.359 142.949 1085.42 176 176 147
604.807 145.614 1215.86 242 243 213
449.752 250.998 1231.41 63 60 49
620.925 -100.612 1079.86 218 236 207
381.863 -58.5182 1117.66 157 158 158
-406.134 134.253 1123.12 255 239 227
348.4 -39.0019 1116.95 200 183 171
620.501 -105.852 1079.15 216 231 200
341.175 -216.427 1191.62 183 188 194
-204.79 60.9517 1078.17 255 247 217
384.153 71.5118 1131.49 237 231 226
606.806 -142.138 1074.11 185 216 207
490.486 -7.11051 1131.03 254 248 229
508.916 365.318 1304.55 89 116 128
514.467 82.3646 1202.54 252 243 228
595.04 -140.859 1036.88 195 212 200
488.358 -43.8824 1085.62 143 130 108
-349.715 85.5963 990.753 254 251 247
726.999 123.391 1258.69 219 227 219
687.698 55.7803 1203.23 207 224 215
-397.309 93.588 1050.12 199 183 182
603.712 -147.329 1073.38 170 198 183
412.741 20.5674 991.41 229 217 207
546.57 -47.2137 1051.71 239 241 209
-203.159 112.913 1137.76 254 221 205
438.366 -12.9553 1094.37 207 197 173
456.065 24.5934 1180.12 227 207 205
660.135 -39.2755 1133.25 214 227 211
398.922 50.9794 1144.66 73 66 73
-128.586 356.618 1206.23 254 198 168
-173.048 113.752 995.628 255 235 195
-380.839 87.4871 1002.84 247 255 254
363.432 -17.9366 1089.59 208 188 186
-28.2038 436.105 1473.27 108 101 89
-164.03 634.796 1408.61 198 239 223
579.288 -294.048 1299.54 72 113 118
-344.882 441.175 1190.5 147 147 137
-350.842 289.297 1072.31 239 237 237
-184.405 218.029 1113.79 253 251 253
-200.478 91.1838 1129.25 253 240 241
666.282 350.741 1359.66 230 246 245
-318.581 266.006 1133.2 168 104 96
327.748 -210.179 1143.86 106 87 95
-232.817 15.4208 1024.51 251 208 169
528.215 -271.622 1190.63 61 113 119
-340.34 267.444 1086.59 160 106 76
322.92 -236.065 1241.43 133 119 117
521.726 353.317 1351.78 88 128 132
621.263 331.527 1277.96 170 190 190
412.013 -93.8682 1041.91 146 137 120
423.008 -6.33389 1250.3 124 89 80
372.812 -37.5805 1047.36 126 121 123
-209.929 63.5049 1077.04 233 201 179
491.175 125.423 1160.71 244 250 249
-454.944 118.488 1054.92 225 218 206
-204.466 55.9327 891.741 243 196 181
507.595 -110.396 948.27 66 56 45
-276.911 115.606 1018.41 208 189 185
