63.1153 0.446681 1179.64 253 238 226
71.504 -3.85026 1210.06 91 50 41
47.2297 525.751 1300.18 245 244 246
70.9655 -68.9733 1739.18 50 41 27
358.218 -91.373 1794.52 235 219 207
31.159 412.143 1178.44 255 247 230
9.652 279.22 1072.63 33 14 3
1.89102 103.613 1081.46 124 47 27
2.44371 76.9191 1100.35 255 215 194
66.8057 471.931 1242.46 96 99 93
51.427 370.337 1198.19 183 152 142
-5.89489 194.683 1153.15 11 6 5
340.784 229.179 1752.65 64 57 47
109.918 462.269 1300.04 31 30 29
6.7196 108.751 1147.67 255 235 226
328.165 403.594 1995.5 216 241 246
59.3977 470.56 1267.99 102 80 67
4.98175 280.162 1091.97 173 128 116
30.7348 420.265 1259.55 255 253 255
59.0481 294.367 1201.49 108 106 106
339.903 26.1264 1802 191 169 172
-105.72 534.071 1364.34 173 171 167
22.2355 384.478 1174.73 204 176 173
41.6971 425.633 1233.96 99 72 57
331.509 29.0832 1709.74 73 66 54
327.387 -54.8509 1690.63 204 191 183
2.42301 65.9962 1099.81 255 175 142
33.7026 325.954 1172.47 116 90 93
57.1218 -11.2346 1177.55 166 160 165
32.8939 429.166 1131.2 186 157 140
57.6862 432.139 1289.09 217 210 207
96.9088 199.501 1316.87 116 98 90
23.4951 433.684 1202.1 180 161 145
341.287 50.4967 1715.72 250 241 233
7.72329 193.071 1134.43 91 57 47
74.7445 360.047 1264.73 243 237 220
110.518 447.596 1276.49 65 66 64
376.473 463.689 2264.23 119 141 152
35.4795 415.69 1231.93 134 131 123
28.3334 441.772 1179.92 35 11 8
70.2905 333.254 1287.91 154 118 119
471.111 88.9125 2410.97 106 89 92
26.1448 286.612 1137.51 122 108 93
365.942 75.3659 2052.06 203 197 200
96.7787 186.295 1315.6 139 116 103
-176.953 527.363 1417.59 17 17 13
-19.6677 189.151 1060.7 210 174 156
92.7958 221.656 1258.17 122 123 101
35.8422 494.269 1237.93 91 67 49
52.9791 284.935 1199.75 249 213 207
-51.0208 356.692 1131.67 27 19 15
146.348 302.333 1308.5 94 95 89
329.398 403.484 1935.57 127 151 153
-17.3661 148.309 1148.75 81 27 11
46.0741 443.368 1183.5 254 246 236
10.691 90.8162 1102.56 110 75 59
52.8307 296.521 1099.86 254 255 246
56.6913 313.122 1150.64 112 109 98
59.5023 388.132 1206.91 188 180 173
43.8463 349.96 1128.25 255 243 238
7.52457 203.997 1088.49 107 65 55
29.3557 385.75 1200.95 157 139 139
1.97931 140.888 1041.01 156 105 74
4.65925 136.08 1083.99 112 24 15
11.7198 201.335 1027.02 240 221 187
48.2045 377.497 1374.63 255 222 206
362.581 10.6955 1814.21 128 113 103
-122.245 525.87 1359.33 111 108 101
101.973 193.473 1287.03 145 125 108
325.526 -4.76657 1701.51 226 193 176
64.6555 313.841 1320.42 127 78 79
16.1241 312.919 1167.97 193 190 176
323.338 370.635 1878.21 94 124 139
343.313 280.163 1862.3 121 151 152
30.818 311.384 1145.72 172 156 162
384.925 61.1649 1917.14 239 230 229
103.656 209.707 1319.1 230 221 209
329.489 -2.93157 1805.9 214 188 167
33.662 305.837 1145.96 254 253 255
59.9085 370.581 1233.01 206 181 160
38.5926 438.281 1132.81 93 77 59
371.422 -38.0342 1699.89 255 251 221
244.426 318.062 1573.16 44 78 81
92.2928 165.045 1253.35 232 194 169
20.6724 77.2937 1083.17 140 135 120
85.8735 152.28 1251.06 138 100 88
376.509 -29.7665 2134.64 64 20 10
21.1661 305.826 1120.82 143 147 146
29.2022 227.503 1116.28 248 229 199
329.448 -13.1503 1700.19 129 105 91
314.501 5.48715 1592.25 148 118 103
-44.6657 367.847 1184.74 120 115 110
311.994 326.873 1867.27 122 143 137
49.3659 284.271 1089.49 153 155 147
63.9529 115.088 1189.55 255 242 241
21.684 453.869 1130.48 161 142 123
48.4717 64.4945 1157.09 255 250 231
69.9284 115.284 1190.65 255 238 245
88.2891 211.016 1259.94 255 246 234
1.96825 135.686 1040.73 160 74 40
-4.15574 173.626 1235.11 236 220 213
108.853 184.655 1003.22 44 57 52
380.118 -207.32 1746.46 170 190 189
32.0576 63.3649 1071.69 247 252 244
-44.6586 332.185 1182.74 140 117 102
28.6213 127.341 1012.37 201 180 184
-21.642 14.4232 117.961 251 234 214
346.366 -152.254 1780.74 49 41 36
501.965 77.1565 2415.65 128 110 95
349.162 5.96082 1732.34 235 201 183
90.8529 150.495 1223.34 195 138 116
138.403 237.262 1433.9 175 152 138
373.716 -22.5847 1793.95 245 218 191
79.687 189.859 1168.82 246 234 225
-6.5822 284.186 1187.9 215 199 194
36.9056 75.0386 1085.89 251 246 237
298.632 -136.785 1555.12 151 152 140
80.4743 129.067 739.606 53 70 75
