-36.4342 -12.4343 1268.45 255 249 236
-94.1274 401.587 1102.75 254 247 248
-73.0111 28.4536 1155.23 255 244 232
-92.6175 425.107 1125.33 232 221 198
115.385 -48.4664 1657.08 237 229 216
-87.0283 516.928 1182.74 232 234 228
137.101 68.4977 2016.52 24 22 18
-82.2691 17.8494 1204.59 188 183 180
-98.5225 450.411 1232.33 107 100 99
-94.2326 490.982 1208.69 252 238 238
-33.2998 3.24746 1270.73 249 233 217
-70.8747 26.0734 1177.15 128 108 90
-122.071 201.345 1018.95 21 17 9
-102.561 417.438 1173.93 237 229 221
104.641 54.6529 1675.77 223 218 213
-52.8441 203.065 1226.6 99 69 52
131.342 33.2872 2007.18 249 214 196
87.3965 334.011 1824.01 61 80 93
-64.4953 -6.11098 1262.85 88 64 53
-91.5738 449.257 1106.19 36 2 0
-89.7099 343.605 1122.2 110 94 88
115.625 -18.6967 1758.72 184 167 158
-113.794 219.364 1110.01 95 70 51
-107.998 310.997 1067.96 86 74 68
-77.9088 393.94 1173 189 162 145
-93.7945 304.529 1096.39 101 39 28
146.993 53.5082 2015.67 125 107 100
74.122 449.599 1954.27 43 79 77
-132.614 224.022 1105.94 210 180 168
117.186 -29.4386 1751.14 62 47 37
-122.169 330.668 1164.63 239 226 223
-113.935 128.067 1059.16 158 82 66
-174.414 145.638 1091.28 160 143 140
-109.156 231.577 1065.79 96 72 63
-73.4903 486.886 1213.32 109 87 61
-111.482 159.886 1061.45 105 41 17
-103.987 237.151 1067.22 250 237 222
-36.162 478.625 1242.58 42 41 40
-46.6729 42.1695 1214.59 171 88 55
-107.958 493.969 1262 124 108 90
-31.5777 471.833 1253.01 96 99 98
112.111 35.2899 1981.7 251 212 196
-119.088 72.4343 1013.2 131 105 83
-221.714 485.869 1123.93 138 133 130
-132.965 298.839 1110.03 202 184 179
-118.862 80.6728 1055.35 254 246 221
-90.8446 365.936 1199.75 253 219 218
-116.465 213.685 1109.06 228 229 225
-48.6638 249.155 1253.03 124 108 101
-63.7325 459.586 1134.98 247 255 246
-112.032 161.015 1019.19 120 59 39
40.6389 288.735 1679.18 54 78 81
-134.607 167 1056.67 102 55 30
-84.0699 319.51 1092.13 243 238 232
-3.47943 338.136 1342.15 94 92 86
-45.6252 36.6304 1138.3 172 91 65
-118.946 98.9834 1056.41 138 49 31
-67.918 349.164 1178.2 117 95 78
-58.7827 11.4193 1156.92 126 105 70
-93.3199 186.687 1087.69 124 97 97
-73.6452 319.222 1175.23 141 124 122
-104.442 113.029 1018.42 120 83 76
-79.3801 310.058 1173.38 249 221 202
-74.3236 424.526 1236.56 241 236 219
-119.092 133.273 1058.29 176 98 76
-237.167 90.7486 1095.28 171 151 137
-101.218 39.751 1149.83 225 201 180
155.704 106.891 2085.44 191 174 181
-84.8916 502.595 1233.56 231 210 187
78.7102 417.669 1907.66 188 218 237
97.6439 -112.784 1640.08 44 38 34
-12.9395 183.955 1261.27 35 25 20
-116.705 90.0402 1014.63 194 114 90
-124.417 177.942 1059.54 130 108 112
-166.618 152.987 1115.79 68 35 29
-116.934 236.521 1064.32 214 171 152
-237.18 503.868 1172.29 66 59 53
-257.572 285.78 1151.11 73 19 10
161.756 -179.247 1847.35 181 195 195
-61.4745 357.897 1154.76 204 190 177
-73.0698 315.518 1199.62 154 123 107
-265.829 116.132 1065.89 65 11 4
-95.8462 123.264 1062.82 172 182 182
-78.7826 381.017 1126.42 255 247 243
-250.625 298.614 1129.98 53 6 2
-101.477 98.3025 961.222 133 114 94
-82.6212 322.986 1118.12 220 193 195
-184.522 95.2236 1041.1 138 113 112
-85.632 42.3444 1180.88 249 220 197
-62.7946 415.048 1328.02 117 118 93
117.769 79.8172 1683.56 200 181 183
-83.6546 38.7065 1081.23 175 142 124
-37.6751 15.0399 1214.13 255 247 218
-73.6014 419.408 1099.61 166 154 151
-73.2812 140.823 1163.58 254 245 236
-79.0752 290.395 1014.31 184 175 174
-67.9029 337.314 1177.55 176 165 154
-63.7287 411.786 1302.2 201 201 176
-67.5709 140.973 1164.86 255 248 239
-22.1254 62.5116 1292.9 58 42 25
84.0845 101.643 1774.21 127 117 107
-69.2073 424.327 1130.67 177 170 164
35.3557 96.506 1761.64 137 119 100
105.265 302.072 1821.9 96 131 134
-130.094 205.839 998.383 189 172 156
-90.2379 111.458 1157.67 255 249 234
-104.262 508.99 1177.84 143 134 112
-153.814 209.274 1100.06 83 45 28
58.1445 328.368 1923.32 98 127 134
88.1358 390.569 1834.97 90 120 120
