-188.436 354.011 1077.56 228 225 224
-177.41 358.245 1055.54 247 243 238
-137.451 168.151 1034.11 224 211 195
-189.527 323.057 1049.42 41 38 26
-124.806 145.426 1035.41 77 44 23
-229.425 351.75 1041.06 253 245 245
425.444 14.136 1176.82 255 250 248
-202.779 0.36505 990.855 254 241 234
-165.48 -8.26304 977.609 206 199 187
-56.1496 178.458 1052.64 88 62 55
-182.193 298.435 1009.06 255 248 235
460.935 -224.938 1103.32 13 27 24
-282.371 70.2711 936.69 235 245 234
-240.73 245.14 974.184 61 64 54
-139.661 162.507 1055.49 113 86 66
466.195 -11.7893 1176.73 255 246 238
-139.388 110.427 1052.61 249 232 207
368.581 -104.37 1111.96 230 220 219
-192.472 359.783 1051.72 26 5 5
-68.7294 129.065 1006.72 82 38 31
-110.411 163.734 1015.05 255 246 224
-195.823 323.943 1073.63 90 72 67
-252.865 150.453 929.328 59 33 29
-135.022 178.455 1035.4 255 240 233
-129.354 141.873 1056.68 249 233 207
-241.414 137.556 944.849 80 65 41
-119.027 7.07545 971.385 89 49 30
405.88 -3.2404 1224.11 237 234 232
529.044 242.553 1457.75 204 234 243
-238.919 342.354 1063.45 248 247 249
-128.552 4.64506 1007.6 221 199 191
-211.354 341.772 1004.75 120 87 74
-161.725 243.064 1076.42 89 75 69
416.094 84.8986 1235.48 226 218 195
466.238 227.306 1328.49 4 25 43
-174.341 -2.45015 997.239 84 58 43
-146.21 126.077 1010.1 118 83 67
-151.543 265.24 1080.51 117 111 109
-162.748 51.178 993.577 82 50 48
436.875 -99.4281 1117.25 254 250 234
-240.472 283.208 1032.18 109 76 75
-131.497 111.35 1012.61 76 41 14
-280.188 108.728 920.099 248 234 231
-181.796 -6.30004 1014.15 240 208 193
451.527 201.16 1268.2 189 215 239
-47.2778 26.074 986.259 255 247 239
437.196 8.44163 1177.06 249 237 227
386.567 -52.0524 1165.97 255 251 242
-144.005 132.277 990.853 229 194 182
-45.6659 36.27 1043.71 255 250 224
427.401 -99.298 1197.37 226 221 218
439.5 10.8546 1130.06 241 225 217
-197.713 367.402 1170.89 187 183 175
407.378 30.009 1228.27 194 182 180
-185.699 335.414 1077 231 218 207
391.641 -42.2348 1218.06 102 77 58
-134.32 135.625 936.555 254 226 206
-187.997 405.371 1056.51 185 194 192
-142.308 150.12 1031.73 148 104 96
-186.207 -1.80802 956.699 36 32 19
-226.19 324.637 1065.66 80 57 59
-235.856 469.192 1190.9 32 27 23
466.198 -230.274 1102.88 170 193 200
-45.304 28.8486 1112.61 255 253 240
-28.5696 372.79 1183.02 220 221 214
-60.6238 188.185 1027.91 179 148 123
-138.259 -0.219379 1005.27 121 74 65
489.81 -212.908 1255.16 211 212 198
577.647 299.647 1407.34 99 124 132
-57.1131 169.469 991.591 116 82 63
468.665 217.165 1271.89 37 58 64
-209.993 292.813 963.986 255 255 245
446.217 8.49067 1177.74 254 247 250
-182.945 223.038 1048.61 252 239 235
-258.529 84.2097 943.296 58 56 47
-275.532 155.25 959.723 251 252 253
-140.366 105.248 919.342 247 220 204
-169.964 58.889 1001.33 139 117 113
-163.924 54.2816 957.985 144 87 82
-238.415 270.099 1015.92 151 139 145
-247.483 60.669 982.901 139 107 112
-272.597 208.93 1044.4 237 238 219
-278.179 84.124 938.332 85 50 33
-249.435 206.8 1008.84 220 192 163
-106.521 184.018 1084.94 140 139 128
-120.152 150.885 1011.76 233 222 202
-243.247 77.3644 963.726 109 70 50
420.407 -29.2235 1171.35 255 248 237
487.643 -191.371 1065.45 171 174 169
-199.623 241.731 1024.13 221 170 164
522.422 -226.731 1317.86 197 197 182
-167.451 46.2252 992.085 161 119 109
474.077 -32.0513 1174.75 255 251 241
446.375 -103.49 1164.05 237 233 208
-202.468 329.135 989.112 196 189 172
-242.942 252.258 1013.55 226 214 199
-126.662 126.474 1014.44 212 175 147
379.562 -6.00191 1170.64 33 32 27
-125.645 307.296 1089.76 255 252 225
-151.867 145.202 1071.13 119 59 40
-212.374 264.368 1109.94 254 235 235
-160.768 295.224 1037.1 213 219 201
-242.971 70.3832 984.495 253 245 228
-148.588 116.112 1009.06 117 80 71
511.934 313.394 1470.04 163 187 214
-226.42 265.688 1018.79 238 201 196
475.976 220.604 1328.16 167 201 214
-194.484 325.302 1007.96 150 148 136
-188.589 370.342 1034.78 254 250 251
-282.882 83.8241 965.154 151 152 148
-119.063 131.814 1058.39 113 59 27
-21.4057 359.761 1164.55 105 99 94
-203.486 90.5473 995.097 236 216 209
391.049 -105.957 1143.07 219 217 217
-59.3182 62.2441 1024.91 188 120 77
482.866 -211.861 1230.87 102 101 87
-221.113 286.973 1037.86 252 241 230
-196.369 380.285 1077.26 112 111 108
-192.386 350.66 1010.37 153 138 132
454.467 -113.856 1198.36 224 209 186
612.748 32.6941 1245.88 223 226 216
459.015 277.834 1335.68 157 174 202
428.668 -43.4443 1170.26 247 232 206
-41.3862 42.5233 1005.92 254 228 200
506.134 -152.654 1253.26 217 198 183
-214.063 111.347 973.038 251 200 177
319.553 -201.335 1230.14 52 55 57
-198.456 264.195 1065.08 250 252 250
396.109 -245.454 1291.61 214 182 158
457.751 -214.906 1150.44 160 158 153
-77.4495 54.1181 1062.64 254 245 235
359.261 -91.8869 1029.2 255 247 248
-100.669 364.259 1121.3 197 199 172
473.872 7.57172 1238.39 128 102 104
-231.418 322.817 1038.09 171 168 172
312.469 -239.562 1345.74 199 188 176
-185.045 400.488 1100.9 41 20 15
-17.4045 140.947 1032.05 254 243 218
-56.307 75.4288 1113.68 244 222 200
423.793 -25.8711 1092.29 241 216 210
-74.858 59.3793 1063.51 251 230 235
-267.157 70.2276 940.556 154 141 141
-116.284 -5.3587 1009.63 113 37 12
560.445 -159.876 1161.76 223 235 220
-211.249 299.002 1018.19 251 203 167
-65.973 43.5995 964.85 252 232 207
-248.598 60.742 961.091 145 76 80
-61.7483 56.2345 1111.18 227 201 186
-299.961 96.4564 970.923 255 243 218
-58.9743 175.618 971.484 212 180 160
-164.961 264.438 1010.65 147 146 135
-258.342 65.694 923.633 116 108 102
-262.587 186.597 965.031 255 249 226
-258.42 72.6165 942.836 210 208 197
-178.251 229.73 982.913 95 45 37
-254.731 274.58 1027.41 134 131 134
-205.178 232.108 997.943 111 59 49
-121.624 96.6784 1013.98 158 99 67
-192.278 237.044 1025.66 184 135 120
-258.321 203.513 967.153 235 229 215
363.155 -216.676 1233.3 197 165 147
-175.317 398.305 1059.3 212 211 205
300.708 -200.724 1228.03 50 59 53
415.69 5.82362 1226.07 225 218 220
-56.5851 85.6481 1068.91 243 222 194
-54.2996 87.4872 1027.33 255 232 213
-218.282 261.213 1036.36 165 156 150
540.87 -104.757 1171.6 198 202 177
-77.4125 38.41 1061.67 255 247 233
-178.99 -19.0398 1075.32 202 168 155
-225.62 263.405 1034.55 133 113 105
-197.471 269.791 1026.49 125 110 113
544.61 269.745 1338.6 94 123 131
388.877 -260.595 1289.13 66 58 60
-98.6885 213.731 1067.47 255 252 237
-267.81 212.568 1018.18 208 208 191
-19.7199 127.238 1055.98 238 221 207
472.693 -167.08 1110.95 204 182 174
440.197 187.143 1320.03 187 194 190
505.514 13.5506 1240.62 245 234 217
314.327 -228.77 1284.46 174 161 156
-13.7948 150.378 1018.88 244 230 194
-221.968 56.0392 988.972 255 239 235
-212.923 244.794 1042.41 255 221 204
421.094 -12.3291 1224.28 228 211 218
-239.777 87.6908 1004.19 240 216 207
510.752 20.9887 1235.11 157 141 125
526.349 231.355 1392.41 136 168 176
519.403 -181.281 1207.46 176 163 153
-218.188 68.1335 969.468 255 251 244
614.265 48.0416 1248.8 217 222 208
468.805 -54.3936 1222.38 241 225 214
-254.027 62.6614 910.672 221 221 214
-293.061 79.7234 971.995 72 47 41
-284.034 131.259 956.044 250 243 239
614.147 -169.422 1267.5 217 232 216
-40.7624 56.7548 1070.24 254 232 209
289.126 91.8703 1290.73 81 73 64
-205.742 272.013 916.443 177 173 171
427.314 172.437 1262.05 63 56 45
-274.577 263.987 1093.89 221 229 213
-137.806 199.419 1103.63 80 62 49
357.829 -76.3788 1124.54 197 190 185
-28.9635 91.3494 988.653 253 246 214
487.511 -0.0593654 1230.79 73 53 52
445.334 265.26 1276.85 165 190 214
386.397 -69.5338 1145.78 129 111 118
-87.2069 200.653 1026.58 236 224 198
-146.304 260.296 1081.39 255 249 253
509.838 5.78242 1233.05 251 226 200
539.072 143.985 1285.09 252 255 246
-222.79 234.714 956.672 93 15 6
-102.898 15.8704 1032.15 110 57 23
-67.509 67.1309 1041.54 255 236 222
400.263 -77.8399 1164.01 182 175 188
-154.463 80.6966 948.987 167 158 162
448.294 13.57 1130.99 160 135 123
-2.62344 188.926 1012.49 253 237 212
525.69 -178.195 1208.15 77 76 66
-198.664 277.278 1003.22 231 198 194
471.25 -153.935 1145.35 86 71 56
-85.6286 274.381 1096.61 241 240 235
-288.992 84.1123 935.545 235 145 138
-180.775 219.22 1042.43 151 123 112
613.657 41.8642 1247.63 126 137 124
-158.271 315.559 1059.08 195 201 168
-210.732 388.907 1022.23 65 49 39
-19.2851 135.037 1098.88 187 161 143
-187.543 252.537 1027.86 144 118 114
410.07 -231.964 1194.94 206 177 170
-181.825 265.838 1006.6 251 226 224
477.348 56.6198 1246.87 255 254 225
-217.545 378.878 1046.55 220 208 190
-231.275 175.518 894.336 126 85 46
-87.2474 161.058 1100.81 182 155 130
458.451 210.576 1325.21 57 106 119
-252.562 264.328 1011.75 226 226 230
-235.455 225.781 989.385 151 109 74
-51.3363 101.535 1070.97 252 242 212
-217.174 299.34 1023.29 245 206 194
474.078 189.093 1381.44 114 108 99
381.759 -225.89 1234.21 113 42 31
514.667 88.7803 1243.95 240 243 223
-249.836 236.822 1010.71 191 175 152
-68.8879 29.6447 1080.24 254 236 210
-83.8523 300.591 1146.02 246 239 232
460.529 -153.063 1117.56 114 101 88
-0.56302 206.799 1087.31 255 228 207
-182.91 400.403 1057.48 175 177 168
-62.8772 84.3779 1017.92 253 242 218
-256.963 241.514 1009.09 154 153 135
-300.353 51.8072 923.037 193 168 145
481.201 -211.939 1105.75 102 120 118
539.017 -161.057 1162.03 58 67 60
-98.5219 158.55 1064.44 123 97 72
566.087 -201.935 1156.04 213 231 210
589.07 149.247 1374.74 249 251 242
394.651 -3.23448 1172.28 207 203 208
-251.222 -78.6701 1154.5 45 42 37
-180.126 287.708 1075.03 204 153 146
-240.191 232.906 988.671 102 52 29
505.533 -222.202 1152.06 61 81 72
278.568 -218.454 1281.15 147 153 131
-77.5075 301.063 1164.03 246 237 226
494.539 284.348 1399.48 66 98 102
505.441 84.2218 1202.48 247 246 219
-5.98847 190.518 1085.33 251 249 230
-194.761 208.196 1110.89 245 212 207
-66.5418 23.7683 918.88 194 110 83
-79.307 288.997 1172.8 241 232 234
-150.824 81.374 1006.79 159 128 120
-69.3134 29.5488 1021.06 165 153 133
379.989 -87.6345 1124.23 241 239 241
-193.766 291.695 1095.43 83 60 50
448.083 91.0241 1239.11 205 211 183
-64.4652 90.8985 1067.62 255 237 218
394.393 -226.326 1235.37 80 63 59
-224.469 224.096 977.153 173 102 74
-188.747 124.214 979.945 201 156 124
-46.4227 144.598 1012.21 237 219 206
384.94 -88.9677 1161.49 255 252 251
-198.372 248.47 1064.49 91 32 28
351.099 -260.48 1296.11 163 160 146
418.381 -129.134 1112.6 153 151 131
-124.495 210.862 1107.45 163 140 127
-205.062 102.158 1056.74 211 158 148
314.145 -210.472 1190.47 193 168 167
-114.751 371.694 1071.34 115 108 95
472.5 -112.009 1164.5 210 182 162
-225.422 103.997 969.768 223 153 135
-86.9707 150.273 999.596 178 176 156
493.309 -60.8784 1172.25 206 197 178
506.424 302.206 1403.4 99 137 141
-126.109 278.588 995.911 135 125 106
406.813 -15.8499 1135.97 217 211 211
-271.84 102.7 940.719 231 232 227
-192.072 521.784 1171.46 52 52 45
424.422 -83.1098 1221.02 86 85 80
-217.352 100.062 918.333 254 251 239
-240.282 355.053 1190.89 216 110 93
-233.747 448.033 1170.3 196 178 154
316.679 -192.4 1230.71 54 58 52
-159.898 182.622 1029.86 98 65 55
2.51143 214.306 1016.32 217 197 177
577.782 -18.6555 1186.8 221 240 220
-301.595 58.9996 931.241 204 127 104
-30.116 211.269 1081.69 255 222 212
-46.0635 109.528 1072.53 202 138 110
-257.53 141.72 884.78 249 245 248
488.024 58.0528 1186.58 245 245 232
-177.626 134.95 822.989 175 143 121
-56.8356 97.6306 1027.4 255 236 222
469.538 -17.4715 1286.42 235 235 236
-223.227 345.924 1001.9 123 133 125
362.747 23.4931 1138.66 130 108 102
538.547 -117.519 1124.03 237 255 230
557.61 7.21781 1144.66 194 206 197
427.069 62.1143 1109.94 251 253 251
395.053 -86.7544 1169.65 161 152 164
512.913 69.0358 1250.52 189 189 161
349.477 -83.8397 1040.51 192 198 197
432.232 56.6815 1109.13 244 251 241
