16.3099 50.798 1175.18 49 10 0
-110.529 256.253 1162.61 47 38 30
-44.8736 58.7053 1190.72 255 247 222
-97.2831 292.174 1157.27 212 205 202
32.5367 105.398 1236.48 40 18 17
-41.6748 64.5535 1164.61 66 36 9
595.614 -125.121 1331.46 255 250 242
-54.0213 22.2629 1134.45 255 247 224
-38.8023 76.1005 1166.1 30 19 17
-111.305 286.669 1114.15 62 47 40
-183.908 3.29387 995.431 63 62 51
-53.5359 39.5879 1111.54 110 81 60
-164.594 316.933 1266.35 235 227 216
-36.6085 87.7569 1314.39 255 243 230
-102.044 259.639 1164.81 241 234 220
-72.5865 28.506 1106.83 252 225 204
-199.52 3.90448 1123.68 71 76 63
-30.1435 91.3931 1195.77 255 252 236
-53.5244 28.5946 1110.78 36 0 0
-107.647 241.885 1162.38 255 245 230
674.506 128.267 1674.49 232 255 255
-64.5549 64.259 1159.71 247 214 201
-203.021 87.3909 1128.53 50 5 1
-145.32 306.066 1211.58 99 70 57
11.6895 328.475 1249.42 241 248 248
-0.719792 334.048 1247.12 227 233 237
-173.943 306.414 1294.21 215 213 209
-48.4425 44.763 1136.81 234 185 161
-118.63 349.011 1280.67 183 170 169
-87.1703 -33.3191 1124.4 255 238 235
-56.3248 86.3285 1114.15 250 239 224
-156.634 253.826 1205.1 85 84 78
489.796 -109.984 1270.33 240 240 235
-112.975 303.319 1242.88 193 185 184
-173.808 -25.3973 1076.37 87 44 45
-54.0547 72.7613 1137.1 139 114 93
4.68983 356.238 1335.25 80 88 90
-95.2658 -43.7894 1144.79 40 3 2
-21.4582 99.5838 1171.5 75 68 44
551.538 -187.729 1447.51 255 249 248
-174.249 127.294 1090.1 234 210 169
-162.362 -6.53771 999.78 64 57 46
-53.2551 80.0642 1247.38 254 249 229
-53.1791 101.879 1164.99 249 232 227
-102.329 332.46 1193.85 60 36 24
506.506 -99.5247 1319.06 226 218 214
-67.9807 52.9665 1133.13 250 234 217
-219.269 -12.1041 1070.48 243 251 249
-97.9409 -99.1358 1118.42 90 79 79
-93.8281 -102.961 1072.16 56 29 25
-42.5633 12.2818 1111.84 83 33 1
1.71888 74.2664 1227.53 153 126 98
40.4998 -53.848 1122.24 252 246 211
-65.1824 38.9983 1132.99 207 168 152
-152.189 199.379 1148.93 255 249 246
-124.229 174.699 1154.05 255 243 224
-33.0485 47.394 1165.07 98 48 12
704.886 156.056 1777.95 61 98 98
-56.0584 113.389 1165.21 110 79 74
646.499 -106.97 1466.57 255 247 232
483.445 -219.666 1244.03 238 231 231
-160.912 264.999 1150.98 250 237 230
-161.5 212.128 1119.46 144 130 117
600.714 -234.388 1375.25 255 253 231
489.713 -162.272 1262.69 253 253 252
52.0234 -9.63354 1127.76 255 248 211
25.9568 -36.2195 1136.23 255 246 213
47.046 -50.1499 1202.23 252 241 220
23.0897 108.9 1104.69 170 143 114
-137.839 207.726 1103.61 255 247 227
542.862 -83.1312 1399.68 238 227 230
-20.6243 318.864 1266.23 215 204 191
-182.085 67.9737 1107.9 100 60 42
-149.876 274.337 1154.27 154 141 131
684.183 140.933 1677.68 189 224 246
533.964 -214.789 1307.45 255 254 253
40.5868 -70.435 1169.65 255 251 227
-73.4694 243.641 1170.33 233 220 200
-215.939 31.3861 1030.01 247 232 213
-173.703 -22.0001 1037.18 147 97 101
-101.851 204.471 1161.29 106 81 65
-135.5 194.367 1152.67 255 242 245
492.95 -10.929 1830.54 50 43 34
7.88715 -53.252 1142.4 253 240 237
652.582 125.631 1589.7 225 252 255
-171.351 184.31 1143.17 209 208 185
535.525 -309.716 1237.11 196 182 167
488.683 -75.7886 1275.19 175 164 164
-229.637 14.2588 1069.41 255 243 231
-85.9243 242.418 1221.63 217 225 203
-51.1543 -94.3762 1128.39 79 49 38
-104.545 169.654 1158.33 152 109 97
68.2201 288.047 1281.66 141 139 137
464.066 -144.648 1245.18 74 52 36
-20.3979 -58.6024 1136.63 180 125 105
-161.019 325.13 1232.62 82 73 72
-204.025 -12.1652 1074.27 81 61 66
-159.925 311.168 1208.22 197 190 185
571.08 -112.226 1464.2 247 237 237
599.539 202.027 1500.65 52 73 89
-105.863 -85.1132 987.097 116 102 98
95.854 314.488 1413.32 106 100 92
547.632 -17.6095 1411.08 194 180 160
-159.001 198.533 1098.05 123 101 98
-96.2061 210.524 1163 230 174 166
-161.505 310.485 1297.71 216 189 177
-145.508 251.441 1229.32 254 230 197
-214.355 3.68349 1072.66 109 98 88
-101.635 146.757 1157.42 255 244 234
-197.383 -8.39958 1100.42 240 232 227
-56.2543 306.371 1178.02 55 47 28
-178.981 -20.1101 1075.36 253 251 248
700.806 232.247 1789.24 161 193 220
583.446 -17.6754 1413.07 242 241 219
-35.615 -98.7027 1083.84 118 41 18
-107.55 313.582 1206.12 253 249 247
586.855 -108.871 1333.85 237 215 208
57.1902 -1.21522 1178.35 255 251 228
584.274 -141.208 1328.4 211 194 193
60.715 277.87 1223.54 253 252 246
607.624 -158.408 1456.74 255 230 223
519.85 -157.503 1385.66 215 192 171
-216.377 87.1088 1125.03 219 205 195
-164.846 173.505 1069 99 90 79
583.988 -10.7036 1414.29 224 223 200
626.261 -100.446 1400.18 135 109 95
678.916 216.212 1784.37 61 93 112
731.236 -375.448 1428.99 167 185 163
-163.113 184.372 1170.15 104 56 35
-241.763 -24.9629 1063.98 245 179 150
-125.513 8.07301 1118.17 255 240 226
-228.187 -32.7388 983.427 241 207 185
-193.09 136.348 1108.44 246 236 220
-31.6092 -91.1962 1106.41 162 61 34
-129.937 197.475 1154.21 217 214 211
520.913 69.4436 1341.44 64 60 50
593.004 -244.217 1373.31 222 198 179
639.407 -224.636 1377.75 214 188 172
13.0698 -35.6998 1167.33 255 255 217
73.8198 44.5376 1237.14 255 246 226
-164.014 160.187 1094.57 86 11 4
516.297 -207.439 1376.91 206 190 182
-79.9175 -1.49264 1058.63 162 163 151
-112.403 43.6153 1147.54 152 115 89
497.517 -189.764 1259.05 248 249 252
617.989 -16.9145 1350.19 220 220 192
580.457 -100.328 1398.52 217 179 183
-167.886 183.182 1041.96 224 228 229
623.739 -110.435 1464.42 215 193 188
-179.709 203.914 1142.35 143 137 142
-87.6652 205.106 1164.6 114 115 109
-34.614 325.69 1239.13 82 76 57
63.1659 7.44098 1180.17 241 219 197
-101.613 141.024 1157.02 159 123 119
-222.158 -8.19852 1079.28 72 76 61
37.6066 -70.293 1120.42 254 240 205
-126.905 155.966 1103.08 104 84 68
-16.5211 80.0981 1224.25 96 72 61
554.723 -211.751 1251.44 224 211 195
-91.0229 -111.694 1093.32 165 149 148
32.3715 1.59247 1125.19 238 212 181
-160.3 3.74942 1085.77 255 238 231
39.9144 68.5914 1181.12 254 239 218
-187.593 -19.1443 1019.35 226 233 214
-205.947 4.63898 1009.1 240 164 164
583.077 116.459 1497 75 118 126
-55.1952 11.073 1266.59 199 155 129
-76.2104 -2.88454 1128.41 255 251 239
-184.654 127.012 1087.53 213 201 171
-35.9195 122.549 1170.2 155 133 129
582.363 83.3051 1532.53 182 194 189
605.811 -174.692 1386.13 225 212 201
-115.5 228.174 1234.54 75 52 42
603.49 -35.0747 1411 125 127 109
584.936 -174.62 1385.49 255 243 226
-145.582 332.388 1198.76 206 183 169
-118.762 203.708 1157.29 141 124 119
-199.943 -16.4778 1099.39 118 102 93
722.239 -395.6 1425.43 132 119 104
30.8863 -5.41082 1149.62 255 236 208
577.731 -134.26 1392.41 246 237 244
-233.988 6.68917 1114.92 190 80 74
-131.547 165.985 1124.45 203 135 117
526.924 -187.2 1353.11 254 230 230
-111.179 208.782 1131.18 221 213 207
559.772 -233.183 1441.54 250 247 247
-209.522 30.1607 1075.47 168 130 138
-151.565 -14.3004 944.48 192 177 171
-139.477 27.9654 1092.13 240 175 155
425.97 -326.728 1352.2 49 54 55
-91.5104 -36.8883 991.777 255 244 219
-90.5436 216.601 1164.7 123 91 71
-220.57 6.05763 1027.54 180 85 62
466.556 -344.331 1348.98 232 218 212
-158.871 -4.20123 1041.55 255 232 225
566.834 -216.536 1270.55 113 94 83
552.739 -412.223 1561.89 56 26 15
671.99 117.707 1589.09 120 153 161
686.319 209.116 1692.29 109 148 148
597.915 -144.433 1391.33 217 202 204
-211.457 3.30809 978.315 194 120 102
702.246 -312.425 1361.76 54 76 57
497.697 -87.5627 1219.54 250 229 233
-150.908 266.275 1207.43 148 111 103
-190.349 -13.6404 982.179 242 239 236
-105.151 341.357 1168.92 158 159 142
-104.871 350.85 1211.26 224 218 199
18.3447 -1.13993 1122.45 255 236 208
-20.6415 -77.7629 1109.47 140 53 23
700.01 -234.297 1376.29 241 236 206
485.732 -353.236 1351.09 98 73 49
743.402 -321.105 1438.22 60 78 58
-66.8356 190.44 1189.09 165 158 157
-147.106 254.29 1141.17 165 142 128
-79.0155 164.746 1163.83 178 171 155
8.23052 203.444 1239.67 181 176 175
399.993 -308.804 1284.76 143 151 149
-119.451 372.407 1247.91 126 125 125
67.1113 68.3271 1108.58 250 218 185
29.4723 -17.8144 1123.17 252 208 178
-119.705 331.251 1189.5 187 170 160
-200.283 26.0068 1020.01 225 236 230
759.063 205.831 1790.75 143 171 173
-163.004 17.0821 1085.98 253 215 187
593.705 -138.27 1270.62 151 118 115
585.658 -35.0547 1410.18 204 203 174
669.409 133.689 1592.11 132 168 170
-84.5488 109.828 1158.68 232 209 185
642.395 209.972 1588.55 116 157 159
-139.179 268.258 1243.85 170 113 84
-169.037 109.357 968.92 147 148 122
580.875 123.891 1668.01 51 74 72
-233.909 58.9455 1169.89 254 250 244
25.9828 526.386 1504.65 106 137 125
-115.888 189.412 1157.01 255 244 244
-223.93 56.4885 1096.95 201 189 184
747.191 99.0169 1670.31 140 167 157
692.233 -323.459 1425.18 189 186 178
-121.79 208.435 1107.39 240 190 180
-56.505 8.98002 1063.97 243 200 177
-64.7199 159.421 1166.64 190 175 165
-81.055 327.705 1214.25 103 82 63
633.421 169.672 1510.1 127 155 159
-52.8083 -80.352 959.721 250 225 195
-132.355 251.92 1182.54 245 165 128
