-40.7626 57.8352 1070.13 252 229 199
417.602 -108.716 1527.46 255 249 230
90.7797 -11.7017 1270.72 65 17 2
12.0272 471.955 1256.96 218 215 208
-9.12762 213.181 1132.05 91 66 56
-1.18727 357.41 1166.76 245 240 239
398.736 -167.288 1514.4 227 223 215
-40.7608 52.5626 1069.79 117 48 25
134.489 430.441 1371.54 73 72 70
482.633 282.771 1883.6 28 58 64
-4.02755 232.784 1239.92 54 30 27
50.1744 -31.5969 1204.08 213 206 195
-3.51324 207.811 1132.88 255 241 221
43.4547 449.679 1262.96 70 74 74
-40.7589 47.2919 1069.45 254 231 206
1.75258 371.99 1168.24 212 194 168
4.78555 74.1068 1228.48 62 63 51
82.1568 143.365 1195.26 100 56 36
550.336 316.675 2112.9 85 109 115
12.1475 387.563 1217.3 132 115 90
452.029 93.5814 1651.43 204 192 160
-30.1506 161.301 1078.42 77 46 31
78.3373 111.695 1218.93 123 80 54
30.7331 420.658 1259.02 140 139 134
-149.262 469.434 1420.14 207 195 179
69.934 113.675 1190.62 91 53 36
66.3287 451.208 1297.91 248 253 250
30.6824 405.154 1258.27 106 99 98
84.6385 138.899 1221.72 243 210 191
13.8714 380.731 1224.09 236 230 214
493.35 20.9907 1727.05 255 252 251
432.693 343.771 1789.64 49 85 87
43.2643 399.78 1260.65 235 215 214
437.378 -7.81706 1629.01 125 117 116
417.756 13.751 1534.12 249 220 221
386.959 200.86 1852.17 9 17 13
-114.858 497.504 1432.04 196 187 176
-93.8074 468.256 1323.71 211 207 198
43.149 371.64 1259.13 196 184 171
-41.8309 34.9497 1045.05 255 232 203
-11.9573 73.8467 1052.87 121 118 114
350.722 -195.726 1673.91 29 33 32
-27.5303 60.6183 1072.88 238 225 206
37.958 302.872 1222.67 133 116 111
449.154 189.333 1669.76 38 30 19
52.3511 38.8975 1131.66 104 86 67
-22.7649 111.595 1191 104 90 90
76.4113 178.768 1196.95 255 246 229
-30.2004 104.721 1036.09 151 50 47
40.0292 394.05 1287.46 171 167 162
450.361 248.951 1773.22 91 115 122
428.526 -83.3577 1612.19 222 202 185
-3.64023 140.89 1128.64 105 56 52
490.966 263.617 1880.05 229 255 255
83.3877 197.711 1274.98 123 100 82
396.616 273.425 1864.3 53 81 83
559.008 294.845 2106.54 223 255 255
451.951 -10.2349 1665.22 242 238 240
29.0387 359.477 1164.51 238 224 222
-35.5814 81.6784 1093.02 189 108 67
41.3182 355.004 1227.85 219 195 176
535.127 -8.13456 1952.5 251 244 244
-0.59811 116.479 1039.52 138 118 115
82.3507 106.369 1246.52 253 235 211
75.193 438.51 1269.3 238 241 241
-28.7411 173.504 1125.68 178 147 129
469.653 -78.3776 1712.05 203 201 193
-15.1132 193.054 1013.96 254 247 245
39.571 271.728 1251.98 151 114 99
35.1537 327.683 1198.52 255 246 224
98.8215 184.261 1256.58 138 126 120
39.3483 284.422 1169.88 255 251 237
-35.4784 73.7256 1072.17 239 158 145
82.6067 202.246 1284.17 158 149 141
489.541 -29.8663 1714.55 254 235 222
-54.43 119.161 1090.86 101 57 40
64.8467 342.187 1323.23 254 255 243
-18.6482 272.728 1157.13 129 117 120
-28.7025 189.396 1148.08 113 81 70
85.4022 97.2004 1246.21 178 139 104
-82.7438 89.5387 1063.46 162 139 125
53.1129 311.034 1201.21 228 223 208
66.7102 105.99 1243.56 252 213 198
14.1071 276.394 1191.4 145 139 137
35.5121 421.982 1231.6 119 76 63
-12.8844 287.271 1159.49 112 108 111
-21.36 204.477 1179.44 255 251 226
-0.648847 301.943 1189.8 149 135 120
-7.60795 340.912 1135.07 191 184 179
4.8099 429.484 1171.34 135 111 90
-85.6423 486.224 1365.58 63 59 52
-36.8301 83.0746 1073.47 182 123 101
35.1125 342.442 1225.52 140 108 90
-44.9095 173.686 1197.38 75 55 50
51.9423 432.063 1225.95 87 94 91
581.769 357.111 2018.28 142 143 140
33.3025 268.322 1250.44 251 214 192
-9.69124 181.529 1180.3 255 243 227
20.6827 137.125 1209.19 124 64 41
399.759 234.84 1763.67 76 107 111
70.1176 143.116 1247.57 229 203 187
415.01 -86.3927 1531.5 177 165 155
89.5408 208.832 1256.92 159 146 136
454.547 -101.302 1612.62 254 254 251
30.3139 302.421 1252.17 161 144 135
-31.4643 151.136 1051.66 191 180 183
-37.2847 253.157 1164.85 199 192 187
-56.6946 182.132 1195.21 197 170 150
548.644 -253.572 1745.93 175 199 199
-3.44801 244.145 1134.92 142 50 32
27.0479 253.712 1216.26 151 92 74
471.462 -114.881 1609.16 238 212 192
11.5097 431.979 1197.41 87 60 53
432.438 29.6001 1723.1 180 167 160
582.826 -174.216 1769.55 244 244 225
-136.452 34.9124 1116.99 170 143 132
-24.7968 188.077 1080.91 250 241 216
512.977 -8.70226 1721.53 231 215 204
23.619 110.38 1208.24 252 234 221
477.543 -95.1716 1710.1 166 165 167
-33.1009 88.4447 1195.23 250 233 214
-19.5884 29.0176 1072.32 255 239 221
423.256 387.562 1778.56 118 141 135
83.2499 329.337 1290.62 245 245 228
-79.8388 517.282 1443.41 207 207 201
-103.682 402.574 1165.7 165 157 148
103.415 183.109 1317.09 253 253 246
601.256 104.421 1848.76 250 253 226
18.6395 329.41 1312.44 255 238 229
-144.146 -50.2785 1299.4 56 46 40
-144.466 222.168 1234.3 75 24 10
487.527 191.091 1765.32 105 87 66
-173.047 64.1779 1217.55 76 33 17
98.5725 167.776 1285.21 183 161 143
409.777 31.1361 1552.97 169 153 147
495.294 24.3642 1838.58 90 78 73
-6.58267 -19.4112 1193.84 84 60 49
-0.665647 293.183 1189.31 172 165 165
143.679 200.126 1391.59 177 160 148
58.8114 344.596 1260.75 211 202 179
-36.7362 120.413 1065.06 145 70 43
92.404 440.629 1302.27 163 171 174
85.6316 167.412 1282.67 158 137 124
-14.5023 161.652 1149.78 172 134 121
45.7633 256.578 1252.12 232 199 190
-139.106 236.916 1208.51 64 10 0
-3.52814 346.023 1191.36 161 147 145
411.068 -31.8318 1621.28 193 165 152
442.078 248.622 1870.73 101 133 132
46.9728 283.975 1198.47 189 163 160
27.669 145.059 1298.26 171 109 91
-3.94433 428.73 1169.38 160 136 113
101.394 577.491 1378.69 87 103 93
140.538 -64.1464 1423.1 247 239 218
656.383 118.808 2117.64 246 238 217
427.167 325.372 1785.39 88 141 147
-41.9616 256.49 1201.84 163 136 131
-4.82102 326.925 1134.49 218 215 217
8.29122 -10.8032 1197.42 105 85 75
-15.6773 308.065 1290.06 203 196 200
48.6088 204.337 1248.58 148 124 114
22.0844 25.3548 1174.28 211 138 115
71.1503 -35.5511 1154.97 153 125 104
476.921 292.5 1672.38 143 149 146
497.585 -53.3404 1720.16 247 227 204
5.24038 287.671 1190.22 251 252 249
51.9348 238.39 1251.96 214 178 177
398.291 -61.2156 1611.16 152 127 111
327.437 -216.399 1865.57 67 69 51
393.007 79.3649 1449.21 129 109 83
524.927 -75.9466 1705.95 242 237 214
11.7735 79.7599 1170.24 255 248 251
-3.18493 -25.0731 1093.83 174 163 150
344.379 201.559 1536.42 86 118 121
7.68658 -32.4237 1275.68 152 160 166
349.513 -223.773 1668.69 197 168 162
39.5706 91.0379 1106.12 250 232 226
552.209 -108.598 1699.37 158 160 130
515.373 -229.759 1586.58 173 181 177
511.655 60.8523 1847.76 140 125 104
-49.1956 25.6216 1024.59 164 137 109
40.8299 251.091 1195.24 156 86 81
402.329 402.194 1899.27 89 107 102
15.4685 -12.8539 1318.26 189 161 141
28.3864 283.368 1125.63 251 229 215
405.697 -22.444 1370.86 253 233 222
-35.479 129.388 1075.54 194 186 183
515.079 318.65 1891.1 179 191 186
1.63818 -10.0082 1073.55 183 159 132
408.977 -123.478 1523.8 113 105 93
13.5597 97.5753 1178.66 254 225 204
572.377 -133.869 1925.07 240 222 199
405.993 362.237 2002.49 54 70 62
56.6841 107.141 1300.38 199 175 165
730.241 -209.211 2194.98 197 201 185
49.6651 222.05 1195.03 212 184 176
379.335 -158.708 1368.29 71 60 57
299.559 -190.55 1666.54 129 132 120
135.418 86.9903 1312.85 255 240 221
69.5387 193.572 1279.17 103 88 76
322.578 221.298 1540.8 54 79 92
501.137 89.7116 1572.92 255 255 236
529.483 -173.71 1681.79 192 188 168
458.402 -40.444 1717.13 208 182 166
305.004 -158.28 1673.05 40 38 18
531.267 365.972 2025.39 161 188 185
520.357 -25.5967 1717.98 134 117 104
690.153 -308.892 2172.6 86 99 90
22.5043 60.3215 1151.92 255 252 240
22.8009 44.4962 1098.82 255 172 139
363.659 234.413 1758.38 60 79 82
527.426 302.653 1893.22 186 198 198
496.041 -101.054 1508.34 213 214 189
514.219 63.9757 1739.03 255 254 220
587.164 -294.657 2004.07 188 213 214
559.479 -134.417 1868.88 231 205 185
-35.9208 253.362 1179.46 195 187 186
391.893 114.525 1994.98 83 89 72
61.686 75.0494 1179.69 191 184 183
125.406 205.566 1283.44 255 244 217
356.968 100.998 1829.91 55 52 35
-5.62241 108.178 1167.74 255 251 241
