-27.1281 154.59 834.628 242 242 234
69.0399 271.091 901.479 214 210 200
83.9521 257.841 913.761 234 215 204
68.2491 -10.0792 1062.56 251 250 247
77.2601 316.903 914.149 219 220 214
-75.9781 79.7637 925.701 222 211 205
103.822 324.368 925.685 225 208 209
-111.737 -130.172 1651.34 202 190 170
60.3206 3.1567 1061.91 226 203 205
142.892 -4.77734 993.488 255 252 239
-153.307 -100.829 1487.97 206 177 159
204.953 29.0948 889.048 173 191 186
-199.016 -96.1633 1627.66 232 206 194
-5.37958 -9.43389 1538.69 222 191 188
234.188 225.317 941.519 7 12 12
-13.7146 29.8502 1112.23 255 251 237
115.668 278.721 974.462 221 201 186
-169.706 -106.294 1569.24 212 186 164
117.796 283.566 927.357 219 192 190
-165.07 63.919 1365.54 18 5 2
159.115 344.278 968.16 199 210 212
165.075 349.862 950.554 162 167 166
109.783 23.6012 1002.55 234 238 240
36.4672 11.0496 1058.25 253 233 253
-21.1053 -72.1255 1462.48 178 213 212
-198.412 -90.4715 1530.56 187 157 141
194.398 336.886 930.711 244 196 198
117.985 19.6518 991.106 112 109 109
112.841 16.5717 956.738 53 55 53
-79.2399 -46.6249 1809.91 190 166 157
-77.6965 -41.4423 1605.18 165 143 139
130.301 8.21366 1073.3 241 242 235
230.849 270.016 976.801 172 174 170
-34.0837 -13.8366 1620.96 145 138 129
214.518 30.9647 879.983 31 31 21
-22.972 188.017 836.177 171 187 180
163.23 -3.75495 1094.45 229 232 225
73.7229 298.539 903.254 196 180 167
-122.164 -556.558 2405.75 240 240 238
28.7655 -50.1858 1700.62 56 55 44
292.514 334.128 965.694 156 137 127
-31.3375 86.2338 889.718 37 64 60
-185.745 -28.9772 1574.84 193 179 170
-79.4573 116.19 972.403 184 213 210
-18.1209 79.8471 891.681 68 112 112
256.345 352.143 972.742 81 45 28
16.0422 233.402 911.613 91 82 81
-188.232 -42.7336 1580.33 232 201 185
17.4459 75.222 877.16 190 190 178
-200.038 -82.7501 1563.06 187 156 132
225.707 207.428 899.538 61 54 40
260.382 174.533 943.483 40 13 11
158.09 3.88379 1009.05 202 216 210
194.295 349.176 964.872 238 172 172
-177.413 -109.526 1019.42 57 39 18
105.839 -8.77382 1048.54 76 22 10
-17.0495 38.5199 970.408 255 159 155
6.21095 216.395 841.483 170 168 168
-147.612 -101.883 1377.64 183 155 132
29.4543 20.3684 1073.13 64 30 37
13.213 155.259 878.326 74 83 81
-170.952 2.13589 1583.59 155 145 135
-38.2022 149.239 806.251 159 153 142
25.5821 84.0562 868.767 182 183 181
120.224 -26.3705 1217.03 154 152 144
203.654 282.019 964.355 132 139 131
178.942 264.184 960.568 161 156 151
7.94142 -48.3804 1401.11 123 123 106
-22.9783 179.665 835.967 58 66 56
-263.257 -89.2072 1509.88 255 245 223
54.5918 19.5599 1106.72 225 192 176
161.056 240.705 845.056 61 64 60
0.578789 -101.056 1463.05 60 56 44
18.1389 -70.1237 1626.57 68 63 48
227.342 328.004 941.652 182 196 205
-27.5651 31.3139 1070.91 227 213 206
-56.5564 48.9184 1066.4 212 169 144
-177.154 -9.59162 1587.06 29 26 8
-6.0431 -57.9257 1622.16 142 148 131
-59.9744 124.707 802.092 193 199 189
246.268 228.029 942.961 122 123 124
220.519 241.697 965.086 92 59 34
24.1865 162.142 880.144 36 62 60
98.0544 336.202 959.535 39 40 41
-264.947 -95.1471 1545.69 113 92 68
18.2175 -54.1286 1628.9 188 184 172
162.719 72.5124 897.054 177 168 149
262.976 267.332 971.083 114 112 107
-87.5847 76.0141 1009.56 156 149 142
224.631 244.916 932.092 168 152 144
-27.8268 -44.1564 1799.23 146 117 105
-8.7929 171.29 866.339 75 86 79
23.7532 76.3996 929.358 76 85 91
-37.7135 -49.28 1538.83 130 108 102
113.027 250.84 877.364 166 133 124
-217.742 -166.267 1489.76 206 200 189
256.925 233.208 1026.89 158 137 122
54.0292 58.1057 946.989 60 89 84
225.619 256.33 966.251 164 138 129
43.1089 172.147 859.58 121 121 122
165.91 -17.2513 1094.37 180 167 161
180.048 -10.0389 1037.31 63 62 46
102.471 -11.6681 1084.6 213 152 143
307.801 339.944 1015.15 139 98 89
-19.5314 -103.176 1709.53 165 186 178
209.739 234.557 950.815 160 132 112
-230.399 -40.2287 1559.04 187 158 136
55.867 289.161 891.718 203 175 158
224.789 212.054 877.226 111 109 111
37.6443 318.726 883.973 193 175 168
225.246 175.303 974.228 152 118 107
215.736 255.984 965.016 168 141 124
-97.412 58.6329 1007.19 72 75 64
205.004 6.27722 1023.02 93 96 84
158.685 -2.18302 868.597 109 106 93
-18.012 168.581 822.514 36 34 22
288.053 275.499 974.202 103 52 43
243 92.0254 948.301 80 47 34
0.13544 151.69 846.935 77 95 92
-88.7876 95.4643 911.513 162 160 147
278.125 238.976 1029.75 140 127 118
220.572 246.515 965.273 186 147 121
170.542 291.808 916.74 37 74 83
115.887 264.692 894.727 158 156 152
151.092 216.972 921.946 122 73 59
136.658 202.177 859.518 128 83 62
134.527 188.904 918.744 186 120 100
185.358 -7.47519 1038.15 178 171 163
-147.107 -22.8416 1552.43 136 134 126
-5.28755 140.812 776.417 184 173 172
144.661 263.136 912.045 53 29 9
125.837 291.795 920.656 169 152 133
36.3478 43.4839 979.591 135 106 89
-13.3458 -24.8827 1691.76 170 115 101
79.4197 275.878 913.555 108 113 115
-233.196 -93.5676 1550.93 73 57 46
38.7651 33.9514 979.616 153 128 114
-14.7932 80.7179 834.344 164 192 189
174.746 -12.5735 1036.46 140 141 126
151.3 211.77 965.461 119 66 40
-30.2315 80.3301 921.527 168 209 210
176.009 27.8477 794.714 168 198 189
272.591 248.853 937.651 26 14 7
-166.317 -111.189 1011.75 116 100 81
47.5411 51.4882 912.269 225 200 188
154.752 296.696 958.269 155 178 179
-238.229 -13.2898 1560.04 208 187 161
30.3764 43.2682 925.705 196 138 136
-46.873 172.463 900.079 149 137 124
-305.303 -145.519 1713.97 196 188 176
-209.411 -1.6093 1356.34 174 154 136
-69.1772 91.2948 927.271 192 218 215
152.024 -17.2181 1092.25 210 167 151
63.4427 304.739 911.804 76 49 41
208.038 299.106 939.219 39 67 79
46.1407 38.7382 980.989 236 196 187
226.051 323.237 976.731 44 63 61
-208.861 52.1173 1507.4 165 129 111
