-197.637 369.833 1093.32 246 243 239
-65.7278 191.582 1108.28 48 20 15
-219.744 404.25 1136.95 245 244 238
-117.872 161.508 985.809 231 219 210
-207.267 318.904 1086.16 239 225 210
-156.198 173.907 1085.51 244 230 216
-172.804 49.2866 962.033 65 30 22
-203.69 350.649 1072.25 228 226 226
-81.765 140.98 1099.47 50 12 7
388.212 -95.3498 1044.31 252 252 252
514.882 29.6081 1292.02 216 202 196
-178.344 50.8104 1016.44 250 224 207
399.456 -170.52 1158.25 197 204 196
-165.082 266.959 1092.35 81 70 72
-300.55 61.0834 947.851 212 221 205
-31.5194 394.233 1240.42 50 45 37
-207.294 356.406 1046.34 51 44 42
532.711 323.377 1407.72 188 224 235
-248.558 378.074 1126.17 93 78 65
425.676 -42.9587 1170.14 106 101 95
-222.33 398.158 1135.63 73 72 70
-156.969 125.049 1026.42 90 55 45
-244.905 347.486 1046.91 248 236 225
-165.931 137.938 1067.09 245 201 192
-137.353 139.016 1045.37 250 240 212
-147.795 177.93 1046.41 249 230 222
-163.34 108.025 998.083 253 222 204
-230.667 277.793 1033.72 252 253 237
-227.634 343.745 1051.42 215 213 198
-269.503 53.6295 1004.1 110 86 85
566.082 -248.918 1199.38 65 86 78
530.896 -102.021 1219.38 249 251 237
457.37 0.839676 1283.89 42 39 39
-146.941 104.847 1027.39 235 204 190
-236.228 449.114 1150.47 42 38 36
-34.3918 376.45 1180.54 252 254 250
-175.892 -16.5198 974.646 232 216 195
-205.516 377.413 1091.88 239 239 239
506.212 23.8003 1242.32 254 243 240
412.238 -44.41 1132.01 255 253 251
473.901 44.1825 1297.64 229 225 226
-171.43 165.475 1167.28 95 62 51
-66.4833 182.792 1050.31 93 69 52
-147.897 188.446 1047.32 69 51 38
-296.949 156.154 1033.66 65 43 45
-71.2104 205.328 1108.52 137 113 93
-295.959 72.6432 960.853 89 71 68
-168.403 41.881 956.224 111 51 49
-287.69 269.248 1103.28 89 95 88
-45.6914 55.1274 1045.18 255 250 217
521.73 241.424 1331.02 210 237 240
-67.0375 60.0818 1065.14 195 124 104
548.352 244.495 1395.23 211 247 250
-206.88 346.316 1117.81 255 246 234
-140.286 149.505 1074.09 131 83 53
534.09 -16.0462 1236.07 253 240 237
-191.274 281.575 1086.96 111 107 109
-260.618 325.161 1117.28 105 84 89
475.936 -91.7165 1221.48 226 227 224
-200.599 397.487 1094.94 55 29 24
-65.3212 56.7839 1053.21 248 236 227
-222.001 377.811 1133.71 58 56 53
531.713 258.641 1396.78 68 100 120
-217.009 344.83 1042.85 95 80 66
-150.451 127.765 1070.05 92 51 27
570.696 258.978 1398.92 60 91 106
-267.563 200.199 1016.93 244 215 167
-289.287 78.5448 989.752 70 81 72
354.219 -203.624 1091.06 55 40 30
-50.2557 39.8213 1161.06 255 244 223
551.606 346.907 1477.76 15 40 51
474.294 -2.12676 1099.21 248 210 201
-135.787 -3.01819 960.162 71 29 17
-269.127 256.734 1063.01 251 236 221
438.747 101.916 1203.23 209 198 175
-137.616 165.56 1101.25 43 21 3
626.605 -100.423 1220.37 249 249 223
-195.6 220.068 1038.16 253 242 236
617.811 -217.827 1198.75 210 229 216
526.861 28.315 1236.96 255 244 231
-36.9113 81.9857 1091.12 250 242 215
595.65 0.972784 1352.44 190 166 161
-256.614 126.886 940.161 248 224 220
-170.965 234.626 1045.69 128 105 96
-229.565 299.714 996.01 134 118 113
534.656 -115.814 1272 249 238 212
-278.157 65.8638 965.404 254 255 243
-167.919 394.831 1150.07 175 187 158
515.578 23.8191 1242.63 239 234 234
409.054 -234.106 1184.21 189 153 138
-119.218 -0.582552 935.429 68 21 13
-176.684 297.811 1049.57 222 212 189
428.166 13.9487 1187.67 62 49 50
-182.755 334.082 1123.24 190 180 155
-288.088 74.7515 928.218 105 91 80
10.1206 397.988 1296.84 46 34 23
-200.8 240.682 1038.57 117 69 58
-126.342 -12.0246 1023.82 120 38 15
-139.009 296.51 1101.71 107 93 72
-15.9105 174.597 1149.18 255 251 239
427.807 8.05236 1186.76 182 179 181
559.514 251.716 1397.08 186 216 238
497.76 -96.7427 1172.61 218 217 195
482.199 -78.2691 1274.64 178 176 175
444.665 22.0937 1230.39 160 151 147
-35.3685 86.6133 1049.59 255 254 229
-307.446 100.97 959.559 242 224 221
-275.794 358.83 1149.65 248 248 245
-279.665 200.584 999.992 240 236 219
-50.8051 26.6027 1041.98 255 251 232
-129.988 163.292 1077.54 214 189 166
625.459 -149.761 1164.79 218 235 226
609.936 223.602 1393.88 103 125 130
-196.546 289.47 1086.3 217 171 157
4.37299 262.535 1160.96 244 233 216
-208.662 256.867 1047.04 222 209 211
-264.073 439.368 1214.25 25 13 12
-209.299 282.98 1082.27 250 240 243
550.063 326.476 1460.09 166 194 215
-189.814 -16.4798 971.496 127 106 92
-254.214 247.427 1024.69 154 122 105
-178.966 -25.4466 995.197 184 159 138
-119.668 185.291 1081.58 113 91 71
-288.163 200.739 1039.32 255 252 237
567.713 26.0633 1353.56 103 67 62
-21.3981 153.968 1175.69 253 237 220
695.767 361.276 1555.12 90 113 138
594.707 116.371 1314.95 244 242 216
573.788 345.633 1464.93 92 134 133
-266.805 54.0146 967.697 135 73 82
523.886 -161.491 1117.17 60 55 49
-281.582 407.557 1264.79 214 197 183
-31.4824 99.7242 1064.12 253 249 223
528.448 -22.7051 1179.05 234 209 203
-247.857 48.1008 881.209 251 248 241
-264.789 286.742 1067.09 149 125 127
457.784 16.0065 1232.66 216 206 211
439.912 3.56989 1176.66 230 233 235
564.18 -222.059 1144.34 192 192 195
-253.535 322.167 1044.98 166 173 175
-137.329 98.7903 1070.92 139 85 47
-257.889 374.027 1131.05 80 47 33
-262.556 68.5823 969.904 121 86 84
-196.51 384.386 1051.81 108 92 79
-304.092 190.343 1046.28 241 236 217
519.513 -43.4949 1230.91 249 235 215
-118.303 32.0158 1097.3 159 96 82
567.376 31.3649 1298.24 150 116 106
341.928 -212.153 1144.56 208 160 170
487.418 -19.1509 1234.29 243 229 219
-20.8811 148.102 1071.05 255 250 235
579.313 206.848 1330.87 102 129 135
-96.5116 364.024 1013.54 228 226 228
-117.592 378.776 1161.3 208 215 178
432.054 -63.3554 1171.56 120 117 108
-208.085 234.948 1036.17 182 124 110
503.719 233.261 1331.4 83 126 137
-75.9967 47.9872 1090.73 255 247 217
-121.488 -3.07665 998.4 129 32 11
-127.158 128.861 1046.8 128 77 42
-83.2571 35.6867 1047.53 255 250 255
-76.3431 31.4809 1037.35 230 206 195
-217.466 -4.47119 965.692 206 182 163
624.88 313.648 1410.92 114 150 161
-273.025 61.6028 993.169 255 239 235
491.647 -35.7825 1226.36 248 197 174
-133.784 308.045 1104.09 155 125 110
-219.535 85.3231 1008.62 234 210 199
-97.2773 291.613 1157.11 254 253 252
366.46 -242.715 1142.04 150 159 150
433.479 -226.638 1198.08 100 95 89
588.473 -143.699 1084.73 200 220 200
-275.333 53.4505 936.379 226 237 218
-223.743 282.999 1135.9 235 234 233
-28.7639 113.521 1121.76 251 245 227
650.039 322.197 1457.25 92 123 129
-312.298 127.222 997.678 222 216 211
-303.738 152.617 1002.37 215 214 213
-121.467 3.22822 1025.94 246 178 143
584.485 36.1546 1297.05 125 105 100
-24.4706 142.791 1144.53 236 217 198
-251.629 101.804 1013.07 249 216 206
-28.8487 105.135 1065.17 171 161 142
466.92 190.644 1267.18 47 35 25
415.857 -93.5336 1083.12 219 200 196
-132.818 199.752 1051.92 140 131 128
-218.505 -7.05578 1003 176 162 143
539.523 19.8614 1192.92 207 180 169
-247.441 64.7827 1040.95 246 222 202
-158.572 132.048 1094.29 74 38 24
-262.241 82.5353 1038.2 233 226 207
-208.22 -16.1459 1029.44 56 34 23
430.746 -79.6174 1221.94 234 220 213
-239.471 290.806 1008.22 193 147 154
-257.072 232.129 961.437 148 165 131
625.939 -132.449 1208.17 173 177 169
-194.41 492.697 1126.67 35 33 26
-246.89 59.3903 938.308 237 217 211
-52.9694 146.781 1025.35 255 231 206
-315.375 84.9796 966.412 222 201 185
486.237 -133.782 1166.35 148 151 140
586.626 17.7433 1354.66 101 79 73
-226.361 310.476 1159.69 101 81 81
389.89 -75.4132 1113.66 191 166 159
-293.539 58.8294 987.368 118 112 100
-301.684 144.703 990.372 236 238 239
-164.798 242.069 1090.04 181 142 143
-249.358 90.7293 975.095 254 191 175
-179.563 88.571 1109.64 255 250 242
445.937 -32.9366 1125.61 123 68 48
-254.604 273.979 1068.84 235 215 224
528.793 -167.757 1113.25 169 165 153
-225.086 231.269 1031.33 117 77 61
745.83 71.9359 1368.92 177 187 169
445.312 -91.6109 1220.52 252 253 252
561.403 -62.5072 1213.63 255 245 221
-152.331 303.938 1099.08 237 237 221
-331.09 62.372 986.667 88 45 36
-325.674 36.6159 949.665 226 210 188
439.485 -5.15385 1175.61 235 226 221
-212.998 585.21 1322.65 80 80 75
-287.81 134.91 939.643 181 187 189
-109.245 51.7245 1032.03 219 171 158
-57.8898 87.738 1019.15 216 184 149
518.459 -18.2857 1285.52 253 245 247
-264.628 278.646 1066.38 163 159 161
-259.24 225.836 991.574 202 168 143
-265.118 68.7352 1006.56 161 119 120
-223.083 347.903 1084.48 95 92 82
707.628 55.5375 1304.47 174 184 177
-218.911 337.302 1253.16 122 81 65
-96.4236 314.039 1193.62 247 241 229
-248.092 292.579 1168.7 147 141 142
745.16 65.0959 1367.76 91 100 80
-36.427 282.823 1021.75 130 87 65
-268.044 101.23 1008.45 177 134 118
-65.1618 2.02922 1047.84 253 217 176
362.735 101.228 1417.88 106 101 87
-223.637 234.334 1016.98 204 151 125
570.205 53.1083 1359.14 237 214 190
-261.839 352.533 1103.29 114 112 104
-176.189 81.2396 1018.97 167 167 158
-109.432 9.31943 1001.94 150 59 24
-60.2097 83.1493 1056.84 250 221 184
-24.5319 252.682 1123.36 164 117 91
-236.334 287.344 1120.36 223 200 200
-75.6807 67.053 1052.14 253 199 156
724.647 -132.674 1329.09 238 255 248
-230.536 52.3283 977.201 237 215 198
552.058 28.3333 1238.41 255 241 232
-34.2738 316.34 1137.51 162 78 41
-169.179 78.4972 1032.35 172 153 147
-251.437 216.941 947.518 123 118 94
579.513 -112.004 1092.69 109 126 106
-19.6848 160.7 1058.17 255 240 209
-194.672 515.265 1168.42 141 141 134
-77.5045 75.7638 1063.94 253 207 162
-255.587 156.261 921.552 198 170 139
702.276 -2.83567 1295.13 150 175 150
420.041 -21.3569 1181.87 85 71 57
-91.2862 265.535 1009.86 122 100 84
-70.5927 88.2026 1055.24 253 232 214
-108.654 162.134 1095.66 87 57 40
432.452 -86.0711 1165.41 254 253 251
472.62 -242.393 1299.16 65 49 46
