-103.72 150.057 770.859 255 255 242
-18.9275 257.019 838.613 233 232 218
-309.299 2.3422 1337.11 255 249 243
-10.9518 305.619 869.508 247 245 236
-176.358 89.1347 862.836 230 225 216
-239.301 43.8424 1354.21 243 240 234
20.8421 257.361 844.828 254 246 237
-330.027 36.335 1445.04 64 46 37
63.4226 322.431 881.221 188 172 171
-16.091 21.6559 889.823 199 209 202
106.527 19.859 858.895 64 63 54
-75.7227 0.779006 1081.06 66 79 79
-6.23599 240.156 847.359 192 188 180
-45.4041 -15.8481 1015.44 226 220 213
-300.35 42.8925 1271.54 194 189 184
-74.6649 0.0617543 996.546 247 249 252
-98.9993 19.2905 992.517 241 241 233
96.8964 21.0895 865.603 181 196 189
-388.082 2.5484 1311.35 235 220 206
-0.215871 275.283 901.272 62 61 65
100.029 19.7681 858.064 62 69 58
12.8892 309.459 873.395 197 179 180
-37.885 -3.47423 1017.18 122 69 52
11.7548 -2.59196 973.889 223 224 212
36.2396 14.2426 929.42 232 250 245
-302.534 29.5786 1304.63 220 191 179
-379.07 13.4541 1278.28 190 193 185
25.1482 2.70206 917.27 239 243 235
-54.3188 -10.9397 1021.69 210 204 197
124.616 195.677 895.037 54 43 25
-9.3274 10.0967 946.162 224 223 220
24.6808 241.621 824.23 209 194 191
32.4916 11.1939 942.1 104 97 98
-65.9545 202.062 778.197 19 13 11
-182.522 89.0456 861.55 197 173 166
12.3952 240.078 843.185 228 211 206
140.336 154.455 896.328 38 10 2
-58.1081 285.291 832.603 227 205 188
-82.6794 -1.14859 1008.7 247 247 242
-69.2335 21.8865 925.349 248 217 203
-151.499 89.6701 867.913 101 112 105
-43.7893 318.821 830.744 184 172 170
79.8104 331.551 890.189 131 123 127
-110.362 148.829 761.461 138 135 121
-243.341 23.6122 1437.96 158 120 115
56.9795 306.15 860.988 178 196 201
89.6851 322.363 906.691 250 186 187
120.944 203.674 886.491 63 67 69
-262.482 22.3022 1352.84 210 193 190
-276.598 43.0407 1278.63 135 126 122
0.0338127 -10.9638 984.11 242 202 185
-74.241 71.2369 806.595 221 211 198
-366.23 -49.5167 1277.57 150 134 115
-366.298 -55.7726 1314.88 183 166 146
30.1454 272.283 857.859 204 160 152
-134.922 36.2021 900.497 232 232 236
-406.09 69.7972 1273.52 246 234 209
129.146 198.64 927.72 169 137 119
-14.6138 283.62 846.443 172 147 131
-49.9066 281.667 833.964 232 202 186
-366.526 250.687 1375.15 255 254 235
-390.389 -36.1603 1308.05 170 157 135
-121.925 49.9458 926.675 123 128 123
-216.006 23.491 1446.35 82 74 62
-34.5113 -4.41007 1136.99 73 42 31
104.28 262.83 938.117 16 13 8
-56.157 322.011 825.005 184 169 158
-209.234 93.3882 867.341 201 199 194
-314.614 -63.2326 1331.19 54 29 19
-382.699 -40.4154 1241.16 159 134 118
148.442 348.924 982.654 207 179 163
49.9849 249.029 877.816 68 45 17
-411.559 146.099 1390.9 243 227 207
127.871 234.713 888.317 145 165 160
-346.872 220.816 1281.76 216 206 190
-247.117 24.6091 1393.72 156 121 106
1.53979 -13.4277 992.773 199 173 157
-108.068 30.5058 1031.74 142 95 94
-386.594 253.719 1449.95 120 102 86
-429.449 66.7311 1335.97 142 123 98
-133.478 78.1827 851.794 78 108 105
124.8 257.608 895.824 152 150 145
147.53 334.259 958.149 108 68 54
149.511 216.767 975.75 167 156 139
-95.682 167.255 733.551 51 59 44
142.181 253.172 955.119 99 111 108
21.3296 0.803874 951.016 139 143 137
-69.9719 145.571 801.152 58 64 64
-154.717 114.884 768.364 239 248 232
-417.003 169.499 1430.07 247 246 233
-197.089 84.1087 912.279 161 157 140
-392.514 30.9836 1173.56 255 247 225
24.5162 284.011 984.474 212 193 181
97.568 212.059 891.637 141 115 103
-400.793 88.7619 1276.9 157 132 110
-413.048 82.9015 1308.04 231 221 201
-60.4021 152.537 810.275 63 86 80
-52.6516 57.6372 902.068 57 69 64
-43.7369 276.015 834.912 149 134 123
129.306 244.656 896.283 141 176 180
-405.842 154.526 1376.22 159 135 119
-79.6219 26.3917 927.388 207 196 185
139.501 217.524 953.491 160 163 164
-381.103 201.942 1365.84 235 220 203
72.034 237.661 880.724 177 172 164
-75.8504 9.56264 1052.89 70 31 19
-23.0657 285.914 838.415 84 54 49
-354.818 2.67164 1583.56 212 190 183
-414.556 139.189 1389.33 158 135 110
-485.1 83.7967 1528.62 174 154 134
-113.129 81.3149 827.03 75 110 107
6.8866 286.349 911.105 123 116 110
-90.0809 164.867 805.607 94 98 93
-41.008 157.157 781.275 131 134 129
-80.5836 46.1356 924.033 183 128 116
-323.734 -69.5503 1327.86 148 129 114
-197.746 84.3053 801.889 129 130 118
102.726 150.108 882.289 171 127 111
-27.0438 25.2416 899.836 121 103 84
75.6884 288.813 921.513 42 79 82
-364.338 210.56 1326.02 224 197 178
162.351 234.745 932.698 57 29 23
127.158 304.058 896.451 35 35 39
-361.498 217.381 1327.75 153 125 108
-124.436 40.1978 1043.72 41 43 36
-28.1992 285.021 856.965 156 116 105
-136.413 48.2642 913.424 233 176 151
-201.539 231.229 983.224 230 230 225
-151.03 116.71 769.057 126 139 120
-67.571 62.576 751.667 72 74 76
-384.046 195.089 1364.18 172 153 133
98.6127 208.942 861.871 73 43 23
-209.978 -17.2774 1202.49 144 149 147
-389.646 -30.4272 1271.16 150 131 112
-3.04488 10.8719 1051.33 255 255 252
-378.152 208.752 1367.5 176 146 130
-128.351 58.3324 1017.47 197 177 172
-232.561 -32.8198 1437.09 85 84 77
112.854 245.424 877.132 45 80 90
-408.468 35.882 1418.13 33 34 25
-79.6302 144.245 781.568 67 87 86
-124.04 90.6954 861.821 206 238 233
94.8637 205.212 872.929 63 35 25
112.095 225.089 885.937 186 164 151
-71.2769 41.9872 946.527 174 149 141
147.603 265.577 978.337 51 59 66
-376.611 121.673 1246.5 236 212 182
-182.588 102.005 832.758 168 165 157
-19.7331 2.07416 1070.59 196 179 166
-239.25 -67.4565 1387.27 67 66 43
-168.097 87.1723 864.475 71 105 89
-94.352 163.914 772.743 63 66 61
36.5279 174.024 858.707 207 146 117
