18.0296 368.309 1253.95 228 224 219
24.3286 381.384 1256.08 250 247 241
24.6843 -39.97 1169.16 255 247 242
480.865 -147.85 1524.89 231 213 206
488.595 -147.889 1525.42 255 253 247
80.6228 -28.5294 1245.13 88 3 1
436.434 -196.439 1440.49 217 216 214
522.883 300.398 1758.96 224 251 251
-97.2683 478.309 1434.83 238 240 224
-1.20043 437.31 1226.12 232 233 230
14.7972 330.388 1250.79 78 54 57
73.0669 133.192 1264.8 128 122 89
-9.84958 445.11 1252.46 245 241 237
69.6201 96.8726 1301.59 104 66 39
-61.7807 63.0282 1111.62 97 69 67
-48.142 140.936 1119.7 121 85 92
554.026 67.5803 1742.17 229 207 188
44.8815 22.6842 1292.11 125 57 51
-28.4802 358.907 1243.28 246 246 247
63.4137 86.298 1240.96 244 227 210
-75.9489 68.44 1157.76 182 81 59
19.4076 -35.3402 1116.28 209 187 183
-59.1961 55.2756 1066.45 19 7 7
-73.0977 62.7178 1157.95 248 222 212
-83.445 32.6045 1104.95 252 164 145
-111.202 469.756 1430.39 196 190 177
-27.1478 283.305 1183.43 120 96 90
528.811 -5.219 1637.08 104 98 97
-727.275 -27.2084 972.902 213 222 218
137.434 397.216 1367.75 103 106 104
18.6734 340.316 1312.97 251 233 229
521.476 -76.7331 1695.82 235 214 194
544.312 -47.8842 1713.59 251 251 250
-16.4358 405.023 1220.26 204 179 166
-47.413 42.9328 1161.91 96 79 76
119.549 162.299 1222.91 101 80 78
-64.4816 46.5045 1109.91 254 254 246
88.2326 -40.4402 1330.66 117 29 1
69.1771 119.273 1217.55 243 220 186
-79.0025 152.028 1163.25 47 26 18
548.266 -1.3569 1725.22 232 241 238
12.3292 251.143 1225.38 97 77 60
-9.95648 372.702 1248.23 129 100 78
467.444 -273.55 1880.49 59 57 52
-32.976 333.42 1185.18 218 194 190
496.787 -45.3731 1625.96 242 239 234
639.973 -71.7456 1836.21 255 248 237
432.136 -254.301 1763.79 200 195 190
-28.8148 52.486 1117.58 86 85 79
8.09543 246.532 1188.42 135 127 121
65.9242 613.711 1461.6 69 99 88
63.8488 145.066 1246.34 137 115 95
593.609 -204.364 1542.41 235 240 242
25.3123 363.852 1316.19 230 212 197
13.8261 366.957 1223.54 52 47 44
56.7881 125.714 1302 255 236 222
-13.4661 371.251 1218.09 155 122 106
600.66 -254.99 1584.27 228 237 223
63.0519 159.681 1277.48 255 251 240
73.635 184.889 1311.1 95 70 50
-50.4408 255.46 1176.63 134 128 125
89.9589 165.762 1312.44 255 252 254
335.833 124.299 1825.85 109 104 96
622.73 253.74 1990.4 215 241 247
545.03 -39.4675 1715.7 250 243 246
9.03162 399.197 1315.17 101 101 102
37.932 300.495 1222.41 227 234 211
566.972 -45.3609 1630.73 244 227 210
526.967 181.892 2262.13 216 216 207
-74.1462 97.9388 1186.79 250 223 215
495.348 -120.434 1609.49 231 219 210
-76.4456 67.8702 1100.97 233 129 106
546.467 -22.5848 1719.93 250 238 241
85.9769 164.409 1252.21 124 117 105
58.2599 135.166 1300.05 254 236 213
564.104 -68.8524 1709.57 249 230 224
26.8632 221.509 1245.36 222 193 185
505.642 -37.3757 1628.38 96 89 85
-33.022 197.457 1176.5 247 232 196
-47.8255 63.0374 1190.54 130 125 125
2.13122 250.677 1302.1 118 73 67
553.817 235.904 1780.48 46 83 108
-41.7389 273.635 1179.68 106 101 103
10.6262 418.466 1367.65 150 151 148
-65.2629 93.8257 1136 68 33 32
69.8187 108.024 1244.16 244 231 203
14.1126 279.624 1191.78 144 123 115
82.9005 116.595 1306.18 175 138 108
10.8627 391.568 1225.01 192 188 176
54.3574 126.209 1242.85 112 76 59
20.7327 243.049 1245.76 123 88 80
66.3261 172.497 1278.92 255 248 232
-167.745 13.0015 1159.88 147 134 121
545.402 -155.66 1604.75 228 207 188
-86.2519 24.2237 1163.18 157 97 69
527.053 -138.749 1614.9 255 252 250
592.957 64.4527 1656.5 255 255 231
545.618 -130.932 1692.92 253 249 253
416.941 -266.45 1651.32 205 159 152
18.1565 412.527 1256.65 122 103 88
-56.1178 149.838 1168.15 199 184 191
535.011 215.479 1871.51 82 114 119
495.932 -112.607 1611.25 118 108 104
599.459 -14.0574 1725.07 255 248 236
-61.8949 175.896 1168.74 102 104 84
-95.452 -6.41547 103.393 89 101 94
2.25508 -26.4397 1142.98 246 223 206
517.417 159.202 1644.88 40 37 25
-90.2674 482.559 1437.06 90 87 82
380.657 -290.192 1758.32 189 182 171
-33.0053 250.444 1180.08 232 216 204
-65.5753 487.917 1444.15 153 145 136
-30.05 327.66 1185.48 135 116 113
138.091 199.413 1387.96 255 249 239
-727.385 -22.5737 979.787 85 97 94
65.9631 105.878 1274.58 201 167 146
443.373 -111.455 1444.86 176 160 151
462.393 -3.20072 1599.04 156 142 144
611.05 -17.4702 1844.38 228 225 221
466.171 -126.896 1438.53 251 241 234
11.3151 432.874 1284.98 136 117 101
15.1289 273.984 1180.05 251 251 244
86.5324 152.558 1310.48 194 167 149
7.57848 66.9797 1174.97 255 251 251
561.545 217.962 1777.25 229 253 255
565.677 -283.145 1655.91 204 212 211
-22.4828 398.366 1218.39 48 33 19
-47.1145 56.7412 1247.46 250 249 248
614.304 -98.5932 1827.97 253 243 231
-78.3221 151.189 1113.93 192 165 150
-347.032 -8.99262 446.202 118 128 124
512.264 -112.674 1612.37 151 143 144
56.4511 576.786 1369.36 203 232 221
541.436 -58.8358 1724.21 66 46 37
76.7311 189.113 1252.58 148 141 127
-10.1532 250.943 1239.83 155 140 124
-10.1217 269.586 1241.21 154 148 143
565.601 -52.0809 1713.82 253 244 245
695.744 326.655 2014.96 151 160 156
-72.7848 112.519 1112.63 155 116 103
464.624 -69.49 1581.1 219 166 143
72.1926 77.5914 1273.85 151 101 81
-91.4567 110.284 1210.46 78 14 13
503.92 -11.7295 1478.61 117 106 98
-68.1047 141.729 1137.74 192 187 186
-61.9013 146.11 1117.14 177 137 130
-28.4615 390.18 1245.23 138 132 117
-49.338 43.6509 1105.76 184 173 137
-3.95722 269.912 1242.56 252 253 249
-0.621728 314.564 1190.92 190 133 123
607.486 -140.025 1611.01 255 254 232
442.966 -2.67327 1465.48 180 163 165
108.107 553.185 1378.12 112 137 125
464.015 -50.5585 1542.64 217 197 188
100.384 447.993 1405.54 127 148 148
538.864 217.67 1775.15 120 149 158
583.494 -155.537 1710.87 207 189 167
488.114 203.499 1767.03 76 103 123
-27.1837 119.712 1198.25 255 204 183
31.0651 277.945 1236.34 227 176 166
33.3338 278.131 1250.96 133 128 116
546.015 -49.3714 1628.58 248 241 246
744.666 75.2417 1938.26 238 239 215
525.546 257.925 2004.36 65 86 86
-34.3991 125.632 1144.06 170 139 125
-3.66674 423.498 1252.61 108 82 66
-6.06062 89.4585 1147.95 246 218 197
829.097 -385.979 2191.56 80 98 83
-121.566 457.93 1426.56 156 138 129
541.732 -247.275 1583.94 152 148 148
-10.0753 297.617 1243.22 254 240 224
517.405 -103.811 1799.65 51 21 14
44.9703 341.937 1318.72 228 235 208
119.223 34.7179 1245.95 245 189 155
-2.12728 418.138 1406.61 92 77 64
-27.5185 31.1548 1092.26 153 159 142
-41.6882 60.2593 1164.48 153 170 157
-49.5765 47.7332 1044.27 255 247 244
179.902 163.43 1463.94 255 247 226
-578.559 -19.3094 799.649 114 128 122
-120.169 76.7335 1175.03 158 129 114
645.082 -235.878 1669.66 182 195 182
460.25 -96.7689 1611.89 153 131 124
585.816 -65.2467 1627.25 172 151 147
685.065 -201.253 1762.87 248 251 229
2.34508 323.36 1247.67 252 226 204
626.93 -147.832 1609.81 249 253 235
607.075 -283.194 1657 155 178 180
-54.378 12.0574 1085.99 254 241 230
-20.4367 249.632 1296.98 189 141 106
121.222 20.1094 1302.82 253 232 199
140.255 82.581 1351.23 255 248 239
71.872 316.88 1308.4 255 254 232
-38.8268 176.713 1173.81 245 223 194
605.48 284.307 1998.07 137 154 152
-56.6329 92.3955 1190.35 76 61 52
105.93 400.674 1374.07 138 119 105
595.082 32.9932 1736.49 251 239 212
94.2704 559.041 1375.83 86 104 94
173.984 100.709 1587.01 194 161 152
83.3006 -85.6346 1293.74 95 78 65
-91.9224 9.80905 1161.59 155 123 92
625.929 -219.881 1673.47 157 153 144
-6.53188 22.357 1196.68 227 166 156
129.593 74.3795 1266.79 222 160 128
583.408 -116.838 1830.58 241 228 215
-41.718 161.99 1172.13 218 207 170
-21.3203 45.7499 1195.11 251 254 244
638.604 -147.642 1673.74 152 153 131
69.926 277.264 1225.68 168 172 158
-56.1783 205.318 1172.03 154 127 115
14.7601 317.841 1249.92 248 231 214
446.314 -154.648 1448.7 109 106 90
648.059 -207.871 1676.93 192 196 179
-19.3713 244.313 1237.33 252 207 181
140.95 16.9886 1305.84 240 222 201
-31.6057 -38.0485 1110.37 102 79 64
25.2924 96.5725 1180.79 174 148 132
502.593 369.82 1904.19 79 93 87
576.09 173.253 1768.45 169 176 169
112.861 28.5143 1244.24 243 231 212
-90.0357 6.76851 1126.05 211 188 161
-56.1535 181.924 1170.42 248 232 212
418.323 172.562 1529.18 78 107 119
596.668 -219.841 1672.77 188 180 168
148.622 72.902 1460.38 255 240 209
117.012 165.55 1102.16 233 203 182
581.942 -108.782 1617.16 240 237 210
88.8188 326.995 1392.98 253 255 236
-30.1088 209.339 1177.94 247 204 173
-14.1942 239.676 1169.57 252 242 229
138.068 65.2847 1374.25 255 243 216
26.5232 82.303 1207.07 223 157 145
-47.508 188.107 1172.74 211 200 167
109.542 140.069 1313.59 184 169 152
584.107 -85.5493 1706.4 173 149 145
5.9057 274.042 1212.83 155 136 124
-31.6087 496.923 1379.74 116 104 88
131.416 178.266 1187.73 211 165 148
447.46 202.973 1762.3 37 61 63
-32.8524 196.669 1098.54 193 153 131
264.359 32.4544 1161.53 32 20 7
56.1628 42.0129 1293.24 161 146 144
55.2409 409.178 1325.8 131 110 86
-31.6157 74.5352 1161.3 168 120 110
624.54 -298.63 1686.21 181 206 211
571.436 -22.5541 1594.29 151 124 112
456.94 -99.4524 1532.57 172 153 150
734.684 -170.846 1856.6 243 244 231
348.085 46.5211 1491.54 80 67 53
-152.806 186.286 1168.36 76 23 5
-50.4057 202.624 1173.11 255 253 236
618.13 293.573 1897.51 173 197 191
649.934 3.20141 1645.65 220 221 209
-79.8421 195.509 1219.99 190 144 120
47.8066 73.7005 1236.83 178 161 156
407.616 57.8298 1726.15 25 10 6
-4.1491 40.6513 1170.52 255 239 229
658.964 -19.4375 1832.21 174 165 149
35.9988 305.18 1187.84 132 114 96
