164.388 -174.614 1932.18 187 204 204
97.208 99.7638 1800.16 28 1 1
-363.484 51.6112 1124.05 173 174 151
43.208 219.662 1910.96 44 19 9
-15.8873 52.3051 294.964 74 93 109
-221.635 181.001 990.86 177 110 68
98.8533 409.305 1945.91 168 195 188
-313.255 265.142 1119.03 91 61 49
-234.661 480.748 1144.85 175 162 146
-45.9959 638.511 1325.14 221 221 212
42.6972 -149.615 1634.8 201 195 202
127.129 -10.9064 1794.28 251 249 238
143.096 110.147 1800.21 139 111 95
-86.0509 98.9426 1125.5 255 251 239
183.953 199.41 1890.86 153 141 124
-265.021 113.384 964.183 43 0 0
-165.567 135.173 1089.53 190 173 170
-49.3109 257.448 1400.11 129 104 93
-124.775 205.592 1084.09 8 6 2
-114.47 207.823 1033.4 83 67 61
-105.121 310.509 1165.41 253 245 245
-36.4899 487.538 1255.08 19 20 18
-63.639 485.725 1213.16 244 246 239
-333.063 501.351 1259.39 57 38 16
-304.223 530.741 1276.86 1 1 0
103.32 -112.075 1634.61 148 141 130
-180.983 0.219047 1263.16 145 141 139
-90.1023 109.669 1028.94 249 250 240
-135.227 199.46 1044.71 197 160 148
-30.7539 281.542 1325.53 254 252 236
-30.7539 281.542 1325.53 254 252 236
129.884 487.011 2004.86 220 241 237
106.73 428.137 1799.75 141 175 173
-63.3616 284.267 1166.18 254 251 252
-81.831 318.53 1167.6 255 253 237
-119.329 343.334 1182.93 68 41 34
-83.7809 372.58 1176.97 194 129 129
-90.9814 391.04 1097.03 255 251 246
-96.4651 431.024 1168.45 62 31 13
-71.4483 461.862 1171.3 72 58 40
-71.4483 461.862 1171.3 72 58 40
18.5165 -106.861 1733.78 16 10 5
139.248 90.8931 1537.58 252 254 249
-144.743 416.867 1112.65 37 28 24
-37.5497 511.774 1306.95 49 54 50
181.136 33.1223 1931.11 220 210 194
-113.676 63.0703 1041.65 212 194 169
-222.413 81.6151 1064.55 64 31 27
-238.616 86.6086 1044.69 141 129 117
-109.221 136.141 1126.49 250 252 248
-106.68 178.801 1108.99 249 254 254
-190.822 317.108 1134.83 51 31 20
-97.6328 331.525 1145.29 254 249 254
-112.59 411.193 1179.97 58 32 34
-305.064 91.1306 1067.62 138 88 73
-88.09 456.705 1174.65 251 247 237
-207.232 -1.62637 1251.31 42 77 90
-162.529 201.107 1066.8 60 50 37
-234.102 222.712 1072.95 144 79 43
-170.608 46.5526 1104.71 161 134 109
-206.838 385.096 1159.83 149 82 53
67.4346 -60.5591 1718.92 50 38 33
171.384 51.5184 1820.45 255 254 242
-162.164 204.106 1004.37 55 44 28
-71.0927 91.9099 1197.78 243 225 204
-316.152 134.081 1133.35 61 40 28
