-463.313 -176.734 1087.89 52 62 55
-496.372 -152.404 1395.23 173 166 144
-825.97 -162.167 1532.69 116 105 85
-825.97 -162.167 1532.69 116 105 85
648.392 -127.304 1242.83 128 117 106
574.819 -120.55 1217.35 249 249 249
608.402 -103.062 1202.57 186 174 150
735.712 -106.74 1275.07 246 254 237
523.345 -81.4269 1250.33 58 28 22
499.227 -66.3571 1372.42 38 39 28
639.041 -56.9829 1265.2 254 254 246
544.708 -30.0119 1242.76 118 111 100
729.382 -16.1931 1267.82 210 226 209
605.004 9.0157 1220.78 250 246 217
577.591 10.2769 1263.99 186 167 166
684.687 59.2869 1321.57 255 255 225
697.902 100.563 1294.05 230 227 211
662.472 113.128 1277.79 254 252 242
632.314 132.373 1375.21 159 153 140
609.786 130.44 1277.41 102 101 87
98.3102 171.237 1191.32 254 252 236
-17.203 185.371 1100.41 253 218 186
106.277 270.574 1184.93 103 96 84
87.4635 286.475 1168.46 252 252 218
36.0509 404.262 1180.55 1 1 3
13.1393 405.254 1170.41 255 252 240
10.3452 410.92 1161.77 9 9 13
-583.198 -265.057 1341.38 183 199 192
615.898 -120.973 1183.15 127 116 103
559.599 -121.788 1219.58 255 251 250
624.155 -102.337 1278.07 174 159 137
651.942 -72.1988 1205.68 205 204 189
36.9357 -45.6885 1041.19 254 243 238
742.37 -38.3329 1273.67 129 130 119
103.019 -28.2831 1077.73 255 238 212
103.019 -28.2831 1077.73 255 238 212
634.033 -8.73339 1268.68 252 242 237
94.9648 -15.2061 1120.57 255 244 236
94.9648 -15.2061 1120.57 255 244 236
166.56 -6.07463 1140.22 172 134 105
-29.0805 23.2535 1046.2 154 110 118
659.417 49.2455 1243.96 255 255 237
576.644 63.2332 1281.76 23 15 6
-17.1611 67.0825 1074.54 255 254 237
610.377 139.672 1308.24 97 94 78
574.235 173.67 1492.42 48 53 63
563.146 186.989 1422.56 25 48 51
625.916 187.821 1363.53 203 235 254
66.4558 158.193 1122.21 251 254 248
107.585 165.189 1168.95 251 254 243
57.8764 188.125 1136.36 224 179 174
54.1714 208.482 1160.41 253 229 214
707.423 268.82 1405.36 242 253 254
-25.5088 225.713 1106.87 104 40 20
-12.2038 230.43 1110.78 254 253 245
17.8974 237.735 1117.24 251 252 252
-39.7201 239.412 1100.28 249 251 245
59.0637 264.985 1168.97 199 156 142
-34.0562 253.625 1094.85 254 253 253
51.2809 279.898 1138.24 232 239 220
-8.27926 334.229 1120.47 81 53 34
26.3156 403.073 1185.15 237 230 216
-505.283 -399.945 1472.2 149 150 141
-280.926 -233.831 1187.06 150 151 145
639.224 -247.71 1270.19 24 29 31
-510.105 -218.558 1507.3 52 58 54
731.547 -176.33 1295.66 64 72 63
533.996 -153.848 1184.05 121 125 104
474.613 -106.277 1036.75 254 249 247
611.84 -132.594 1222.91 239 221 201
670.474 -114.899 1207.12 251 255 225
576.445 -88.5978 1270.86 254 237 239
611.433 -54.929 1211.07 243 237 227
65.6284 -47.1282 1066.36 187 133 103
568.85 -37.594 1249.51 232 230 232
568.85 -37.594 1249.51 232 230 232
-36.8159 -18.8232 1060.18 217 198 175
-36.8159 -18.8232 1060.18 217 198 175
-42.0466 -10.46 924.468 224 199 178
634.747 33.5658 1278.94 254 253 248
666.593 152.205 1340.1 154 182 186
557.13 167.504 1376.42 129 151 145
545.123 218.327 1338.08 70 98 93
680.447 230.916 1380.63 232 255 252
-15.4864 267.543 1117.06 254 253 254
-15.4864 267.543 1117.06 254 253 254
26.5921 316.722 1144.78 255 251 244
177.265 351.774 1249.93 244 240 230
186.695 356.589 1246.51 52 54 51
186.695 356.589 1246.51 52 54 51
-17.7683 357.035 1184.43 241 228 218
-0.585042 407.103 1163.66 197 184 167
-669.777 -216.598 1085.32 47 59 52
700.683 -249.669 1203 205 211 192
-754.341 -340.041 1764.52 28 45 38
-335.666 -217.293 1170.91 134 136 131
722.544 -174.069 1280.84 82 86 79
645.121 -87.4022 1212.46 255 254 239
704.138 -84.1716 1263.47 254 255 247
587.856 -48.4005 1224.81 254 254 247
96.7256 -41.3335 1083.36 86 33 20
575.393 -11.4808 1254.48 253 252 250
644.708 51.4287 1244.61 255 253 249
704.054 59.7373 1271.76 250 253 237
636.247 119.047 1300.62 115 99 85
133.62 170.295 1178.62 197 161 136
133.62 170.295 1178.62 197 161 136
65.3042 164.351 1131.93 255 247 244
688.577 247.342 1377.77 150 168 186
688.577 247.342 1377.77 150 168 186
-682.125 -193.807 1130.29 67 68 63
537.973 -121.44 1216.47 31 14 9
606.612 -110.835 1224.21 110 94 78
606.612 -110.835 1224.21 110 94 78
606.612 -110.835 1224.21 110 94 78
-17.3138 70.9388 1061.93 250 255 248
157.669 78.0926 1147.17 233 214 204
-27.0403 220.99 1108.45 158 65 48
-33.3624 242.246 1107.28 240 240 234
-24.4 276.021 1118.31 253 252 253
65.8811 348.795 1186.45 156 172 143
31.3496 377.717 1175.12 78 78 80
-6.8917 395.945 1178.17 101 81 79
-448.757 -331.015 1386.45 101 99 87
-761.891 -205.464 1232.94 132 147 138
562.404 -126.799 1213.76 208 205 208
94.7651 -89.0836 1085.69 71 94 109
10.8727 15.2991 1048.73 255 172 140
-12.0493 19.6423 1039.79 255 250 248
722.612 51.1099 1261.02 138 164 125
32.4857 102.964 1086.83 241 217 193
79.2261 105.756 1112.02 143 93 63
79.2261 105.756 1112.02 143 93 63
-1.13797 117.244 1093.71 234 194 159
126.411 146.115 1155.18 252 254 243
18.9417 190.532 1125.38 253 237 217
21.2138 213.994 1115.05 157 121 106
21.2138 213.994 1115.05 157 121 106
-405.402 -285.392 1129.11 133 144 138
-405.402 -285.392 1129.11 133 144 138
-405.402 -285.392 1129.11 133 144 138
-747.834 -201.991 1206.38 133 147 139
-624.026 -186.688 1220.15 115 131 125
655.99 -37.3558 1269.67 140 115 109
196.299 160.685 1193.45 245 244 233
-486.347 -296.155 1579.63 97 77 57
-486.347 -296.155 1579.63 97 77 57
626.721 -206.727 1151.39 102 108 107
138.002 -73.7309 1111.8 229 189 158
-97.3947 36.2405 1075.45 84 50 40
35.837 41.4575 1079.69 254 255 251
35.837 41.4575 1079.69 254 255 251
-58.1927 106.049 1050.62 255 253 255
-81.0651 146.542 1097.6 116 94 79
80.992 322.802 1206.91 172 191 146
41.0799 351.478 1169.04 78 70 66
-569.248 -124.561 1252.57 80 66 47
728.711 -70.3816 1334.88 254 255 252
728.711 -70.3816 1334.88 254 255 252
568.388 -52.1596 1369.98 55 47 37
392.839 -170.218 1234.16 55 49 42
503.702 44.3644 1484.92 60 54 45
653.371 168.339 1335.43 224 251 238
519.608 -170.118 1240.09 50 44 40
30.2725 -80.3188 1096.57 63 94 107
622.382 -199.33 1195.92 95 76 68
66.6758 5.11788 1088.03 216 172 162
662.866 -42.4596 1256.5 139 122 117
-660.89 -115.257 1263.52 76 64 52
