268.931 -503.702 2015.65 215 200 192
268.931 -503.702 2015.65 215 200 192
212.947 -391.041 1645.68 192 171 151
548.098 -249.843 1669.54 201 210 196
519.657 -249.631 1672.66 209 239 242
214.83 -129.941 1539.73 94 82 67
472.026 -55.6229 1651.7 255 247 232
17.4017 -29.8391 1157.78 255 253 240
437.549 -11.0944 1628.9 254 250 250
437.549 -11.0944 1628.9 254 250 250
497.021 -9.75935 1680.7 234 207 195
8.52678 30.815 1158.1 197 139 110
17.189 31.9594 1175.51 255 248 220
-197.243 49.2429 1152.96 50 10 1
324.748 147.507 1711 36 31 26
-116.048 80.569 1110.52 163 141 126
-65.8651 91.0662 1087.57 247 251 252
466.191 255.849 1782.33 228 255 255
372.367 259.176 1770.24 19 45 41
-169.262 199.676 1191.3 63 13 8
-111.971 249.755 1236.56 124 106 91
527.289 436.985 1970.04 228 241 238
-94.1206 240.697 1050.45 78 54 44
-201.878 405.253 1330.48 83 55 30
38.5052 412.776 1294.38 124 110 88
-134.222 416.194 1247.23 161 144 120
-96.2833 420.43 1204.03 9 8 6
106.765 532.572 1389.24 43 40 29
115.683 535.389 1392.93 216 215 204
-456.007 -239.134 967.049 121 117 109
-499.656 -166.381 958.878 132 135 123
-804.322 -297.889 2019.25 63 61 48
530.498 -114.496 1635.96 142 145 121
623.35 -124.268 1867.5 254 253 239
483.155 -39.5413 1681.3 169 123 108
419.788 -27.0188 1595.26 100 79 73
392.002 -16.0734 1517.4 234 219 218
560.171 98.6257 1730.41 254 255 233
362.161 102.301 1831.02 122 128 101
-24.6689 62.3674 1114.72 255 252 241
-58.687 137.842 1078.31 255 253 255
-49.5015 147.505 1112.66 152 113 99
-83.0302 153.883 1103.33 199 164 155
458.103 354.438 1890.84 95 119 137
492.067 341.838 1760.4 188 213 208
492.067 341.838 1760.4 188 213 208
-55.7501 205.27 1112.65 164 127 113
-100.283 285.814 1223.24 61 37 27
60.8447 295.38 1250.27 159 156 139
0.292751 294.663 1213.71 242 218 206
110.136 389.849 1348.7 255 254 234
-168.338 376.098 1210.92 87 53 22
-388.402 -176.765 1130.46 145 152 145
-1510.72 -214.107 2024.16 134 150 136
298.32 -191.517 1664.76 102 106 75
476.921 -118.346 1629.53 226 203 179
389.661 -96.3801 1511.98 42 18 11
8.77262 -62.543 1236.37 152 159 150
476.481 -46.6405 1714.22 167 122 103
472.524 -25.0156 1671.75 248 242 236
446.213 17.8579 1636.64 241 240 236
26.7198 2.69844 1167.37 255 233 216
277.95 70.9371 1441.36 129 134 103
522.693 89.6517 1706.5 255 254 238
504.19 183.784 1722.75 252 253 240
-30.8107 354.554 1204.18 248 253 255
-166.972 509.372 1499.36 16 9 5
-12.7562 438.678 1205.45 254 254 241
417.916 -506.995 2298.5 169 158 145
-915.906 -116.946 1455.15 139 149 141
-32.1622 63.8741 1099.98 255 250 251
-21.0212 93.0461 1166.23 255 248 254
499.546 298.035 1866.62 246 255 250
11.496 406.252 1230.92 95 77 70
476.706 -94.8863 1672.58 113 102 95
-150.771 50.337 1118.78 59 39 30
-63.9899 78.7606 1085.51 245 255 242
414.168 170.789 1562.88 57 45 34
448.729 213.596 1727.99 221 233 232
-104.233 148.572 1123.19 78 59 40
20.125 162.075 1194.28 247 242 227
-28.4514 182.299 1138.4 240 194 165
4.43626 235.404 1179.75 153 96 90
4.43626 235.404 1179.75 153 96 90
27.5704 254.477 1253.65 253 251 255
-31.0564 298.291 1160.74 255 255 254
0.965629 351.449 1238.89 253 255 255
-25.0822 406.884 1158.86 40 27 26
-89.5042 -274.337 1195.2 34 29 18
-594.346 -203.05 1584.46 67 71 69
-4.93418 80.4 1160.94 229 146 109
-46.2249 315.576 1132.4 105 78 71
374.477 -229.706 1684.27 200 184 184
-475.512 -62.5575 699.193 121 136 126
533.931 -46.4732 1695.28 249 250 244
17.2791 63.6659 1186.2 248 254 253
17.2791 63.6659 1186.2 248 254 253
-335.867 -195.79 1071.17 119 121 116
-585.552 -56.1998 787.963 73 62 50
-121.689 309.387 1210.89 145 100 64
-16.9232 335.784 1179.83 212 206 207
385.157 483.767 2062.72 208 206 194
-421.953 -190.908 1084.93 131 135 129
-109.59 51.2745 1122.45 60 39 29
-98.5987 179.15 1154.38 75 59 43
367.313 471.645 1993.92 216 216 206
54.1356 500.487 1307.93 74 73 72
453.417 -20.9969 1483.44 185 183 169
306.538 48.3625 1532.41 77 81 51
