-331.057 73.0374 1387.56 224 215 208
-387.779 74.5246 1367.57 227 216 207
-341.172 93.3363 1386.79 211 197 188
-426.092 296.262 1383.1 255 249 238
-388.111 79.8277 1444.44 199 182 175
-15.2418 -6.76624 894.5 29 50 52
87.4182 210.327 877.014 254 253 246
-398.87 35.8697 1358.31 218 202 188
-453.155 -9.90387 1264.3 171 149 144
-486.257 70.486 1261.13 99 64 51
-428.952 288.469 1381.27 104 78 70
-345.083 83.9013 1461.01 61 54 49
80.0448 262.075 807.93 87 86 77
-544.661 434.84 1625.55 77 78 78
-488.746 63.198 1258.99 223 213 195
53.6441 -74.0548 973.255 187 191 179
-58.695 -17.1075 1100.83 218 218 215
-373.812 234.059 1393.58 181 161 151
-386.779 267.231 1319.77 140 138 137
-431.669 280.797 1379.99 250 244 220
94.9878 232.691 860.087 246 243 224
-395.853 236.972 1468.53 231 204 192
-362.025 359.719 1464.79 145 149 142
-444.08 -4.43659 1205.92 176 157 131
-342.515 59.5005 1440.54 164 129 125
-463.466 124.451 1275.95 116 83 58
-445.515 177.985 1288.64 254 243 235
-521.058 129.593 1433.12 186 170 142
-347.831 -9.63484 1370.63 160 187 184
-408.226 47.1008 1030.84 157 119 81
-468.451 112.23 1274.81 107 76 49
-334.613 86.7396 1388.25 78 65 57
-442.881 184.848 1290.41 150 125 108
-65.0818 -13.1882 993.95 252 213 206
-467.672 -6.30333 1197.17 157 144 128
-77.5932 -15.367 994.992 210 201 201
-413.489 40.0662 1162.42 128 123 108
-314.028 205.931 1037.98 126 123 124
-463.977 -16.6816 1259.48 144 129 114
79.8151 196.291 822.709 70 69 63
57.3539 61.1217 781.953 153 149 136
-322.671 68.1823 1448.29 67 42 30
-481.366 86.7271 1265.2 147 113 95
-428.118 302.611 1481.22 46 39 34
-42.6518 -40.4636 1023 24 23 20
-451.861 34.0504 1269.59 199 183 171
50.0367 -71.538 1099 221 200 195
-453.516 -27.7769 1329.4 140 135 117
-301.585 54.335 1394.93 72 57 37
-488.673 -12.5476 1250.45 23 15 12
-440.24 191.535 1292.07 240 232 212
-398.387 -42.7724 1280.68 179 154 131
-440.788 269.541 1473.69 97 103 96
-476.283 98.8923 1270.49 143 110 94
141.803 215.603 913.548 48 28 13
-448.03 168.137 1286.64 157 107 92
-408.098 297.827 1331.19 148 106 87
-447.451 74.8345 1325.31 144 126 121
-444.211 -27.5245 1265.66 143 138 110
-442.831 248.905 1371.14 255 251 228
-335.698 7.96172 1377.18 122 122 115
100.706 -55.5195 937.429 238 251 246
-323.307 26.7681 1377.03 91 91 86
87.7172 -65.5692 1015.08 123 126 122
-445.625 241.599 1369.01 139 113 74
-331.504 17.5065 1246.13 151 125 119
-300.896 185.854 1426 146 120 99
-568.332 565.329 1853.79 184 184 175
19.3515 -23.1897 931.519 249 221 216
-310.005 7.1622 1319.71 84 83 72
122.794 200.71 876.539 183 151 134
-482.321 50.22 1387.35 126 115 104
-433.115 217.142 1377.56 113 120 114
-477.179 495.691 1565.54 160 160 156
0.0028927 -69.7194 1090.62 165 169 155
-36.1817 -8.63976 944.785 124 117 118
83.8586 192.441 838.642 224 235 218
-438.651 142.686 1287.32 58 51 33
-380.738 185.306 1191.49 50 55 43
-449.334 122.397 1281.05 139 121 103
-384.382 76.113 1298.91 147 134 123
-420.294 200.021 1300.31 162 147 118
70.905 94.8201 783.838 150 134 122
-369.734 -39.5711 1170.88 154 132 109
-514.728 232.066 1540.76 169 143 110
126.283 270.01 886.523 131 116 104
-438.626 49.0386 1345.02 130 114 111
-409.742 433.911 1357.5 64 66 63
-383.738 201.302 1154.04 243 228 216
-436.391 54.8458 1166.14 38 28 10
-329.607 12.1094 1404.4 31 34 29
-313.57 15.9861 1385.69 98 92 85
-396.121 357.746 1476.74 199 196 198
-484.913 65.225 1310.5 97 86 68
61.5314 140.037 783.931 176 181 166
-373.122 -36.8575 1176.95 118 106 85
-385.077 345.127 1418.07 201 194 183
-237.466 243.601 1518.12 192 186 170
-372.958 19.9102 1440.73 127 101 93
