-483.186 379.241 1238.03 252 253 248
-481.874 362.71 1194.49 100 104 93
-257.489 383.021 1186.31 229 229 220
-385.078 237.305 1226.46 66 50 33
508.581 511.045 1277.45 18 41 45
-316.918 112.785 1047.6 255 246 219
-434.381 183.252 1116.46 109 101 83
-366.115 236.376 1161.2 67 59 45
-436.981 188.787 1116.08 243 233 216
-346.699 73.3361 1082.73 244 229 206
-468.226 336.79 1178.01 246 241 225
-511.875 13.6081 1135.22 226 219 206
-258.049 198.162 1230.49 190 165 146
-461.193 18.3763 1042.99 230 223 207
-405.219 208.632 1128.45 111 108 105
-225.349 347.504 1387.82 9 5 2
-281.264 305.707 1173.31 144 108 93
-354.639 153.188 1057.51 185 159 141
150.183 130.451 1027.36 103 83 79
-355.197 86.5733 1132.02 230 212 184
-383.632 147.388 1128.87 71 34 20
-489.23 407.846 1258.6 62 48 45
139.115 91.4788 984.378 131 87 81
163.304 152.235 1015.66 216 210 211
-295.206 332.893 1260.12 227 205 194
-332.563 110.245 1089.56 121 91 67
-439.004 212.031 1207.15 238 237 237
-383.283 76.8555 1040.93 230 185 176
-432.379 200.442 1118.64 253 250 233
-359.384 91.7831 1079.51 115 94 79
-342.955 101.088 1038.86 199 152 130
-331.453 325.26 1181.2 118 95 87
-527.097 179.978 1319.37 234 205 184
-303.767 193.679 1104.83 247 231 214
-384.856 166.204 1160.29 105 69 52
-301.733 180.766 1075.41 190 160 143
-290.297 84.6776 1210.04 156 143 135
-476.416 21.7813 1066.97 120 103 87
165.97 157.63 1016.35 95 95 96
-367.153 -4.73041 1049.68 232 200 184
167.927 236.588 1064.76 85 74 61
168.779 141.144 1030.49 230 226 234
-350.956 20.6333 1030.65 209 192 159
-287.444 264.833 1136.21 191 150 125
131.995 123.423 937.521 243 213 199
-258.392 201.441 1292.85 173 147 132
-510.56 333.477 1261.29 218 197 178
142.314 99.8014 1048.82 242 225 218
-266.02 371.768 1206.75 221 200 163
-416.271 200.132 1140.19 255 249 242
-238.805 227.736 936.328 237 208 192
133.551 82.8749 1035.03 233 230 220
-271.17 239.943 1292.16 183 153 138
-328.549 91.4704 1042.49 255 246 221
-306.78 316.441 1102.45 222 212 206
-256.532 89.6859 1347.81 45 46 40
141.199 89.0068 988.749 226 210 206
-454.918 269.715 1041.99 173 140 135
-404.502 192.811 1181.52 178 155 135
-326.934 209.663 1204.19 159 125 100
-357.842 11.3849 1053.16 202 172 131
-271.74 102.696 1278.81 144 135 129
155.353 221.999 998.159 66 60 55
-309.491 215.342 1156.76 213 187 160
-330.084 102.125 1066.45 237 207 188
-353.02 154.941 1138.19 168 144 128
130.826 92.5924 994.201 243 225 213
-301.736 39.1016 1213.6 158 137 125
-249.115 255.624 1257.55 84 63 55
-376.036 75.6201 1073.3 255 251 247
-282.29 270.973 1138.41 206 156 131
-450.097 88.5871 1247.31 229 179 168
-302.823 43.1229 1205.04 97 80 66
-399.262 94.5067 1096.52 179 116 104
-304.285 355.783 1303.66 228 180 156
-363.468 119.57 1130.27 253 242 219
-285.893 -3.86251 1327.3 63 67 52
-256.817 264.233 1319.82 140 127 120
-422.084 185.068 1120.96 155 133 116
141.471 63.1732 967.714 253 246 241
-446.378 241.694 1233.22 181 161 152
-241.888 352.772 1214.22 90 90 83
157.275 63.4511 1007.35 243 238 235
-557.369 227.077 1192.98 250 243 215
-274.251 33.2139 1335.37 71 59 52
-272.948 7.93582 1268.33 51 41 35
149.605 60.5891 998.77 152 134 137
-538.854 95.6195 1105.4 248 237 230
-599.326 249.886 1290.27 250 233 216
-310.315 46.104 1237.61 31 11 4
