-94.899 400.173 1107.95 254 247 248
-74.0573 28.9208 1159.32 255 244 232
-93.354 424.024 1130.39 232 221 198
114.609 -39.173 1660.51 237 229 216
-87.6771 516.235 1187.7 232 234 228
136.53 87.1538 2018.5 24 22 18
-83.2719 19.61 1208.5 188 183 180
-94.8799 490.861 1213.21 252 238 238
-34.2653 4.52649 1274.49 249 233 217
-71.8985 27.0345 1181.14 128 108 90
-123.076 200.319 1023.8 21 17 9
-103.272 417.228 1178.42 237 229 221
103.932 65.1288 1678.54 223 218 213
-53.7165 202.911 1230.63 99 69 52
130.755 51.8077 2009.49 249 214 196
-65.8409 481.721 1190.58 98 115 103
86.8784 348.372 1824.26 61 80 93
-65.4709 -3.62748 1266.66 88 64 53
-92.3102 447.689 1111.66 36 2 0
-90.515 342.329 1127.04 110 94 88
114.918 -6.51011 1761.83 184 167 158
-114.702 219.319 1114.32 95 70 51
-108.86 309.894 1072.89 86 74 68
-78.6553 392.791 1177.71 189 162 145
-94.6488 303.276 1101.22 101 39 28
146.415 71.8226 2017.8 125 107 100
-133.511 224.746 1110.12 210 180 168
108.893 107.268 1687.58 109 107 106
-85.0959 413.116 1131.81 223 209 203
-114.981 127.239 1063.66 158 82 66
-110.09 230.678 1070.46 96 72 63
-74.1497 486.325 1217.98 109 87 61
-112.498 158.966 1066.03 105 41 17
-104.916 236.048 1071.94 250 237 222
-36.8314 477.324 1247.32 42 41 40
-108.572 495.083 1265.81 124 108 90
-32.2509 470.563 1257.66 96 99 98
111.517 53.5993 1984.03 251 212 196
-48.7522 33.8944 1089.37 158 97 72
-222.347 488.809 1127.82 138 133 130
-133.8 299.121 1114.42 202 184 179
146.651 38.6132 2140.95 122 75 62
-117.378 213.756 1113.35 228 229 225
-49.4872 249.362 1256.97 124 108 101
-123.784 4.67598 1253.54 152 169 170
-64.4653 457.531 1140.51 247 255 246
-113.089 159.513 1024.02 120 59 39
-135.609 167.238 1061.11 102 55 30
-4.164 340.059 1345.35 94 92 86
-46.6973 35.3258 1142.5 172 91 65
-120.016 98.5483 1060.81 138 49 31
-68.6864 347.985 1182.76 117 95 78
-74.4367 318.359 1179.64 141 124 122
-105.551 111.162 1023.16 120 83 76
-80.1784 309.387 1177.74 249 221 202
-75.0106 424.21 1240.84 241 236 219
-120.134 132.63 1062.78 176 98 76
155.163 126.999 2086.95 191 174 181
-97.5396 411.578 1179.53 145 133 127
-116.472 123.334 1082.63 226 157 139
-54.2616 141.591 1038.77 123 95 72
78.2532 432.445 1907.07 188 218 237
96.814 -103.212 1644 44 38 34
-51.3345 204.543 1177.58 165 136 113
-117.832 88.875 1019.25 194 114 90
-125.407 177.653 1064.05 130 108 112
-237.776 507.745 1175.59 66 59 53
160.999 -165.689 1851.64 181 195 195
-62.2597 355.969 1159.66 204 190 177
-73.8469 315.076 1203.81 154 123 107
-96.9002 121.655 1067.38 172 182 182
-79.5663 379.229 1131.54 255 247 243
-102.674 95.3951 966.256 133 114 94
-86.6406 43.3997 1184.84 249 220 197
-82.9784 484.721 1329.69 192 186 179
169.616 5.12779 1864.64 255 248 212
-63.4406 415.957 1331.56 117 118 93
117.074 90.2283 1686.16 200 181 183
-84.775 37.7099 1085.59 175 142 124
-85.9002 300.478 1175.81 255 232 214
-68.6793 336.251 1182.04 176 165 154
-64.387 412.218 1305.98 201 201 176
-68.5314 140.155 1169.08 255 248 239
83.4457 115.177 1776.36 127 117 107
-69.959 422.528 1135.94 177 170 164
34.7197 108.855 1763.75 137 119 100
104.731 316.205 1822.43 96 131 134
-131.11 204.939 1003.31 189 172 156
-91.2014 111.421 1161.69 255 249 234
-97.454 362.779 1039.99 79 52 42
-104.911 508.713 1182.64 143 134 112
-50.6913 190.757 1230.34 219 184 159
-154.721 211.116 1104.08 83 45 28
87.6444 404.964 1834.78 90 120 120
-123.818 10.7185 1254.08 132 141 139
