64.5255 276.845 900.816 209 202 190
53.442 7.27224 1041.71 249 241 245
-88.2945 8.35586 1519.24 40 15 10
69.0567 -2.64085 1131.32 250 240 237
76.7864 342.167 971.125 219 213 207
-32.3516 164.334 862.073 205 207 202
194.736 33.0968 874.959 215 232 224
-165.208 69.2625 1366.91 13 4 1
-167.474 -71.6075 1355.51 235 215 201
-148.348 -89.2336 1427.98 213 186 167
-82.6587 90.1766 964.478 188 185 180
-0.530505 230.755 888.445 189 186 178
114.144 294.046 940.803 246 224 213
-28.0693 197.149 863.696 232 250 243
114.982 26.586 1012.8 91 99 95
106.343 351.29 976.228 204 170 178
-19.6101 34.3967 1072.75 255 253 249
-33.9123 -4.75599 1547.43 168 157 147
104.79 28.9988 1011.49 229 231 229
-163.381 -93.3896 1498.05 211 184 164
140.324 1.59115 1014.68 234 230 218
79.3621 263.638 913.029 210 198 189
-99.487 -104.074 1438.83 168 151 141
-7.02858 -0.966076 1554.63 217 183 175
-76.3088 -27.7761 1437.16 249 233 225
-202.576 -82.1233 1568.67 221 197 178
136.697 5.59654 1030.92 50 53 43
-19.8384 47.4157 1049.4 255 218 190
39.3082 13.271 1081.97 71 34 35
-100.158 -8.89244 1668.23 51 27 16
335.085 435.622 1049.81 45 38 30
107.516 -4.17866 1114.44 89 31 19
230.686 228.524 920.84 198 206 207
153.282 9.14484 1016.91 236 238 236
252.973 246.13 990.713 195 201 200
-54.9196 89.9429 951.562 52 69 64
145.251 331.292 914.703 241 247 247
-12.7579 15.9845 1405.09 220 194 186
26.4281 -39.0719 1633.26 57 60 50
-22.5106 -69.2599 1539.31 190 228 232
157.344 2.44827 1099.53 219 223 215
-76.3492 -34.2305 1703.01 175 156 143
15.7064 82.9542 929.338 229 223 219
242.828 245.816 989.507 16 24 26
161.152 356.901 984.705 211 224 215
-192.44 -71.0309 1493.09 208 179 150
19.7066 88.7507 898.104 232 229 230
-45.2484 164.569 868.882 187 187 183
-8.11339 50.0672 1052.14 65 73 70
-36.1264 90.2678 955.008 197 227 230
162.708 -11.1399 1099.18 186 178 173
118.838 284.793 941.08 218 189 194
88.2824 335.254 938.563 34 31 36
-25.5299 215.766 937.925 31 40 35
332.582 390.717 1114.09 192 177 169
-185.845 -22.2234 1575.85 207 194 181
207.438 -1.1886 1179.32 48 49 35
212.792 252.966 930.785 184 163 154
1.72021 34.4204 1076.73 252 242 234
1.84272 82.6968 927.062 185 172 177
174.975 270.502 916.215 21 33 26
40.1724 43.9337 965.706 254 247 237
-16.1575 305.457 940.997 101 99 96
25.8685 26.4843 1080.54 121 88 86
121.986 12.4207 1052.55 210 199 191
-16.5027 296.112 919.543 128 124 122
30.5347 46.2034 964.291 126 119 101
227.306 38.2732 955.508 71 65 56
-28.3082 -26.4497 1467.73 198 169 154
172.465 -8.40677 1057.95 187 188 177
-40.0106 101.49 991.371 96 119 113
198.095 362.249 975.894 222 174 163
39.344 185.277 892.946 149 154 149
-24.4158 89.9368 940.895 32 56 63
120.681 288.081 975.512 250 236 225
17.2516 47.9591 1038.17 106 89 76
180.611 -3.17145 1059.4 144 148 133
28.5424 21.1892 1080.65 163 135 140
-221.685 -26.8131 1491.14 229 191 168
52.8402 309.677 931.918 189 163 150
-171.975 2.7355 1511.02 17 20 7
-35.7819 -40.5246 1527.36 138 104 86
119.166 302.885 928.606 180 153 144
-13.8198 310.32 941.451 196 194 190
0.602252 -94.9414 1464.14 59 58 45
-248.964 -78.7181 1428.62 253 245 219
-179.329 -32.3284 1491.23 216 193 176
16.5109 162.955 859.256 56 84 81
-83.6001 76.1127 981.811 171 165 154
-157.293 -1.4369 1354.38 158 147 127
52.9732 31.8739 1085.6 107 84 93
74.2606 327.361 970.075 161 139 132
332.528 379.623 1113.96 142 114 101
15.3857 -55.5846 1473.4 81 68 53
245.164 235.816 989.135 64 34 30
100.301 -13.8582 1135.51 140 133 122
-77.1279 109.24 882.456 174 202 196
13.7787 251.267 935.162 103 98 96
-6.97075 157.75 855.284 27 49 53
37.426 346.749 941.53 167 159 158
132.332 199.938 938.694 209 139 112
-171.042 8.96138 1584.6 136 132 120
224.297 216.393 918.388 153 139 128
194.786 248.024 904.773 149 129 122
7.31076 -44.0695 1593.79 50 47 49
-64.3946 77.2391 1024.63 210 233 227
252.645 374.274 997.754 186 159 149
251.299 291.218 993.299 145 170 178
198.913 411.875 1069.68 125 129 137
150.279 20.674 980.142 100 120 112
44.0742 28.7737 1002.19 126 89 87
125.652 290.779 976.393 185 161 153
-18.7263 -84.3551 1537.63 180 198 189
5.94506 161.586 886.503 32 37 39
143.138 -33.6148 1140.33 94 88 73
149.92 301.568 1003.78 181 189 180
111.671 282.078 939.902 177 184 180
52.9407 26.5438 1085.22 235 181 174
47.5078 60.5994 967.716 236 221 206
44.0497 23.8646 1001.91 239 162 151
-7.18052 -50.5121 1546.18 127 123 113
194.152 381.147 990.384 46 33 41
63.813 23.937 1086.86 172 161 135
-90.7897 76.0376 980.38 134 131 118
-71.4183 -58.462 1452.54 62 62 53
154.776 -28.0634 1142.51 127 120 112
120.473 -5.51342 1139.37 60 46 36
-0.727106 -51.3298 1400.26 30 23 12
100.482 -6.87554 1162.02 156 130 110
148.952 -30.7982 1141.42 202 191 177
-252.993 -2.65316 1670.82 158 140 117
155.445 249.494 882.79 40 33 20
-238.36 -6.64 1561.01 208 190 159
-67.6123 131.864 817.057 204 208 200
145.1 278.867 944.569 49 25 16
205.863 248.874 968.52 117 98 90
-47.8581 165.084 839.352 148 139 131
-103.398 67.2274 1057.87 55 53 42
-252.001 -84.6288 1472.32 122 102 83
317.848 420.451 1007.5 82 68 60
255.602 275.992 970.394 82 74 60
-76.5563 99.3975 961.548 193 219 211
217.957 233.42 964.329 136 133 124
203.173 240.97 929.232 51 27 12
-14.1247 186.904 928.316 101 101 99
-23.8039 182.092 863.998 36 34 25
-49.7609 74.1661 988.241 157 177 177
190.063 13.1202 984.598 85 93 80
210.335 270.409 939.095 121 135 124
79.2591 286.776 921.604 54 55 54
265.465 379.144 1020.66 118 81 71
-94.416 103.448 944.59 164 163 155
101.157 303.756 907.387 143 146 151
59.9114 319.487 933.452 81 51 44
237.106 293.957 1028.55 115 122 109
171.463 268.1 947.641 155 151 139
-75.6951 103.487 855.234 103 133 128
-131.904 -8.04485 1307.19 172 169 148
216.175 185.711 948.476 116 90 78
204.48 374.922 1003.07 183 145 133
-69.0049 144.489 871.816 189 194 185
-220.813 -82.68 1470.07 70 57 37
9.24117 57.9628 998.024 132 101 90
-41.12 37.7806 977.934 217 164 152
-147.158 -16.2423 1553.1 115 109 98
205.592 245.723 929.68 139 111 92
268.527 272.067 928.455 87 61 56
-47.3244 69.3111 988.463 198 191 192
83.8136 27.5401 971.442 215 188 171
-128.335 -45.9233 1590.14 128 129 125
171.271 375.587 998.489 123 101 102
291.302 276.247 1014.77 37 27 21
138.449 220.014 897.044 103 59 32
127.334 -11.8618 924.061 160 134 120
212.261 318.316 974.71 32 61 74
135.008 -10.9643 1052.72 66 58 53
228.156 262.85 966.649 104 87 83
-7.03747 320.456 933.475 64 59 56
-286.201 -126.49 1594.8 209 202 185
-208.996 58.4629 1508.52 154 122 100
156.512 -9.85286 1171 198 153 145
207.197 173.319 927.239 158 121 105
-17.4683 89.1294 862.207 168 209 208
-41.6029 68.2912 919.08 93 97 107
-241.919 -14.3366 1558.82 151 123 83
