1.6072 18.4454 1169.71 249 225 214
5.8381 499.82 1257.3 42 43 46
-6.86754 411.298 1169.58 254 248 244
-32.8366 415.255 1136.97 255 246 220
317.362 341.967 1871.06 83 98 105
334.872 -66.3309 1777.99 255 249 228
0.36363 9.13463 1235.42 219 203 197
-0.4941 454.962 1253.75 251 237 237
301.599 41.61 1708.17 249 244 234
-169.522 556.106 1377.15 210 207 200
344.306 474.317 2143.92 73 109 119
226.851 334.069 1852.91 4 26 28
-22.4418 432.03 1219.81 255 249 240
292.916 404.449 1850 222 255 255
-67.1062 93.1911 1066.89 228 174 151
-22.8044 488.714 1161.03 255 255 245
32.1278 28.839 1229.46 137 85 62
302.736 -29.8715 1692.83 217 200 191
-67.0891 82.5147 1066.28 252 183 156
-4.33963 393.068 1220.73 75 42 34
-76.2852 215.376 1167.56 68 42 30
-6.70534 281.003 1112.67 249 236 231
69.5502 489.607 1362.75 71 70 69
-32.828 444.391 1139.5 31 15 7
78.8937 88.0558 1316.11 133 107 100
-29.9076 515.192 1312.18 186 168 153
202.675 -125.216 1743.59 75 70 60
-52.7642 297.649 1078.39 79 69 63
-40.508 415.095 1214.47 250 236 231
-67.1483 119.93 1068.4 130 52 28
-0.558576 420.195 1251.89 251 246 247
39.9657 36.8125 1289.31 171 113 84
12.0988 497.199 1258.52 134 138 151
388.498 -167.089 875.342 64 68 60
211.045 -137.99 1741.83 86 87 83
302.357 -38.187 1690.95 66 43 34
-52.4911 259.903 950.5 224 202 197
305.942 146.064 1626.44 238 225 208
-69.9793 75.049 1110.46 255 243 224
299.886 -126.758 690.311 88 95 86
-4.15622 477.163 1227.14 122 106 90
-42.3241 113.124 1092.39 123 121 120
316.68 249.612 1729.58 89 83 76
-39.6749 419.593 1114.86 164 158 146
-59.0939 100.234 1114.39 124 106 91
2.82744 269.359 1157.13 78 60 60
324.987 75.8721 1718.91 254 249 241
-32.9626 350.775 1185.16 160 147 142
-2.96092 382.354 1152.28 255 250 241
-13.1312 34.0888 1253.13 255 248 235
-59.0899 239.618 1172.95 133 115 100
-2.41922 391.313 1239.04 250 237 224
37.6295 192.272 1303.86 249 231 205
-36.0889 325.864 1223.81 101 70 62
-46.6362 199.632 1112.84 158 135 129
-38.4267 299.405 1124.85 124 133 121
34.503 218.394 1305.52 127 110 93
243.583 365.781 2084.7 149 171 179
283.594 -4.86928 1786.23 153 127 114
344.891 -48.9334 1783.71 247 253 241
371.039 85.0103 1918.5 253 250 250
-35.7868 253.752 1151.47 255 243 219
35.8852 242.253 1269.87 133 114 98
30.9865 165.913 1300.08 167 119 95
-28.4912 494.851 1193.05 92 78 61
52.8597 80.0353 920.299 109 88 82
220.404 354.174 1963.87 26 40 48
-60.3323 207.531 1110.75 143 112 84
-24.2331 424.744 1166.78 182 164 142
202.967 -116.751 1745.72 167 170 153
14.3273 383.651 1279.81 229 230 215
311.636 346.174 2090.81 107 142 137
349.855 170.024 1838.73 122 116 101
63.1165 92.7041 1033.64 33 11 5
4.61078 337.923 1218.03 163 143 140
-35.9088 270.291 1179.93 185 173 151
295.595 3.58726 1699.1 145 100 90
35.4661 178.262 1262.55 173 133 106
14.9652 389.7 1253.5 221 216 194
297.017 89.0645 1811.1 175 151 140
399.695 -193.893 1889.38 221 237 236
241.717 458.847 2109.66 50 69 66
297.304 -127.803 695.703 79 83 77
-33.0234 178.757 1174.63 223 190 179
18.7485 534.073 1355.83 38 43 55
462.245 35.5053 2210.76 147 132 128
31.5464 235.802 1277.53 254 229 210
-33.0215 184.65 1175.03 141 91 80
-68.6711 103.982 1154.17 103 54 37
349.323 30.7412 1804.38 251 242 227
-75.6355 175.225 1115.49 230 209 200
334.07 9.06563 1899.61 122 76 61
-114.122 130.545 1078.38 162 136 130
236.555 91.2829 1766.99 28 16 2
245.502 -159.504 1741.92 92 77 71
-197.495 284.456 1254.5 70 24 11
281.939 468.01 1866.17 131 146 140
-33.0252 172.859 1174.22 139 108 103
-137.576 87.8199 1114.42 162 130 123
381.017 347.947 2101.56 142 167 164
33.2135 -17.1786 1282.33 126 100 84
89.3578 127.858 1323.55 46 25 16
275.859 49.9942 1706 135 118 110
44.3458 225.336 1308.19 216 204 191
-215.095 109.371 1178.77 66 15 10
45.3303 229.756 1270.38 195 189 181
79.2006 113.693 1211.35 80 67 44
-42.7125 7.95946 1269.07 31 53 60
-183.862 80.5141 1184.87 162 128 112
44.3085 218.752 1307.61 159 134 117
-19.929 531.608 1341.2 99 79 61
-51.4598 531.065 1243.18 161 154 151
329.044 -173.365 1729.22 241 252 252
-225.092 525.467 1372.79 148 128 112
-64.6558 158.769 1116.87 101 37 24
65.7768 508.155 1381.04 103 102 101
-178.196 495.46 1262.07 153 136 124
370.955 358.64 2103.3 190 229 232
-35.7898 187.112 1145.81 146 114 105
-75.947 69.8091 1157.59 169 149 123
246.442 88.7034 1802.74 138 117 95
-33.0659 29.869 1163.69 180 151 138
245.102 378.807 1836.66 82 115 113
-7.98608 231.14 1118.24 132 112 95
-53.0746 110.14 1089.96 208 200 200
-13.4825 89.3063 1225.61 255 246 229
-83.5798 222.671 1138.36 168 143 125
226.205 71.6809 1671.04 143 118 105
35.5008 237.89 1178.85 185 170 162
-13.3716 156.939 1231.21 249 221 205
-35.1512 296.962 1016.62 255 251 254
168.23 -99.3985 1743.83 49 46 28
-44.8942 86.247 989.642 250 250 241
440.851 173.341 1951.59 246 245 222
-260.124 506.792 1359.2 80 58 35
-14.8648 305.426 1226.8 227 218 206
357.731 6.26228 1812.56 245 219 199
370.568 80.4737 1819.5 244 230 211
274.354 325.601 1967.19 83 118 111
-100.116 199.012 1132.61 97 52 28
352.749 -176.204 1674.01 190 206 206
-73.0924 60.4256 1051.81 241 217 193
375.743 78.3453 1822.4 184 160 147
-67.4146 169.902 1116.95 133 107 107
-31.4485 263.27 1079.75 255 233 213
-35.3768 201.474 1057.73 253 242 216
385.443 -168.48 882.646 95 99 93
-4.43283 352.808 1217.38 152 130 120
57.341 206.03 1309.17 179 183 162
240.272 474.257 1948.61 66 94 88
213.229 71.0782 1612.68 62 38 17
