30.8483 -11.9806 1149.27 255 249 216
292.144 189.027 1833.95 229 229 213
30.7265 412.565 1256.88 255 247 240
-55.0646 65.3248 1058.6 249 200 173
2.97742 415.949 1095.83 232 227 220
25.5252 420.716 1318.55 254 252 249
408.261 -113.902 1604.3 249 238 227
-55.063 54.9392 1058.33 254 231 197
-55.0638 60.1379 1058.47 127 49 18
126.817 469.294 1439.38 92 91 89
405.375 245.218 1652.24 84 110 116
67.384 -4.91921 1233.72 72 21 8
19.3301 384.32 1170.52 71 65 60
-8.32484 306.394 1170.12 134 109 115
473.459 -16.8696 1867.58 253 253 252
55.5927 478.919 1328.05 184 192 196
380.085 -4.91786 1542.74 95 86 84
436.445 -18.5493 1796.31 245 230 224
410.44 33.0711 1626.42 225 216 211
78.0542 -0.278695 1269.17 117 11 6
30.805 -23.3046 1148.57 206 202 190
-44.6201 114.782 1061.78 238 194 183
910.001 -368.884 1476.05 42 45 43
71.5962 212.651 1305.25 121 111 108
364.693 -166.54 1506.62 179 178 173
10.8572 -0.668575 1146.17 244 214 199
459.148 269.383 1873.54 224 252 253
438.728 13.9619 1722.93 249 232 226
480.035 21.471 1808.83 246 235 237
29.5165 376.473 1299.51 128 108 100
-42.1299 75.4042 1072.35 68 87 67
424.781 17.977 1551.84 250 236 234
6.42794 454.982 1276.5 255 252 248
205.603 159.629 1716.33 63 56 43
291.328 -181.857 1576.28 52 47 49
-38.4126 82.1952 1109.07 123 81 80
-41.1231 174.393 1110.59 135 98 84
-2.44529 371.639 1170.43 141 126 118
362.98 276.295 1857.39 41 74 64
67.3423 194.347 1250.95 255 248 228
-38.411 87.6211 1109.23 164 119 106
-28.9199 63.4213 1048.84 149 148 146
224.132 -205.58 1535.74 246 250 235
52.2781 349.296 1303.99 239 236 216
14.0545 256.763 1189.44 110 87 80
55.5376 146.743 1237.45 255 248 231
397.319 33.0047 1719.17 177 156 148
402.055 33.0484 1625.17 107 100 91
5.94622 292.895 1212.46 151 131 137
372.03 -78.0203 1519.89 189 178 161
-6.01675 392.75 1136.39 76 77 63
-7.12399 195.579 1033.77 73 47 36
-14.5604 354.363 1135.04 234 232 227
409.801 -106.677 1526.98 251 231 209
-10.9331 58.0166 1113.79 135 119 121
-14.4396 221.77 1151.72 251 223 187
26.7064 262.526 1176.94 149 98 99
54.5497 127.478 1161.43 151 117 93
68.0107 159.247 1240.27 152 106 99
28.9421 263.304 1192.83 124 72 69
266.558 -155.182 1666.77 15 13 1
76.8668 180.952 1185.36 117 105 89
71.0874 147.118 1240.51 245 225 198
-30.1423 169.324 1112.71 144 101 79
-39.4305 182.591 1073.15 69 61 50
-10.9124 77.1433 1114.37 131 127 121
412.846 245.231 1737.5 119 145 160
52.4454 -30.9817 1173.69 131 106 84
37.2937 303.564 1236.95 142 113 110
-52.1653 93.841 1045.53 207 136 105
32.8673 458.929 1300.1 136 113 91
29.6297 251.181 1177.42 211 155 146
-41.1505 71.2862 1108.21 245 254 244
63.0691 118.84 1216.26 176 129 98
-8.3324 297.878 1170.14 151 147 144
6.526 322.973 1230.86 255 248 238
-31.504 285.358 1165.45 104 103 96
-39.3639 161.538 1063.53 247 244 243
13.8336 361.7 1140.97 81 77 75
378.201 -18.1012 1528.68 109 88 71
359.784 25.8991 1466.34 100 96 88
-14.2666 155.167 1167.12 128 77 60
-97.971 102.828 1097.29 162 139 127
3.36463 343.857 1172.12 165 153 149
72.3392 137.031 1219.05 176 132 95
63.0383 112.845 1215.91 248 232 211
49.2785 125.358 1235.51 254 238 217
26.7622 302.598 1177.03 125 108 97
78.7073 179.334 1222.46 242 238 233
373.9 29.422 1548.18 172 164 157
-2.91332 428.091 1212.35 189 179 174
368.255 -32.2251 1579.26 195 157 133
39.1846 47.5745 1122.97 182 135 132
30.3762 368.576 1219.12 234 229 224
384.401 -72.9145 1530.74 254 251 246
406.429 -27.7786 1541.46 249 221 200
426.989 21.1606 1635.34 171 160 165
424.425 336.285 1765.53 103 131 136
84.6275 180.91 1306.9 174 136 126
284.091 -7.31298 1693.89 22 25 3
283.643 -170.261 1576.79 88 90 85
-56.9356 177.954 1141.31 100 71 73
-10.516 335.936 1124.52 142 138 131
-7.85405 386.497 1112.98 38 26 15
20.8445 270.849 1175.85 170 156 158
63.1438 96.2213 1161.44 171 127 101
364.001 -60.5427 1609.69 175 150 142
375.011 365.914 1995.42 43 57 51
401.247 181.493 1577.58 123 121 111
5.23918 109.968 1102.18 255 251 229
49.7601 343.523 1239.58 200 190 163
-160.979 471.782 1376.05 160 139 119
429.331 -15.0568 1622.23 251 232 236
18.3159 432.688 1216.78 230 220 208
-150.729 45.9262 1084.03 160 138 125
38.4999 58.8189 1207.92 205 186 180
-5.38963 69.0556 1115.21 255 247 240
-68.6939 136.618 1155.27 102 47 39
373.988 165.353 1471.27 88 80 62
437.792 361.491 1958.49 76 111 121
394.878 -95.4075 1527.63 255 252 251
597.375 -289.98 2005.84 198 194 186
-10.6409 376.238 1113.47 85 81 68
29.0074 343.153 1223.01 221 199 182
106.948 59.5615 1246.25 255 247 225
-45.7622 102.93 967.293 241 206 192
566.869 107.225 1862.8 232 229 203
-20.0203 189.231 1166.7 251 239 215
113.795 72.2953 1308.32 255 246 227
67.1744 -50.534 1231.43 103 88 74
464.251 -70.9568 1618.44 255 255 227
22.2036 100.453 1245.73 253 246 239
-20.1933 -19.1798 1159.97 186 181 176
-108.264 418.766 1167.43 169 152 144
-21.3027 64.0319 1196.13 255 241 237
378.152 -42.774 1535.62 150 117 112
-3.18388 103.579 1149.13 255 242 231
2.8217 0.638924 1114.51 198 165 149
466.019 -26.048 1692.6 155 138 127
25.553 440.851 1280.44 140 136 137
362.696 -49.5318 1450.56 243 235 224
367.264 12.063 1530.01 134 111 110
448.272 -29.1339 1625.18 250 238 228
116.878 199.094 1320.58 191 168 169
-152.051 226.043 1174.5 71 27 9
-181.178 72.3512 1142.4 66 24 7
-22.2241 82.1788 1075.32 161 158 146
5.26718 47.2697 1147.84 202 151 123
406.873 340.718 1950.42 108 135 131
-62.8512 31.552 1056.13 202 180 160
422.009 341.262 1826.36 125 159 197
117.103 218.829 1322.44 255 247 216
500.038 396.83 2119.92 173 214 233
-11.5446 -2.07322 1162.43 127 97 78
-2.54667 287.825 1306.92 255 220 200
395.125 -34.8926 1614.4 200 178 158
-12.0353 -24.9114 1333.64 30 51 51
93.0275 159.868 1245.11 168 148 127
532.926 102.308 1857.36 247 244 217
426.596 -213.103 1508.02 208 236 238
483.503 27.1822 1752.02 223 195 182
79.4678 220.03 1283.98 202 175 157
-25.1674 80.361 1021.58 170 175 172
415.466 -223.257 1580.97 192 208 205
-21.795 283.181 1114.83 141 131 132
68.2611 334.347 1260.84 226 227 209
-8.68394 250.192 1153.72 192 150 129
458.066 -27.1137 1624.36 162 147 132
388.874 16.9589 1620.93 45 22 26
-62.5226 180.344 1091.23 173 139 121
-49.8491 125.031 1060.95 147 64 31
42.847 107.259 1158.24 255 230 206
425.865 37.2142 1555.47 252 240 216
-25.9273 -13.4638 1159.04 108 88 72
304.752 -215.668 1642.21 217 189 181
374.195 -122.619 1514.09 135 125 119
41.0455 253.153 1277.82 182 143 136
507.079 -105.115 1690.26 251 250 223
-6.01458 360.352 1211.46 254 252 254
433.79 -220.428 1507.18 180 200 204
403.37 -127.227 1623.29 89 71 64
127.897 82.3378 1420.19 255 241 213
-49.0865 245.005 1095.48 180 174 170
2.90796 318.324 1157.32 195 146 126
15.4476 337.609 1184.52 240 225 200
6.90944 345.869 1242.79 254 240 222
496.21 -53.1289 1624.21 157 166 154
-168.761 -40.2563 1304.37 95 92 77
429.222 192.04 1649.93 191 201 194
-9.92605 52.8808 1093.74 255 254 247
31.2654 104.204 1155.89 224 197 172
-46.1345 250.086 1078.42 169 153 148
-18.89 492.955 1271.02 112 113 101
501.06 -100.074 1917.48 120 104 93
-57.9387 179.403 1125.01 171 128 123
18.1526 344.094 1216.23 252 227 195
-27.4826 270.351 1062.02 139 123 118
46.7812 447.965 1237.64 14 25 23
399.325 -58.8588 1677.69 113 66 59
413.461 -90.3679 1608.66 189 183 189
-258.239 11.4629 1191.26 192 181 162
32.1502 49.8323 1173.1 255 236 242
513.238 -109.669 1696.31 170 171 148
5.70116 66.4737 1117.26 255 238 236
18.066 302.476 1215.24 185 170 165
375.641 369.557 1689.66 135 152 149
58.9515 273.581 1199.34 192 176 171
-63.6857 38.4834 1178.5 206 181 157
99.5754 646.36 1492.89 192 218 204
-57.5164 206.104 1107.68 143 95 71
476.295 191.723 1756.49 221 225 221
324.813 315.708 1748.46 63 79 75
-46.3831 194.415 1094.96 152 108 92
-187.064 596.726 1719.93 50 31 13
521.272 -64.1288 1708 192 199 188
