312.712 -40.3246 894.076 245 250 252
413.226 230.562 984.467 246 249 241
-259.97 372.971 1156.63 237 237 228
270.143 -14.0068 923.339 248 242 241
415.909 245.809 987.499 249 254 250
202.454 177.977 1075.38 235 224 216
-441.177 149.513 1077.54 247 229 221
244.847 60.2716 958.868 250 234 229
420.532 206.311 1003.31 216 217 211
-295.241 304.476 1193.28 255 251 246
-296.679 177.308 1047.8 255 243 233
173.271 -142.503 1133.69 71 68 69
244.87 16.0625 923.082 244 236 224
411.784 215.604 983.731 247 253 249
-545.492 358.576 1321.8 66 48 35
-453.387 338.93 1124.75 255 255 247
-504.042 367.306 1227.14 69 74 73
-313.841 179.005 1104.8 80 50 34
-359.2 134.895 1195.23 243 235 215
252.534 157.588 1020.72 192 175 171
351.012 16.4659 901.024 241 240 240
-433.95 161.797 1116.52 246 225 205
-431.644 167.368 1117.8 134 106 89
321.372 -99.3382 953.195 178 200 194
-326.506 94.3812 1047.94 218 204 195
295.924 248.238 1136.58 59 56 53
-333.003 120.554 1094.93 87 72 52
-406.738 504.766 1250.68 71 73 71
-449.054 428.125 1252.84 44 40 40
-575.486 57.4527 1054.3 245 241 222
275.04 -14.3681 956.557 241 229 224
328.339 417.462 1227.33 62 107 110
193.447 -92.265 976.987 213 206 202
-410.769 22.8021 975.334 115 86 75
131.184 90.718 982.028 110 97 96
159.69 49.5246 948.481 247 243 234
-439.713 195.206 1117.3 254 242 226
-461.205 8.52892 1000.23 231 218 217
-405.062 184.863 1077.18 248 238 216
97.4366 -37.3464 929.658 58 62 59
407.642 185.357 979.946 222 229 224
-436.552 129.371 1090.24 117 81 57
298.807 -87.0962 919.97 183 203 199
-416.852 120.272 1037.17 252 223 202
185.905 -129.335 1091.27 242 240 230
145.86 66.2248 982.581 243 245 249
-325.002 63.0524 1003.02 253 251 229
364.278 43.1569 935.094 230 242 233
409.125 129.44 991.978 237 249 234
-450.4 8.72055 1003.89 255 244 233
180.036 -105.193 1011.21 231 217 215
-395.85 513.247 1255.62 72 78 73
-451.39 316.476 1090.64 235 232 226
-298.786 102.964 962.335 253 241 223
302.435 -82.9998 953.255 208 233 227
224.187 169.805 1018.5 68 61 59
431.976 199.904 1034.77 214 227 217
-359.799 161.868 1059.66 121 78 58
244.755 55.455 958.543 145 132 119
-380.831 177.939 1084.42 100 87 64
298.264 -87.6952 964.938 203 208 201
-361.256 300.593 1208.77 89 73 61
-335.003 157.683 1148.52 236 222 196
-455.262 157.219 1163.53 233 218 191
218.548 189.617 1037.17 212 185 181
234.971 55.3417 957.503 113 94 81
-494.851 307.922 1180.49 255 241 228
386.867 234.436 951.98 203 214 206
175.843 242.258 1075.26 236 237 224
227.328 138.81 946.753 255 236 231
126.26 95.5557 981.617 255 252 242
-277.576 303.541 1145.52 197 175 164
-220.406 317.716 1273.92 29 28 17
-412.768 204.988 1127.33 128 118 109
-311.063 277.034 1053.69 119 90 68
399.914 191.723 993.362 206 223 213
136.465 123.014 984.536 104 78 73
278.069 -87.5784 950.87 61 70 67
96.9252 -35.1477 935.264 179 187 181
320.645 -102.882 987.726 152 157 166
-450.269 314.879 1142.38 242 239 219
338.98 2.71794 870.036 233 253 249
-328.368 142.336 1097.93 235 226 199
421.885 241.259 1035.06 210 227 213
412.157 134.479 1030.51 225 235 232
-425.905 514.142 1293.33 80 80 75
-517.182 116.6 1033.07 114 105 92
-355.601 94.5538 1136.05 119 84 68
157.214 -90.3129 1009.78 62 52 47
120.194 27.6568 839.295 255 253 251
232.269 182.869 1020.53 232 216 204
200.556 -99.0579 1053.53 239 219 189
-517.497 126.871 1033.77 109 95 85
161.758 -144.963 1131.95 220 202 182
-408.888 31.5561 1018.86 155 71 41
-399.21 67.465 1048.74 241 207 194
361.258 19.452 925.657 209 219 220
-458.114 64.561 1050.26 121 92 96
329.53 445.708 1200.72 96 121 125
257.988 133.23 1000.35 221 205 209
207.222 161.09 960.359 140 120 123
206.307 50.4488 937.598 251 244 229
-350.24 96.2444 1041.07 225 183 150
396.706 127.041 994.234 221 231 222
252.454 110.436 998.318 141 117 102
241.375 176.42 984.933 137 101 90
154.769 40.0346 947.287 251 245 238
362.455 14.2279 901.66 243 249 235
-340.609 -14.5818 1083.26 177 158 146
-452.03 95.6843 1054.71 131 128 127
190.033 -45.7803 913.369 205 194 171
341.333 306.759 1017.8 159 162 157
156.205 -133.841 1132.35 216 213 203
-492.331 324.828 1128.2 126 115 97
377.991 478.824 1207.48 63 105 142
231.059 52.3263 992.088 206 202 176
323.912 -58.4688 864.561 70 90 67
-433.76 159.121 1147.39 171 134 108
331.61 71.2242 934.464 255 254 229
358.575 375.605 1150.48 108 141 151
125.946 30.3207 943.037 219 206 207
-485.633 330.254 1186.83 216 199 178
-280.943 231.389 1058 178 130 106
254.121 163.857 934.531 228 194 186
-321.193 293.981 1096.82 225 205 194
298.696 -4.45135 926.488 61 63 54
197.299 164.422 994.839 209 182 166
394.925 122.61 959.615 210 229 202
-393.335 335.12 1332.17 214 189 175
244.275 -113.11 1017.29 120 93 78
327.741 -62.3182 924.169 204 215 194
227.876 167.755 998.826 76 39 36
-330.598 281.876 1187.91 156 130 116
352.722 1.63324 884.076 218 229 225
245.077 172.887 1021.18 181 151 137
-343.001 -1.79542 977.777 89 60 30
-404.354 165.248 1045.3 232 220 209
236.024 161.4 983.157 59 35 29
-274.267 69.9213 1275.34 194 180 153
-474.5 303.612 1132.33 177 164 147
359.16 36.3864 917.365 239 241 225
289.126 -9.32388 925.33 61 48 38
-387.556 517.91 1259.13 128 129 125
-304.893 258.298 1165.51 255 241 228
-479.367 365.868 1174.56 218 216 210
231.271 62.4156 974.377 223 206 182
-490.293 474.388 1386.33 56 52 54
219.279 104.962 994.117 230 197 181
375.862 333.258 1104.73 247 249 245
-420.043 154.229 1038.95 201 179 164
-360.38 0.946053 1032.22 209 197 156
-364.875 222.195 1144.33 136 112 93
-473.281 9.86995 1008 45 49 37
-262.428 358.132 1154.58 223 219 198
-344.676 10.6049 994.645 254 250 203
-385.271 421.906 1296.28 105 98 73
334.645 365.785 1146.98 101 129 141
-273.288 247.114 1230.82 154 142 130
274.316 191.751 1025.99 112 86 76
262.993 -54.6192 1107.5 155 154 153
236.691 16.7414 955.106 180 164 142
100.329 -50.611 968.886 48 40 24
-491.839 321.686 1226.78 216 226 201
130.095 -52.8284 876.194 192 189 157
350.464 47.0906 967.673 151 146 131
138.496 75.943 982.188 222 181 173
121.167 80.7266 980.053 255 248 251
-306.281 321.736 1236.78 255 248 239
-347.763 88.622 1041.32 244 220 197
-387.815 49.6469 1005.7 169 117 110
125.801 46.3216 978.642 250 242 242
-407.207 173.961 1075.68 245 240 225
-309.113 35.3696 1201.41 167 138 123
-363.861 294.251 1207.39 227 204 190
-512.091 246.634 1165.64 210 183 170
-355.253 260.315 1150.45 138 115 103
-255.951 245.24 1235.72 50 30 22
-295.455 52.5916 898.413 145 111 73
-320.629 -5.23752 1022.35 143 127 110
396.745 215.359 982.802 179 197 186
-291.081 68.1127 1154.49 41 17 6
162.689 138.877 1026.74 204 197 204
-292.698 181.804 1037.34 255 244 217
-463.119 243.076 1031.86 250 246 250
159.832 -85.3865 1010.5 172 143 130
-271.983 -9.06549 1208.61 23 27 22
353.603 455.906 1114.9 111 142 150
200.266 94.6986 922.605 188 166 136
-480.63 274.143 1126.66 103 93 91
-287.498 74.9479 1211.54 155 139 123
432.587 84.59 991.891 227 230 217
-451.123 146.95 1140.7 145 112 94
340.308 258.945 913.022 206 204 180
374.078 57.5035 920.277 227 244 224
-497.73 374.553 1187.93 233 231 225
-350.825 328.995 1214.57 135 109 101
285.889 142.647 986.783 228 200 179
-560.395 232.812 1190.28 139 108 93
188.22 236.974 1057.85 84 86 65
-468.236 135.093 1133.96 129 99 84
-349.86 229.144 1097.71 242 231 230
-339.343 327.59 1181.9 203 184 171
257.524 -156.665 1096.35 151 153 138
-378.857 197.762 1012.49 146 142 142
-456.995 13.6014 1001.94 135 119 102
192.094 99.2831 922.332 139 128 126
231.544 -66.3011 915.97 115 98 92
135.91 66.1003 981.235 245 234 239
-505.63 243.507 1113.49 177 180 180
283.736 84.0327 916.323 247 231 212
308.611 96.9812 951.066 232 227 201
398.114 139.675 961.43 238 253 226
199.011 129.195 1071.76 253 247 230
423.213 67.3391 974.549 228 228 218
319.554 395.978 1008.93 85 129 137
-515.603 256.647 1111.23 173 154 152
291.058 -61.0161 821.368 85 87 87
207.298 256.678 1078.91 225 231 202
-285.819 210.632 1399.42 179 151 135
300.019 269.087 1051.07 235 228 197
190.563 14.1077 949.916 174 168 149
-306.421 359.211 1287.04 238 203 164
359.453 1.59311 884.443 220 227 213
-426.316 119.518 1018.83 201 179 161
325.13 83.1597 951.019 231 231 189
-579.812 140.056 1113.51 249 253 254
229.237 195.234 1038.83 129 108 80
-276.35 245.124 1060.75 178 144 114
-382.542 555.783 1328.33 107 146 131
123.595 -93.2956 1044.51 88 78 75
-267.947 90.6947 1218.77 149 140 126
-241.737 348.14 1215.9 143 144 136
230.683 -119.728 1054.59 220 184 168
-546.953 318.184 1317.11 85 73 76
-386.026 547.03 1311.13 205 235 222
362.37 57.362 919.571 216 236 231
-489.075 244.986 1120 174 162 146
-383.607 75.9805 1076.05 240 223 210
318.991 -66.549 884.007 44 55 56
-518.661 266.688 1210.58 161 147 144
400.997 167.721 998.422 220 245 223
203.12 42.2004 988.179 220 183 158
176.658 -53.6412 978.17 138 146 132
166.673 155.404 1068.96 182 177 182
271.814 -148.555 1056.09 50 48 40
227.919 134.017 980.063 192 161 143
449.777 218.765 1020.39 106 102 82
-271.753 211.683 1246.32 89 54 43
400.029 144.755 996.208 220 230 215
-288.58 273.502 1359.35 115 98 87
-263.303 219.009 1202.89 170 137 118
-425.595 115.029 1173.42 180 138 118
-261.567 1.1215 1171.04 71 67 51
359.263 50.9847 889.075 237 248 236
-360.37 139.645 1040.87 120 77 62
379.816 154.194 912.578 214 237 212
249.12 7.62916 906.939 181 176 181
-408.744 24.0074 1018.46 164 102 82
258.717 2.17314 923.46 173 156 146
-254.425 180.309 1203.05 197 165 148
-345.596 344.805 1217.57 153 134 116
344.363 355.008 1104.45 81 122 134
-571.406 201.612 1182.27 234 210 194
269.579 -79.8401 900.369 112 108 103
167.951 -56.4943 942.485 128 128 118
258.884 72.5395 978.006 238 219 195
259.545 -66.5356 918.476 156 171 162
138.351 61.1514 981.268 254 250 253
263.32 128.503 965.001 204 152 134
-493.25 238.211 1078.57 239 232 235
162.283 217.609 973.037 120 116 89
-268.808 98.7489 1279.96 146 149 141
216.495 7.30782 874.914 197 168 157
378.682 376.766 1089.97 115 141 134
223.68 167.421 929.353 247 234 223
-410.215 26.8504 989.497 110 83 71
-548.967 208.114 1145.47 252 248 222
-357.686 251.559 1148.95 181 155 150
-372.651 379.123 1176.1 187 191 181
180.183 239.358 1056.93 201 206 197
292.902 384.577 1219.89 120 150 152
-261.734 75.4115 1194.44 40 32 24
-597.816 202.726 1213.87 233 215 175
-530.202 83.9776 1055.08 254 254 241
-480.217 386.037 1195.9 79 75 65
-541.334 104.723 1163.37 252 254 254
413.68 413.786 1076.25 99 122 121
-360.165 245.542 1147.7 117 81 86
236.52 -113.029 1016.54 166 119 104
-1303.05 316.007 1898.45 92 96 87
155.622 209.175 1051.14 79 70 58
263.933 151.045 1101.07 242 217 207
-331.114 44.9658 1117.67 160 148 136
-252.68 238.73 1541.06 73 51 37
267.41 96.252 947.437 254 240 216
385.949 91.6297 894.318 242 249 234
-448.613 380.515 1206.85 188 204 171
278.674 70.0243 914.73 202 188 162
-527.733 216.456 1101.61 141 123 104
-367.143 126.213 1038.01 195 163 136
147.56 -48.1561 991.997 111 120 110
282.549 387.181 1143.43 102 146 146
-334.504 124.771 958.926 188 149 132
259.015 77.4685 978.47 157 146 119
216.123 15.3592 889.508 69 49 26
133.475 70.9753 981.201 127 74 77
-357.637 52.207 1008.16 255 254 212
300.962 -158.844 1153.65 192 167 156
-353.966 68.29 943.066 145 110 92
296.186 205.171 1068.41 183 151 133
316.45 436.343 1152.32 128 148 159
230.627 -68.1226 908.158 9 15 5
-311.007 -25.4323 1024.06 123 98 75
-345.302 128.946 1068.17 204 150 124
-350.007 118.192 1066.22 245 224 209
294.269 -71.1916 873.791 197 227 224
332.316 -135.47 1006.52 28 69 70
-482.323 272.918 1084.01 248 219 210
406.66 173.474 980.725 202 223 207
-233.283 331.864 1175.15 185 183 173
308.445 115.545 999.048 255 251 246
196.344 78.8816 954.627 201 180 156
238.37 196.989 1054.59 236 215 181
-501.622 107.124 1037.98 244 231 220
-312.017 81.3092 1240.46 140 130 120
-413.227 23.9544 1017.01 84 43 30
207.577 7.61054 986.252 170 155 140
296.624 101.626 950.47 177 175 165
-504.67 58.0895 1033.21 251 230 218
200.052 -0.26971 917.443 181 169 148
296.776 170.375 990.154 167 154 135
-333.416 144.975 1096.58 245 240 213
-490.111 270.448 1122.64 238 223 221
257.434 71.6803 949.914 233 214 194
-566.577 110.12 1062.63 225 220 209
182.352 124.379 955.424 250 254 255
-402.271 39.2026 1021.44 248 203 168
390.631 164.379 944.453 158 186 169
-325.181 191.035 999.839 199 191 190
-226.051 311.797 1065.02 174 167 156
-252.31 81.5335 1138.49 40 34 19
-354.722 223.414 1095.79 207 185 177
-340.216 355.031 1219.95 168 117 80
191.9 105.05 1009.24 217 194 161
328.984 259.288 1036.85 239 240 197
380.979 16.7998 903.027 184 195 160
-443.184 438.467 1277.47 216 212 213
-347.453 -6.5281 1131.57 125 109 98
213.16 -108.839 1035.33 108 44 23
280.012 44.579 909.124 183 163 149
295.205 114.278 967.46 203 193 190
176.959 239.827 1047.45 100 106 108
158.558 227.897 1053.01 88 78 64
161.187 96.203 986.389 218 173 158
-373.148 57.5208 1056.08 193 180 142
241.302 -1.64664 867.007 152 130 101
-249.152 196.585 1267.2 120 80 56
-583.691 231.476 1222.41 249 240 217
-256.323 93.4777 1197.1 136 133 121
-286.493 17.6179 1206.73 127 104 87
-470.169 251.394 1077.13 175 162 161
-555.4 311.845 1241.22 143 142 143
229.093 211.691 1012.82 139 110 66
203.015 135.888 977.393 233 217 215
156.235 192.952 1069.66 73 52 47
379.624 107.843 957.209 216 231 229
128.534 51.6009 944.619 183 182 182
178.012 125.533 973.589 251 249 244
219.373 208.181 984.707 211 190 150
213.57 -117.213 1053.31 105 41 23
373.642 261.346 1004.15 177 178 156
-344.858 -28.0807 1163.29 122 99 84
298.023 273.677 1074.23 244 242 214
-239.886 180.716 1296.83 75 49 35
388.062 21.3138 903.82 207 210 178
