90.3729 -56.0908 1267.01 249 244 222
30.6714 -10.3951 1172.79 255 238 227
-0.479159 384.367 1194.42 252 250 248
41.8528 454.386 1235.94 22 28 29
-82.7788 100.449 1064.2 224 202 193
328.326 -106.862 1685.53 254 251 236
-35.5919 66.83 1092.3 252 231 198
339.608 202.05 1747.26 31 33 30
-35.4904 93.4038 1073.4 126 55 27
327.705 393.212 1992.97 40 56 59
1.11333 368.956 1096.38 242 221 197
11.1628 451.598 1147.81 209 211 206
-35.4955 56.2489 1071.09 255 222 191
-17.4591 283.697 1134.34 51 42 39
87.7728 429.242 1269.63 67 66 67
28.2626 421.384 1178.21 80 63 49
-24.9122 187.516 1059.17 81 66 48
29.2494 397.059 1228.81 246 236 232
-15.1791 476.304 1195.66 183 177 167
10.6786 428.967 1175.14 224 211 204
-95.7056 84.4173 1060.53 198 180 172
-40.795 170.687 1076.89 89 54 45
334.151 -35.7644 1774.47 233 211 197
23.8501 -20.9852 1121.93 205 195 185
87.1798 -34.9482 1233.35 172 153 131
-148.446 51.5473 1139.67 192 162 150
-27.5423 69.6229 1073.48 59 46 20
68.9114 -1.54626 1233.46 166 76 34
317.057 -0.708288 1701.26 228 222 219
68.4429 -6.4542 1329.66 145 92 70
4.77444 433.085 1125.58 105 91 71
61.6315 197.862 1216.42 106 87 72
312.951 -171.988 1671.89 155 150 146
1.90263 425.299 1173.07 71 49 34
-35.4968 45.6553 1070.42 255 242 224
29.0743 359.667 1225.62 142 137 125
367.458 44.85 1936.01 143 139 145
-3.49113 219.092 1133.51 255 241 228
301.973 -75.7936 1598.76 147 120 116
-27.6606 181.535 1011.78 250 220 197
59.3388 454.892 1266.98 164 170 171
13.2055 -0.36074 1098.28 255 251 229
371.908 321.934 2122.45 110 128 146
-50.9764 175.987 1053.12 231 191 174
2.3285 304.653 1139.48 168 161 162
273.84 39.1628 1616.88 153 138 126
298.432 -30.0168 1692.2 247 210 188
26.3276 431.215 1230.95 135 135 136
-22.2136 85.6419 1075.51 155 114 92
410.817 -253.132 1877.2 205 224 220
286.058 -164.435 1578.96 27 27 23
28.0195 329.019 1145.8 255 245 228
-138.231 466.528 1251.46 141 136 133
319.586 -38.3785 1693.3 135 88 82
200.906 247.604 1651.75 151 167 179
-6.55536 352.816 1118.25 191 179 182
301.122 418.091 1883.85 118 130 127
-22.1865 115.02 1077.32 243 199 201
10.1554 266.411 1162.54 150 116 87
70.1938 166.21 1308.36 180 159 138
17.914 348.168 1078.25 118 103 101
22.9922 265.944 1192.4 255 244 233
337.934 -28.7233 1895.47 239 228 205
-27.5959 84.9343 1050.88 253 200 181
23.3164 446.611 1231.51 230 217 207
54.9052 121.816 1206.93 147 101 76
-92.0362 74.8796 943.938 175 157 150
239.513 286.19 1845.87 50 73 65
276.541 324.525 1744.52 98 129 126
207.983 -175.44 1646.54 84 83 84
53.14 -46.7809 1226.14 106 91 77
-2.51304 149.786 1117.95 143 101 82
61.7922 160.332 1239.11 175 151 137
73.6152 192.954 1252.07 134 124 118
314.372 269.689 1855.45 137 167 175
346.493 279.987 1975.69 88 119 140
76.8211 -51.2688 1154.99 154 134 113
-21.6053 180.842 1148.54 226 201 183
347.847 3.76852 1797.48 158 143 143
10.2365 289.892 1164.52 140 132 131
-269.149 41.2401 1158.63 51 32 17
31.8578 421.101 1250.46 216 199 194
222.036 178.751 1819.24 139 147 123
-25.9456 189.955 1127.2 157 145 121
119.347 110.026 1456.23 182 160 144
58.2109 145.685 1171.55 239 226 204
-42.8437 33.1712 1137.38 255 252 229
76.9943 192.621 1312.2 252 250 240
46.8366 338.846 1243.37 227 225 205
97.8996 10.481 1204.75 70 63 52
54.9733 109.554 1187.31 247 227 202
329.587 34.3353 1671.26 253 248 243
-24.7052 175.692 1099.15 141 97 74
377.861 54.5077 1939.87 87 60 53
-51.3696 127.65 1072.28 132 79 65
333.362 270.146 1858.62 222 247 253
54.6077 164.276 1245.99 255 247 236
358.466 24.0121 1815.9 231 226 225
384.665 -12.4893 1927.18 158 151 140
25.6032 468.7 1283.4 150 131 116
-0.601725 122.573 1040.42 157 126 129
26.5828 98.0316 1207.88 253 249 238
-55.1069 -51.2268 1260.39 65 80 84
335.83 -49.118 1782.52 162 126 116
23.2803 385.014 1165.09 163 149 139
-37.2659 271.232 1165.27 180 166 157
214.279 194.464 1702.5 30 35 29
-32.8255 136.16 1076.49 133 110 91
-100.781 58.164 1057.9 160 121 114
304.439 -55.98 1791.66 166 142 127
-6.36669 185.032 1130.85 248 221 195
110.804 100.23 1373.19 243 223 209
3.96306 138.507 1149.73 188 141 139
-3.3895 273.062 1136.62 184 173 143
225.55 -29.7953 1680.93 71 53 42
32.2957 365.478 1200.15 247 238 223
-3.63465 437.331 1252.83 158 150 138
-0.894747 398.519 1122.35 67 50 41
-37.9862 242.708 1060.44 227 204 204
346.348 -21.7797 1700.55 248 233 213
49.5029 364.864 1286.04 238 232 211
29.1239 314.176 1196.61 180 162 159
67.124 164.658 1248.44 254 246 230
-32.8272 130.802 1076.18 177 106 70
52.1429 133.159 1188.65 182 146 123
226.492 13.4383 1289.11 46 28 23
1.63156 291.365 1115.59 168 151 154
34.1942 106.205 1183.13 190 160 158
36.6612 323.327 1254.45 136 111 87
280.279 -45.6565 1512.16 98 79 74
446.488 114.109 1935.55 255 255 240
-255.276 18.448 1160.83 120 101 85
-192.876 -31.0283 1266.42 83 73 63
377.064 38.3859 1859.42 133 117 108
73.9838 228.695 1314.9 165 148 126
-80.2469 375.074 1231.96 34 12 7
92.3175 456.78 1336 61 57 56
390.453 26.118 1808.44 180 158 156
379.155 101.933 1732.01 252 250 223
48.1048 120.708 1240.96 199 145 127
315.58 298.229 1861.82 138 160 154
43.2507 110.237 1164.29 245 216 202
5.73812 447.545 1255.4 214 205 200
6.56447 99.9479 1100.94 255 224 217
490.987 -12.0988 2393.11 251 233 221
70.0349 146.656 1306.43 189 148 122
-59.2414 98.2437 1068.94 139 99 80
208.494 -209.112 1723.73 223 198 187
34.3086 380.23 1238.29 192 184 180
-143.741 235.673 1094.82 123 56 31
-11.549 83.1454 1077.4 162 169 170
346.729 251.504 1856.57 145 170 172
49.0514 145.818 1208.48 255 239 218
91.3068 68.386 1259.55 228 177 154
348.088 -44.8051 1699.1 237 213 194
69.4386 168.418 1220.17 177 158 139
-43.443 141.195 1074.67 216 201 184
16.5497 117.571 1180.59 253 236 220
4.02221 156.626 1200.91 154 117 95
-36.4391 -48.2571 1264.75 128 148 158
41.2925 111.332 1255.95 255 249 248
-41.1147 178.934 1111.06 190 150 133
393.707 -66.8563 1784.85 255 255 221
18.1734 55.7483 1261.3 255 241 232
39.7238 48.0915 1154.42 195 159 128
10.4415 351.763 1169.52 172 163 165
105.114 68.4584 1318.01 160 135 119
23.1126 301.873 1194.65 180 155 140
49.7479 53.0129 1267.55 199 155 135
-2.32005 51.2681 1025.87 255 251 230
56.1864 103.097 1163.96 207 166 143
-0.865328 72.642 1078.73 197 176 173
-0.901457 56.6101 1077.69 163 155 146
126.832 271.56 1294.47 138 123 109
-27.7201 152.888 996.191 192 190 193
-268.897 24.1098 1157.39 129 110 93
79.8702 584.342 1344.56 178 176 168
-4.24253 -1.75512 1166.91 101 81 65
-203.416 -20.4868 1286.72 96 72 64
-125.243 414.758 1223.54 131 95 68
-3.13159 -43.5378 1217.67 155 149 168
37.6481 252.035 1217.35 162 144 139
2.24874 -48.2027 1312.29 141 151 159
-99.2663 50.826 1016.18 125 96 85
-21.377 -20.7523 1190.76 160 160 155
