37.6037 318.416 898.809 245 241 240
-406.082 121.852 1450.01 240 232 233
-280.043 310.161 1257.75 24 19 16
-340.821 127.378 1324.29 233 231 234
17.4288 317.203 895.442 230 223 211
-439.844 81.3585 1430.4 237 213 202
-73.3913 158.788 775.811 205 201 186
-400.432 83.022 1292.75 26 7 6
8.89783 278.934 902.878 216 208 206
-103.547 138.553 770.281 236 243 238
-107.288 27.4367 1075.68 239 244 240
-45.6486 223.708 833.48 209 206 198
-463.496 280.931 1617.94 255 247 231
-461.43 500.627 1493.65 84 83 81
-105.476 36.4251 1032.49 255 223 216
-8.56285 14.3935 1094.98 255 254 246
-351.666 120.424 1392.55 31 31 16
-452.21 0.461625 1412.65 216 201 189
26.5118 22.4653 977.181 243 255 255
-174.344 126.437 864.21 251 249 233
17.2804 248.123 872.749 182 161 144
49.7759 292.354 965.062 201 182 170
-550.85 463.462 1629.32 77 83 84
-496.485 36.1142 1325.53 205 188 173
-404.287 257.012 1471.39 49 29 21
-328.033 88.5408 1325.55 224 188 186
-64.4588 214.875 866.809 163 158 158
-410.366 241.709 1466.79 220 214 206
115.512 22.7966 990.819 56 52 44
-252.2 111.069 946.202 214 203 184
-25.251 37.9374 1007.19 247 242 229
-18.3794 33.55 1064.76 96 100 94
-444.864 127.592 1435.62 193 182 176
-70.1451 200.279 828.644 193 201 199
-155.628 82.3958 1091.92 141 130 123
-485.162 40.5797 1262.36 198 173 150
-508.256 34.2441 1317.41 216 195 178
-475.782 15.0971 1485.44 233 221 216
-472.015 18.1642 1315.94 223 201 191
-228.791 284.427 1058.59 191 188 184
-115.143 32.6694 1074.23 101 118 123
-148.387 75.9022 1007.01 250 247 234
-105.592 151.284 802.475 185 185 173
-281.64 124.558 1018.21 231 228 211
36.5987 259.185 915.425 233 221 207
-186.554 102.649 860.904 187 176 173
-560.101 97.0269 1511.75 171 173 163
-111.63 28.7694 1029.78 250 255 251
-393.333 406.872 1509.23 241 248 240
11.9941 14.8344 1035.16 208 215 208
-329.275 113.245 1477.27 38 43 27
-115.913 104.836 845.568 225 246 244
-445.528 302.271 1625.84 65 43 39
-66.4318 91.4325 915.494 238 235 234
-449.311 302.941 1391.93 127 133 129
47.3298 265.09 908.656 230 209 202
-387.807 235.176 1406.55 205 184 170
-20.4308 28.7558 991.223 124 128 123
-407.486 270.749 1476.82 249 234 225
-250.867 88.2161 1153.07 236 234 230
-145.195 116.699 959.61 234 239 235
-533.243 124.985 1323.41 247 235 227
93.1267 354.19 987.008 171 156 151
-361.704 31.0355 1377.04 162 191 186
-246.055 344.266 1198.44 183 181 183
-274.119 271.629 1190.72 254 248 243
-496.783 80.4458 1331.07 189 178 166
-123.031 46.4065 1029.21 253 244 233
-501.696 217.881 1354.85 104 86 67
-343.96 40.2221 1460.63 83 82 66
68.2254 65.6654 915.654 215 200 174
-449.165 78.4515 1508.46 249 218 198
-138.084 106.117 881.82 65 73 69
-27.0571 293.408 838.169 212 181 169
-27.7168 27.1639 1019.81 94 90 82
-137.894 122.987 814.32 241 251 250
-55.5766 266.199 789.433 52 51 42
159.435 238.494 1095.02 152 153 149
141.899 207.929 1001.16 38 26 12
-390.886 61.0498 1446.41 148 128 115
-141.679 64.1278 1049.33 47 40 50
-176.06 113.913 874.521 223 218 207
-351.503 62.8689 1530.97 47 47 45
-105.37 103.242 894.323 45 63 64
-495.813 17.5864 1397.08 167 145 134
146.39 156.314 971.465 88 49 45
-217.39 264.302 997.499 254 251 239
-520.893 128.991 1472.46 167 168 164
145.335 225.151 1028.44 38 40 38
-110.24 103.856 863.296 61 84 90
-442.483 409.642 1409.83 253 250 243
-491.615 87.3158 1676.24 205 176 158
-441.981 305.977 1551.94 211 186 173
-152.574 126.83 839.236 224 243 243
-119.882 99.8392 874.181 188 231 229
-562.855 115.431 1383.36 247 241 204
-53.311 325.86 893.686 98 93 85
-358.578 107.187 1632.01 94 79 69
-511.69 353.796 1605.79 55 62 63
-147.737 138.862 812.899 236 237 224
-468.566 322.375 1387.73 250 240 224
-93.7159 12.1231 1117.8 215 209 202
-516.096 5.82218 1457.93 26 7 1
-35.3799 162.818 833.395 44 52 53
-55.7129 299.402 862.154 45 43 37
-150.225 93.9097 899.389 220 229 223
-36.5283 230.242 853.554 24 12 7
126.933 233.083 962.558 183 168 156
-69.0603 233.618 785.742 136 128 114
117.24 295.709 1093.29 19 18 17
-15.2637 329.946 860.853 168 155 150
-318.716 106.992 1442.72 126 118 108
-231.104 356.302 1180.07 193 191 189
-139.575 81.026 1041.6 88 78 73
113.119 357.811 990.207 49 21 23
-70.5173 252.146 837.478 75 70 58
-95.5891 49.0642 1058.49 212 203 198
-486.172 124.81 1211.34 155 122 108
-387.246 0.909403 1571.77 65 65 52
-159.766 107.502 866.569 28 67 57
-198.061 112.872 937.205 141 138 139
-285.949 297.397 1256.22 141 127 106
-491.105 327.44 1447.81 159 133 111
-563.379 41.5736 1297.4 161 146 121
-46.0271 20.7008 1066.78 255 229 217
-27.5715 4.97303 1069.29 190 157 143
84.3076 345.961 995.162 155 171 165
-383.587 389.665 1431.94 141 148 136
43.5184 249.293 876.851 221 206 194
-456.954 342.313 1471.62 239 233 236
-173.788 133.909 908.08 125 153 142
-546.756 579.381 1766.67 206 205 201
-158.002 65.9787 1004.37 252 245 255
-509.242 111.027 1406.23 148 142 130
-224.06 125.483 917.908 98 96 72
-467.871 304.032 1453.56 195 193 187
-519.441 107.68 1325.78 76 73 52
-154.949 340.152 1000.89 255 250 240
-39.4796 230.24 834.676 104 102 100
-0.408795 298.35 891.678 164 131 116
-496.766 312.092 1443.2 178 155 142
-201.58 117.016 889.33 147 157 158
-371.823 40.0264 1520.45 53 51 61
-592.67 36.7632 1356.46 238 233 214
-129.816 101.319 916.057 79 130 125
-103.321 48.9684 1056.85 226 204 186
134.702 201.46 987.753 167 136 124
-488.285 348.782 1540.4 121 126 126
-71.8838 290.39 941.015 140 137 124
-56.9518 49.4345 900.635 248 226 209
-547.66 160.969 1397.72 240 211 190
-396.84 73.3328 1515.3 167 144 128
-348.994 48.5473 1442.6 131 126 126
165.687 358.499 1055.5 181 162 149
-506.546 118.14 1408.53 68 71 62
-71.7972 279.464 912.754 56 52 42
-480.078 369.682 1458.41 178 140 120
-378.433 354.385 1147 185 187 183
-203.713 121.481 889.017 63 67 63
-259.758 338.829 1248.73 254 254 254
-507.571 292.857 1499.49 175 157 136
-69.8198 2.54481 1105.64 217 216 213
-384.796 87.6012 1536.08 196 139 133
96.6472 262.873 995.683 179 171 166
-194.354 113.593 830.442 180 184 172
-424.909 281.927 1467.09 166 131 120
-73.7295 53.8449 1100.99 140 98 79
-43.4474 153.554 821.99 45 52 47
-155.647 75.8189 1005.39 244 219 198
-128.878 340.908 951.84 251 243 238
-355.108 76.1375 1462.16 96 53 46
-450.537 294.958 1379.07 27 24 22
71.3804 265.894 955.032 26 22 10
-135.082 139.311 823.958 218 230 215
135.113 237.224 941.384 124 124 119
-180.174 104.531 905.938 85 94 80
-59.1308 15.4055 1063.87 81 62 52
-18.7391 174.364 844.313 144 140 139
-155.649 318.888 977.43 255 251 245
-101.097 130.508 725.46 229 236 229
-518.766 248.188 1424.2 171 140 122
-147.906 158.808 850.626 244 248 240
153.494 261.331 1031.32 143 143 142
-552.83 146.949 1393.07 215 178 159
188.181 311.715 1038.45 170 124 115
-70.4672 26.5231 1208.03 223 194 171
-205.844 125.88 888.709 117 112 100
-122.041 353.531 954.145 142 143 129
-450.528 74.2905 1116.58 185 158 133
-365.643 355.349 1294.43 166 157 150
-457.804 87.729 1103.39 170 142 112
-53.8309 160.098 830.262 63 78 71
-444.93 -14.1388 1493.12 173 150 134
-253.812 188.951 1029.09 254 254 244
-594.497 162.39 1504.2 180 147 128
-461.391 143.648 1172.43 237 207 190
-86.8584 66.8228 996.589 146 104 92
-478.969 289.313 1377.58 237 223 199
-76.4641 57.0595 935.226 250 225 207
117.527 213.634 971.176 116 101 85
-45.5051 318.918 827.748 217 218 204
33.2294 52.5671 828.919 166 212 216
-534.407 213.31 1496.58 56 63 47
-21.4091 428.712 885.309 142 140 136
-10.7854 326.14 870.217 199 181 170
-221.831 116.37 918.078 139 143 126
117.159 223.219 960.941 53 28 12
-17.2191 62.9667 957.068 67 134 125
-46.9999 72.0857 970.141 53 93 83
-34.7891 53.7099 919.594 142 170 175
-76.3427 57.5562 982.334 170 146 132
-488.495 192.333 1350.38 91 82 60
-6.73254 317.8 861.844 164 156 149
-72.7333 49.4002 1011.88 188 148 131
-377.258 72.49 1536.27 159 141 140
123.441 224.648 887.532 63 62 58
-402.691 102.393 1531.73 73 57 49
-130.649 353.14 969.169 194 185 177
-54.7679 156.005 794.252 176 172 165
55.1142 293.868 932.242 183 134 139
-516.672 173.703 1336.28 178 153 134
-230.206 121.698 969.735 37 42 29
-237.645 116.718 1005.91 86 91 76
-371.148 362.748 1309.55 45 47 42
-469.961 231.268 1291.19 255 248 231
-60.0086 168.522 803.049 81 79 78
-141.658 117.04 850.861 160 182 177
-178.23 202.224 868.415 255 255 243
124.752 208.58 986.593 46 34 25
-65.9248 178.127 802.331 39 42 34
-90.9245 204.398 833.045 99 95 85
56.226 14.1011 1059.52 109 103 96
100.175 263.804 985.166 47 40 37
-42.3803 355.219 904.303 179 179 169
-230.424 373.218 1220.26 163 158 154
-94.1376 59.5004 994.89 159 135 123
-37.3304 346.112 830.041 245 247 242
-475.321 462.727 1478.5 175 179 173
-189.099 86.6415 959.995 203 165 131
-97.2458 209.93 797.932 255 254 246
204.594 341.576 1096.99 161 135 124
-107.962 132.961 776.431 133 158 153
-26.7957 421.979 891.832 247 247 242
-197.636 233.742 1019.76 243 225 206
27.6033 50.4875 781 74 130 134
-440.581 452.678 1397.46 109 111 103
-47.2123 361.727 865.18 248 255 247
-52.1605 43.1546 986.203 106 81 50
-589.114 591.037 1871.99 118 117 114
-132.276 112.829 842.723 132 157 148
-651.222 14.1741 1401.8 209 203 189
124.457 362.422 1041.68 210 155 152
