535.014 -201.39 1259.02 228 229 224
-6.34867 397.335 1193.14 9 10 7
11.0427 372.226 1143.64 254 251 246
2.66841 -22.7449 1023.89 234 212 205
-48.1809 351.093 1130.53 254 251 249
-0.320365 320.161 1091.58 51 38 34
-3.26233 -17.1331 991.676 45 31 24
10.0882 -22.0474 1052.07 255 244 232
15.3153 -27.2755 1052.73 77 54 39
643.514 -144.682 1389.25 250 249 242
815.9 304.15 1630.78 48 66 67
50.0958 93.4723 1064.4 237 205 188
559.838 -33.6454 1285.48 117 111 112
26.3053 37.8563 1171.5 44 0 0
178.26 381.132 1284.94 46 41 34
64.4342 143.925 1141.54 116 81 53
119.14 128.078 1149.84 91 59 43
53.794 170.303 1094.67 255 241 230
632.016 4.92839 1419.51 240 246 245
-11.2716 240.949 1086.13 246 231 225
5.12703 325.931 1092.86 255 251 242
-97.5317 57.6383 956.262 229 220 215
735.473 233.277 1614.81 229 255 255
137.07 186.424 1196.36 60 32 17
-79.487 55.2561 997.621 68 55 44
53.5929 156.169 1128.51 99 62 53
87.0664 180.723 1169.89 126 107 94
8.13771 346.361 1142.01 207 198 187
55.5185 114.647 1066.19 238 228 204
5.32386 360.441 1142.03 198 192 187
-51.4163 281.938 1079.79 92 99 90
-62.4921 208.609 1092.49 238 205 177
1.73735 315.201 1116.7 239 227 212
600.611 -11.4867 1290.66 254 250 245
63.497 130.814 1113.8 243 218 190
-1.42649 425.138 1280.49 205 208 198
48.255 159.283 1093.04 255 247 233
35.2351 337.185 1198.76 246 242 220
50.126 101.385 1064.73 101 62 38
45.9722 -15.6062 978.783 131 86 74
-94.1732 70.9806 977.284 98 65 62
28.0032 310.462 1144.35 247 255 238
82.8572 175.985 1186.47 236 228 213
56.3291 194.224 1164.9 111 102 90
571.587 -137.048 1270.22 254 250 249
-31.3936 372.162 1134.93 128 104 84
14.5733 437.814 1199.24 49 51 49
662.343 -55.1607 1345.4 236 230 218
652.967 -59.176 1401.37 255 250 241
-51.4131 273.851 1079.45 122 121 125
51.2483 112.106 1079.48 119 89 68
72.9958 159.946 1097.43 217 201 182
679.225 -141.437 1391.79 220 219 195
698.246 -12.5463 1418.39 230 206 208
44.9229 138.16 1065.24 134 104 81
40.4586 117.19 1077.69 131 96 78
16.0106 -34.2868 1068.93 192 177 175
-17.6109 -12.5737 1020.56 204 182 162
-30.0498 283.17 1084.22 252 248 238
122.978 420.955 1248.59 116 120 142
673.97 -14.2279 1408.55 209 190 179
24.1177 33.5584 1126.22 255 247 226
-39.8054 354.56 1132.45 123 110 102
-80.3439 152.712 1041.99 111 63 59
585.358 -143.999 1319.99 209 203 198
36.891 124.784 1063.33 255 239 217
549.843 -36.786 1284.51 203 192 192
728.462 -16.4738 1459.67 113 94 82
692.197 -288.503 1371.04 52 71 68
-3.04365 314.547 1090.84 128 108 98
629.928 -19.5189 1415.09 221 211 215
-89.1185 161.802 1085.26 142 112 113
68.2207 -22.1471 1061.96 101 31 4
-60.172 70.8829 1104.31 96 73 59
73.3574 123.183 1131.3 150 87 56
845.229 -53.1517 1479.7 233 243 234
-8.99375 242.941 1065.77 251 226 219
-14.0008 -14.7573 1092.45 255 246 233
-21.3466 377.46 1164.04 154 141 125
887.188 314.016 1776.66 86 103 113
-95.5958 152.274 1038.84 237 233 237
-25.7322 429.394 1138.12 204 197 176
-14.815 361.806 1116.19 198 191 183
104.868 146.316 1137.35 163 144 122
-91.0215 -82.0143 1171.94 20 21 14
64.6622 148.858 1095.32 125 96 81
-105.049 74.6081 977.437 255 184 174
64.0764 90.1794 1137.64 143 86 65
630.238 -74.9374 1341.17 227 213 190
-0.391422 409.723 1194.94 169 166 165
-3.31012 294.415 1137.35 141 122 117
803.826 -153.591 1458.85 207 208 183
607.985 -15.5766 1375.46 183 159 153
25.1961 89.361 1018.09 251 234 205
-60.2652 65.0362 1014.64 140 126 122
-113.107 87.7814 1032.9 255 216 197
26.0924 72.4408 1083.65 137 129 127
-105.418 76.1561 966.649 164 83 56
-20.8292 -10.5768 952.089 237 211 197
37.8976 306.009 1098.37 160 162 137
639.368 -144.348 1323.33 213 193 175
-62.5176 260.077 1094.04 147 141 131
674.97 -52.3031 1403.69 249 237 237
-31.4351 18.2221 988.361 176 124 93
-28.8812 18.3171 1062.32 255 237 208
5.52607 205.413 1028.97 255 247 252
-77.7477 208.416 1070.98 250 246 231
537.657 -249.656 1370.7 208 177 168
70.1034 148.261 1052.97 130 90 70
672.803 288.811 1538.76 148 194 208
-39.0519 294.333 1039.12 181 155 160
-6.38433 418.668 1121.03 243 245 240
-48.6888 344.235 1163.5 186 179 178
-120.58 37.6952 988.753 209 192 168
-59.147 49.9532 1066.05 141 137 125
-64.511 139.784 1070.21 126 100 85
-75.1851 74.7956 1011.99 137 151 140
-25.9448 18.338 1140.03 185 125 92
187.798 161.381 1240.93 255 244 220
5.41436 406.079 1143.75 121 101 88
778.706 -46.5606 1563.74 215 190 182
664.294 -282.95 1305.86 136 161 163
633.073 161.741 1425.2 59 57 54
702.667 220.067 1591.36 78 122 129
-11.2296 270.658 1087.46 143 123 116
710.72 -64.7215 1408.82 171 143 139
569.713 48.8397 1285.89 187 182 157
564.431 -277.263 1435.36 181 152 146
739.655 -20.1004 1460.33 220 197 182
597.493 -111.795 1324.81 234 232 234
543.551 -115.099 1236.98 192 179 171
804.245 299.354 1706.15 124 153 152
134.666 199.69 1179.08 239 234 214
131.157 189.411 1143.88 131 97 69
611.658 -103.612 1368.98 148 131 119
-115.684 113.295 1033.29 67 33 24
-2.02458 211.556 987.14 232 172 164
0.622266 191.904 955.963 176 173 165
29.1827 224.542 1065.11 170 159 156
-106.294 101.56 993.85 226 188 174
691.974 -59.9625 1379.77 176 164 157
693.658 -41.9781 1406.19 238 218 203
-43.0218 103.155 1159.75 185 119 108
659.824 31.5649 1359.94 251 247 213
163.615 89.1688 1178.33 255 248 228
-57.7729 45.0223 1015.24 255 250 234
-77.0537 62.7017 998.363 240 214 204
-30.1626 98.2453 1008.52 247 216 197
112.934 22.7209 1135.12 254 246 231
719.666 265.007 1533.28 123 150 151
-64.4963 129.174 1069.63 143 120 114
-32.6386 41.4635 989.737 255 237 222
-32.7142 318.2 1085.03 148 118 117
14.4097 282.462 1123.07 228 178 163
623.419 -277.916 1369.21 82 52 45
701.981 168.617 1889.85 90 94 83
3.08882 235.347 1072.71 130 87 79
83.4413 -2.44478 1081.78 134 67 32
655.793 283.238 1539.14 61 104 127
40.443 251.511 1096.49 189 179 180
546.901 108.716 1753.16 98 92 80
664.59 -247.629 1360.14 151 156 145
2.64989 445.921 1197.08 11 11 12
688.605 -47.752 1478.13 218 210 213
-4.662 109.387 1031.04 196 172 149
16.5157 284.17 1140.81 121 89 77
-46.6796 73.5189 1027.89 254 251 237
146.215 147.349 1178.6 255 246 224
-9.77167 111.816 1030.35 255 237 214
778.887 316.202 1706.13 122 165 170
-7.98106 358.428 1046.86 180 175 173
597.908 -270.909 1438.74 103 58 66
-117.105 45.0235 963.717 211 118 96
766.901 337.619 1707.56 116 144 146
-22.6224 18.194 1217.61 255 226 196
-81.3439 177.289 986.541 249 237 217
129.938 80.8277 1088.18 187 125 97
-65.2127 276.238 1093.91 167 159 164
2.32554 283.401 1137.94 254 238 235
43.0003 79.5472 1020.76 247 216 199
-22.9167 111.924 977.041 161 123 108
827.262 -174.142 1465 226 237 224
811.009 76.1771 1584.09 245 247 218
7.35935 206.016 1044.74 250 239 234
759.947 233.426 1615.75 128 164 155
-67.2795 243.583 1074.83 125 128 112
65.2187 301.725 1132.39 239 235 212
-116.94 56.7623 1003.26 203 133 108
-65.2445 57.4087 1013.51 254 238 233
872.335 -209.409 1538.76 238 245 219
144.453 62.9039 1078.31 242 224 206
-112.546 50.7764 938.859 111 27 8
-61.9923 238.475 1075.71 163 153 114
679.692 -86.794 1399.37 249 233 224
-31.3805 397.694 1135.88 234 216 201
-9.98239 238.988 1015.91 241 236 230
-57.1342 257.622 1095.08 196 194 168
-67.1988 182.244 1071.9 233 192 158
75.4072 203.526 1168.74 183 154 142
-56.3097 115.452 1008 155 148 144
-5.44936 260.254 1105.48 255 243 243
-40.0769 250.004 1010.49 241 232 235
24.5277 108.008 1105.72 236 221 179
3.01963 107.036 1032.18 226 201 168
-103.569 128.165 1061.29 255 249 242
454.839 -236.174 1362.12 167 164 151
660.427 -179.794 1319.83 180 172 164
-51.7378 236.148 1095.57 150 77 61
-41.6923 448.335 1187.68 119 116 99
809.647 -101.679 1643.29 168 152 139
101.399 482.691 1127.67 61 96 81
20.1833 80.8189 947.776 210 153 149
729.576 7.16152 1497.45 241 219 196
-40.9478 -28.1175 1086.55 80 61 46
519.253 -235.146 1437.89 79 84 77
-103.666 157.14 1062.81 132 125 123
934.932 -22.3892 1817.66 129 126 100
599.675 208.934 1523.54 37 56 54
-74.6631 240.933 1030.07 116 101 100
-45.2886 27.4462 1112.43 237 164 138
-98.9433 102.191 976.627 97 41 35
-57.1077 210.102 992.529 150 130 96
-39.7993 394.224 1133.98 139 119 109
115.893 39.5188 1136.22 221 201 184
587.463 169.005 1269.72 92 121 126
80.4308 -66.4201 1078.91 98 75 78
7.88848 241.143 1136.84 229 178 168
681.897 52.2634 1417.22 134 141 116
30.9665 51.0981 1030.89 181 178 174
126.751 559.148 1304.54 183 230 215
768.088 -165.218 1361.02 223 231 214
791.552 -108.031 1530.21 196 163 150
-64.2452 53.3127 984.461 237 219 209
-51.4023 249.684 1078.42 141 83 54
-67.8954 270.662 1093.2 205 203 205
-47.556 194.8 1008 187 129 115
-14.1836 82.4596 1076.86 255 255 249
164.618 59.7242 1230.74 224 201 178
719.864 205.81 1530.02 132 173 183
