-4.77696 339.462 891.708 249 246 237
-24.6139 278.238 896.757 255 238 231
-207.173 118.89 873.502 223 221 215
4.42518 295.504 902.049 255 247 240
78.6955 37.892 890.574 22 18 15
-90.9686 235.82 805.911 230 224 224
-414.075 78.2882 1439.38 242 238 230
71.3524 39.5767 903.579 240 252 244
-25.5705 350.226 919.934 223 221 223
-116.587 171.49 751.34 177 171 162
79.4036 40.6577 953.973 50 50 40
-34.4028 285.41 855.419 206 200 191
-485.783 -13.9422 1435.93 213 192 176
-27.7618 20.6502 1006 255 255 247
8.90455 286.771 902.584 241 238 225
-477.854 3.39198 1328.27 215 198 182
-50.0622 47.7861 1002.91 250 252 248
-353.233 91.9087 1548.08 255 247 246
-123.008 38.9271 1028.81 253 243 246
4.21534 36.407 995.865 235 255 254
-404.173 4.50656 1673.46 228 247 247
-462.875 -9.74258 1332.61 200 176 154
-153.128 157.236 777.138 245 252 245
-439.978 101.171 1515.49 225 218 216
-17.281 20.7314 954.988 243 253 245
-436.17 -15.6457 1274.56 237 218 204
-108.966 208.105 777.031 174 183 176
-531.895 12.7616 1451.45 228 213 187
-125.605 28.657 1119.13 152 168 159
115.589 272.415 973.892 173 169 161
-511.331 7.26508 1427.62 202 188 158
-485.736 50.3487 1356.58 168 157 140
-286.714 112.569 975.137 223 217 200
-76.281 21.3208 980.496 58 7 0
119.877 311.669 1027.67 151 147 149
57.6811 266.954 899.36 42 39 37
114.966 240.55 986.147 206 212 207
-4.5601 279.315 900.178 242 238 225
-494.745 9.3457 1254.4 211 200 187
-13.3674 24.2011 1049.94 61 65 60
88.3339 239.657 967.97 64 48 28
-161.451 80.4877 965.726 70 90 88
-296.776 122.88 990.152 57 53 43
41.3038 350.178 931.538 194 204 208
-489.323 3.38031 1323.54 184 162 142
-143.605 162.821 745.952 238 235 220
73.1147 223.97 870.405 199 166 147
88.4064 249.354 968.506 90 52 33
-139.397 110.369 857.835 57 86 86
-218.206 253.352 911.301 101 101 98
-74.2516 318.983 849.373 250 237 217
-278.297 273.497 1109.97 61 55 49
-483.065 77.5692 1394.73 154 154 149
-479.941 -18.6131 1385.19 193 170 148
93.1443 230.156 968.187 43 23 21
50.6933 360.122 933.442 197 188 187
-177.421 83.7249 1018.57 41 34 37
-8.15354 26.8181 1051.02 200 208 202
98.2913 261.917 970.705 213 194 183
97.4502 244.558 874.746 159 157 151
-85.0697 236.178 807.02 82 70 74
-485.096 185.567 1354.54 109 87 67
-117.771 102.915 874.67 209 200 200
-238.585 286.543 1016.4 232 232 227
109.978 240.365 985.385 50 60 60
93.9723 205.689 888.756 163 145 131
155.864 328.752 1002.32 207 158 146
-189.128 68.6398 997.256 253 248 246
-497.139 254.899 1518.81 193 170 162
-65.1426 -4.51999 1130.61 44 40 30
-509.484 85.8222 1476.12 11 6 1
-61.8722 52.9761 984.797 50 63 50
-10.7857 298.539 921.732 86 84 81
-128.792 25.5086 1049.85 235 243 235
-130.834 56.4546 1071.73 255 247 226
-29.0455 326.694 887.066 40 11 14
-433.48 215.801 1306.44 61 48 38
-34.4324 298.255 865.054 177 148 131
2.10761 246.078 900.434 204 143 119
-213.153 132.374 856.078 215 195 194
-233.967 299.672 1018.43 200 199 198
-59.9657 191.76 830.014 161 164 161
-90.3227 174.131 824.321 68 83 77
-9.7682 317.232 968.083 204 209 202
122.056 180.236 969.489 116 78 68
-95.2725 264.794 893.069 167 165 166
189.614 414.776 1050.56 71 60 49
-15.8344 338.705 889.773 53 53 54
32.5741 286.937 939.313 43 23 15
-157.163 113.053 878.233 184 215 213
8.42319 277.829 891.819 233 215 197
64.4542 39.8164 861.364 201 230 225
-70.1116 344.804 850.873 216 195 186
-408.853 -29.8844 1351.07 146 121 104
-241.224 123.342 913.613 154 159 156
109.915 230.534 985.003 67 57 40
-163.412 108.569 798.496 104 121 117
72.26 391.908 1009.01 171 169 175
-501.632 214.566 1424.73 148 126 110
-370.733 177.793 1094.33 221 207 195
-183.473 81.1394 1016.97 255 241 220
-508.25 114.998 1330.66 174 151 136
-185.497 96.9889 860.896 50 67 60
-178.086 125.732 906.853 84 104 98
-288.934 66.036 1406.25 79 66 56
-437.536 -28.461 1453.44 146 122 99
-153.444 99.2736 810.787 113 139 136
77.2785 379.574 1009.33 239 203 192
34.2404 80.9311 869.869 101 87 67
-60.1873 352.122 868.883 133 126 120
-143.401 51.7207 1006.76 165 161 163
-515.766 91.5718 1324.32 236 219 198
-33.6427 345.97 951.89 192 162 157
15.4171 170.48 900.342 194 157 128
-144.446 113.299 840.412 100 118 114
110.355 358.776 1013.81 160 179 193
-80.8879 186.858 854.337 51 71 77
27.1462 288.811 926.817 151 127 105
99.569 287.076 1008.41 150 141 138
-350.131 68.4734 1385.56 236 232 221
56.1149 274.065 942.758 165 159 151
-66.2878 317.685 859.995 208 187 167
-204.471 125.356 844.692 196 201 187
-151.776 179.637 813.165 43 35 29
-31.3029 317.511 951.152 39 31 32
-518.3 84.9214 1322.34 149 128 101
-35.6199 321.822 885.734 179 142 138
-231.7 286.508 994.75 122 124 120
-243.889 119.96 864.994 64 66 60
17.7995 231.101 902.588 130 39 15
-520.825 78.2766 1320.37 239 234 209
-94.4292 97.4828 837.726 171 175 171
-104.203 14.5081 1198.06 99 88 77
12.934 304.862 893.558 203 174 159
-50.658 76.4042 917.723 48 94 83
16.8928 314.348 927.95 235 241 220
-73.3664 201.558 895.874 188 192 187
-46.1595 335.704 926.972 196 154 140
-496.034 231.904 1515.22 108 113 103
-148.501 117.349 839.738 102 123 119
-367.912 46.236 1618.46 193 172 172
76.8244 350.887 971.467 175 194 182
-189.294 107.597 757.389 165 155 136
-72.1049 412.208 870.886 191 189 177
-64.2801 45.646 983.981 224 210 188
-53.6373 324.386 825.692 106 86 74
-99.8236 66.6746 908.302 251 236 231
96.3303 330.089 973.699 53 70 70
144.486 329.298 1015.48 67 17 1
-95.6136 168.056 777.91 44 68 70
-588.412 313.045 1823.1 105 83 74
128.498 375.203 1017.44 199 162 140
-53.0661 347.13 883.406 208 195 187
-26.0071 86.4095 860.705 108 171 179
59.5956 320.672 967.349 27 55 59
106.971 163.828 887.692 200 148 138
-216.199 108.56 885.707 150 148 145
-235.885 128.804 867.259 109 104 93
-333.053 14.5814 1459.96 35 39 39
-438.35 -31.194 1412.81 180 155 137
181.352 372.654 1102.42 120 101 91
114.517 347.654 943.003 94 47 15
-103.686 188.65 611.277 234 235 220
-166.872 69.0964 1043.68 48 60 56
-319.479 11.0186 1464.24 100 99 88
-179.942 80.3425 977.482 211 193 173
-102.577 97.3087 836.223 130 128 136
-106.388 193.864 821.941 113 117 112
-97.0961 320.406 808.089 252 255 249
88.8787 317.47 971.955 32 44 49
92.6659 93.3676 895.81 58 35 22
44.2263 246.308 847.746 62 58 43
-113.87 73.5578 953.498 159 122 108
-104.275 315.748 832.734 242 239 234
-450.445 -28.3536 1448.48 135 114 93
-592.259 -16.2899 1347.29 113 118 105
-375.394 47.0967 1519.42 206 181 170
94.4738 329.228 924.203 87 105 104
-106.724 318.941 860.716 130 124 119
-595.689 3.78653 1427.22 133 122 102
-192.799 124.479 860.216 198 233 229
91.4898 403.47 1079.64 223 154 144
-40.7782 15.3883 1067.37 239 213 199
-87.0224 106.344 850.916 204 205 211
-62.9833 338.595 856.459 123 102 83
128.101 374.067 1056.77 53 55 67
-290.977 269.517 1088.42 171 156 135
-311.417 10.1689 1363.77 124 142 145
-68.8699 53.2499 947.29 133 88 80
-117.597 64.0376 968.734 253 239 226
-250.795 121.556 925.408 83 93 88
-131.732 170.796 714.056 49 40 30
-399.915 67.5664 1367.28 76 47 40
24.4378 173.276 920.955 175 111 89
-539.423 187.935 1568.26 71 79 70
31.2376 193.441 903.611 117 63 38
-168.368 37.137 1085.86 145 136 145
-140.756 200.961 805.996 77 71 62
-121.483 248.235 785.835 208 209 195
-255.967 145.417 962.083 86 78 69
-109.282 301.646 842.321 87 87 79
-337.975 157.673 1143.31 139 134 129
34.3607 298.72 915.108 187 203 200
-196.841 116.298 870.265 40 65 58
-110.768 195.276 794.968 60 60 53
-100.252 324.438 833.877 142 149 138
-94.2058 341.736 835.739 224 229 214
-61.9155 64.9297 915.25 99 126 133
97.807 162.867 900.431 122 88 73
-102.255 7.03123 1004.94 170 170 165
-646.972 -25.049 1478.47 212 211 199
-421.548 -11.9905 1408.78 197 187 175
-86.5376 78.0997 911.242 240 208 187
-59.2096 349.673 870.808 190 174 168
-458.136 -3.30144 1409.06 127 104 89
-128.768 81.0557 972.753 174 153 145
-91.4562 141.888 474.636 231 231 219
-458.194 67.6723 1403.48 117 114 109
-119.282 66.8032 974.08 166 146 132
91.891 129.832 977.876 116 70 61
76.9977 249.452 912.311 104 79 65
-98.1561 43.9498 1057.51 132 52 33
6.1785 266.578 891.013 61 33 20
-155.658 78.8958 1005.4 234 219 208
50.5321 186.03 894.681 136 110 102
-62.2903 62.3016 863.928 185 195 192
