-14.5475 385.242 1135.88 255 246 223
20.0319 441.641 1346.71 255 246 244
51.1387 452.126 1235.06 249 254 255
293.997 217.963 1954.53 246 246 233
367.653 -95.3364 1524.77 255 249 239
37.9212 430.324 1163.83 136 143 145
24.4637 428.103 1256.52 234 223 223
-65.0097 68.0707 1042.01 255 201 170
430.251 295.291 1878.59 37 69 77
14.776 367.481 1094.02 43 29 29
-3.11571 444.804 1136.11 251 243 232
410.435 269.469 1771.08 202 229 232
394.128 44.7732 1625.64 235 232 234
-64.429 75.661 1024.56 246 177 164
59.7357 481.589 1317.04 77 83 90
20.1834 -9.56335 1199.9 244 229 219
366.701 44.4987 1550 104 93 95
-122.225 512.653 1356.02 196 197 192
174.594 166.211 1622.37 88 82 70
336.138 -20.2788 1534.71 246 207 194
62.4518 11.2835 1209.4 114 22 3
332.244 -3.23221 1457.92 245 233 230
-51.4448 181.843 1074.9 63 42 42
-24.8582 156.297 1079.01 106 59 33
-24.7068 222.49 1100.15 253 243 219
35.1667 334.845 1197.82 243 246 236
398.924 -83.0339 1700.83 152 140 136
340.479 226.624 1505.18 58 92 104
-8.83967 417.948 1136.42 180 174 165
51.0664 7.82243 1154.19 98 42 38
393.505 28.6778 1623.32 255 246 243
-65.4882 57.4048 1056.33 255 242 217
24.3568 393.907 1255.03 217 214 193
429.915 211.584 1761.94 73 68 56
-38.1604 277.454 1081.12 82 76 71
353.571 -65.4002 1528.68 212 191 182
-49.6376 170.869 1048.46 251 252 255
30.3726 323.103 1252.54 110 85 75
-7.74777 287.635 1129.47 156 153 156
-62.555 183.381 1091.38 25 15 12
21.977 423.099 1233.88 146 138 137
1080.04 -436.973 1791.65 79 84 79
-56.4269 134.692 1117.31 245 230 224
401.21 -86.521 1607.55 247 246 239
-48.7999 189.863 1075.81 186 181 173
-52.0943 87.3769 1106.46 255 253 255
414.686 381.515 1881.33 98 125 127
344.292 7.50915 1448.81 77 79 75
-52.578 77.75 1003.61 85 81 74
52.4908 196.876 1193.38 255 248 231
308.559 -186.744 1767.6 33 40 37
55.2351 155.703 1190.97 244 231 196
49.9818 128.132 1179.07 179 133 110
2.79164 262.412 1156.5 144 100 95
17.0949 289.57 1191.96 153 157 152
263.96 -155.026 1575.8 67 72 67
54.3137 214.705 1219.42 128 126 128
64.4033 185.464 1194.85 242 230 216
352.332 44.546 1619.04 182 172 164
-56.6509 94.7889 1069.26 239 201 187
-95.5628 433.635 1145.65 113 104 94
-0.447475 12.6692 1096.46 244 220 199
-18.2246 418.525 1189.08 140 138 131
-51.3767 81.7394 1069.56 239 249 238
-17.4651 305.23 1133.9 131 101 105
-23.1479 72.1739 1143.53 122 120 116
12.8758 334.627 1118.38 163 149 136
27.9556 52.9315 1121.05 143 105 99
407.828 -13.3958 1624.36 255 246 229
105.759 441.339 1321.2 115 114 112
68.4985 230.923 1374.53 124 93 64
66.4142 182.047 1220.25 141 112 96
-20.2124 368.428 1134.64 229 228 227
47.3034 159.897 1139.43 154 107 86
13.558 416.185 1171.14 145 139 136
-34.1716 94.2365 1063.38 157 135 137
23.8 305.829 1176.69 155 122 112
-16.0603 455.51 1248.54 63 35 23
-17.4587 310.75 1134.07 161 137 139
62.3999 2.37463 1208.79 177 81 56
323.42 -42.8262 1529.07 138 118 110
50.0849 168.659 1180.11 239 229 216
15.9134 404.828 1120 119 108 100
-48.8046 200.435 1076.28 114 77 77
49.0626 120.289 1187.11 243 219 194
435.985 -219.06 1590.98 195 220 222
67.4651 194.435 1196.06 168 159 154
43.2492 143.617 1187.79 154 122 100
-21.7733 350.607 1113.89 205 186 179
-20.2266 354.688 1134.49 176 167 164
16.5906 335.108 1141.75 255 245 236
381.262 -45.0756 1614.89 247 240 227
40.3384 155.285 1188.09 255 244 232
-24.6233 420.01 1072.41 147 137 127
488.584 -150.758 1684.61 245 247 226
-22.2508 87.4704 1075.64 131 120 108
369.167 -65.4895 1530.46 254 250 249
-30.177 187.903 1079.5 254 242 216
43.3745 167.116 1189.54 253 230 215
-57.3425 98.9258 1044.7 181 103 77
10.9699 224.652 1186.98 149 120 110
355.374 -27.8663 1535.72 108 73 58
11.5463 447.113 1195.85 138 125 108
-120.609 96.7833 1075.84 159 148 146
-59.6407 95.5341 950.828 152 82 59
398.149 296.263 1774.57 140 159 154
312.274 205.391 1729.58 57 65 59
37.2214 125.859 1185.29 132 89 57
508.57 110.936 1748.53 253 254 228
17.192 321.921 1193.56 137 121 119
-20.9394 141.928 1070.29 131 89 89
415.132 -12.8621 1545.18 131 118 111
49.4578 -36.8299 1172.86 68 45 32
370.255 322.969 1676.11 185 222 231
509.683 115.616 1856.52 255 255 230
-14.024 252.311 1085.31 251 218 201
372.685 -73.0058 1529.46 187 185 183
412.907 -102.309 1606.75 219 191 171
-74.576 133.307 1025.33 116 70 61
361.736 -57.9444 1530.99 195 184 188
-49.0926 98.1157 1091.01 177 118 110
61.6072 217.887 1196.54 182 163 151
-43.4556 50.29 1069.21 252 221 208
-0.610492 264.454 1135.81 251 234 221
60.2487 172.833 1218.61 231 222 205
35.2217 349.543 1198.44 195 188 167
388.144 -1.42643 1544.35 250 239 241
92.608 68.3117 1241.8 255 241 224
-107.565 112.955 1079.34 154 124 118
-11.6895 406.979 1136.13 133 130 130
326.53 -6.53638 1373.67 114 100 91
-27.2308 -8.20843 1214.3 167 146 146
386.364 -35.5218 1537.9 231 207 189
454.807 -20.3976 1719.63 243 231 227
-6.5322 326.289 1188.78 254 244 237
560.306 -166.583 1917.4 172 178 158
-72.546 188.926 1070.82 179 150 137
7.95473 295.599 1138.79 174 160 157
-102.387 521.033 1361.65 209 203 194
57.3847 116.942 1242.51 205 158 135
501.005 -101.636 1697.46 254 255 233
54.583 141.889 1162.12 178 134 97
344.243 289.324 1855.75 75 101 104
282.257 -201.139 1651.86 201 166 161
80.8267 609.103 1374.5 194 212 203
372.645 -83.8169 1454.32 220 202 182
9.27206 440.048 1170.9 231 224 210
439.771 377.932 1897.94 155 175 173
-3.48367 119.695 1081.14 254 228 201
-40.8346 208.719 1078.26 242 229 206
-38.8359 0.591903 1160.25 109 84 73
26.6536 245.714 1176.9 166 145 139
-18.391 241.36 1055.77 157 111 78
-25.9091 285.427 1131.45 175 170 168
612.987 -176.111 2088.4 241 246 227
36.0214 130.766 1190.04 251 238 209
-35.5335 71.4189 1072.07 254 252 235
413.307 -132.745 1440.29 151 152 131
368.442 28.6009 1619.43 60 36 27
349.315 322.047 1772.06 85 118 113
407.755 -67.4676 1678.25 165 157 153
-35.5982 178.998 1096.76 181 136 110
332.54 359.972 1878 61 73 70
-8.60825 12.6306 1094.92 185 165 147
72.7463 419.27 1257.18 122 111 103
499.308 359.71 2017.41 172 179 174
90.2174 59.4612 1217.72 253 241 212
-14.7111 258.218 1132.66 202 159 134
-17.7388 80.3788 1121.67 255 250 252
3.51295 267.801 1045.09 218 210 202
370.302 -42.9445 1534.72 230 220 207
87.7432 606.338 1375.8 140 160 152
311.828 -174.177 1819.92 107 113 108
-70.4435 52.3399 1084.62 191 170 137
217.582 22.1897 1381.91 36 41 20
-31.4694 287.615 1080.56 249 249 252
-20.3749 10.4172 1140.71 145 114 102
103.896 234.863 1321.37 255 251 221
379.255 -117.67 1599.62 144 135 125
637.51 141.739 2266.66 206 209 193
377.498 -201.879 1505.83 127 146 137
402.719 233.613 1657.75 173 188 185
-1.24153 337.765 1164.39 253 221 203
390.626 -84.9201 1355.72 169 172 148
283.562 5.1947 1798.84 33 45 22
391.045 314.755 1676.31 176 191 188
464.605 -92.7561 1613.12 176 171 145
75.396 87.5876 1042.05 255 239 222
480.141 -93.3836 1697.91 236 233 204
463.385 373.899 2013.44 121 141 142
377.448 341.011 1779.91 112 145 149
-115.999 88.9707 991.437 120 109 110
18.7336 114.372 1131.07 218 166 139
-25.2441 10.3558 1019.86 163 137 119
-14.2438 92.9323 1077.5 255 249 235
-68.6032 45.6649 1000.96 239 214 192
499.114 -66.2355 1820.84 255 249 227
336.693 2.27668 1490.77 98 88 82
-59.0389 235.898 1013.36 188 160 155
212.905 -201.78 1625.55 182 184 171
449.354 99.3082 1569.17 255 255 235
-25.8633 -12.3833 1176.82 103 129 143
538.287 -41.9238 2069.84 197 161 148
-6.82682 58.539 1052.68 254 219 191
11.4901 303.823 1048.31 245 226 211
93.7359 97.8433 1193.39 255 242 222
-45.7936 46.3786 965.64 145 136 124
94.594 192.361 1200.92 193 173 164
-56.7057 150.024 1072.27 224 217 213
-3.25274 80.9684 1147.98 255 241 231
-14.2216 108.826 1078.46 255 223 205
432.108 48.9394 1631.86 245 241 220
280.68 233.962 1541.01 73 100 100
345.787 -155.5 1505.54 143 134 124
-21.5424 446.492 1134.28 114 91 70
