13.0869 -25.852 1168.09 245 223 216
23.18 -28.7292 1168.14 255 251 236
9.91548 389.565 1241.34 255 250 240
3.68749 376.408 1238.46 253 248 248
-42.6305 205.496 1124.25 69 57 36
-28.5709 370.475 1180.7 233 216 193
1.49501 -20.05 1166.38 255 244 236
61.6621 -21.0998 1326.92 72 17 9
65.2183 -13.9112 1265.52 142 91 68
-20.0289 361.085 1155.29 91 72 46
-38.8229 209.064 1175.33 254 243 217
37.1323 105.271 1183.33 119 79 62
-30.1835 46.14 1165.4 77 64 67
-43.4265 68.7249 1070.12 94 87 86
-77.4325 39.3589 1061.51 252 196 172
450.341 4.23425 1632.09 254 249 247
451.12 -137.067 1684.83 239 222 215
-5.84755 -16.5641 1230.88 105 72 56
-1.11159 385.571 1168.91 153 152 151
45.7038 105.547 1203.09 121 71 53
-77.4144 31.4865 1061.04 255 242 221
-67.2197 57.6113 1109.77 91 57 48
41.8925 122.557 1239.59 168 118 103
-22.4576 417.048 1218.56 231 219 209
-66.3159 96.6564 1043.89 255 254 252
413.759 -51.7023 1616.82 240 220 207
-30.1755 63.4751 1166.74 119 112 101
-77.4565 49.8673 1062.13 229 139 122
450.37 254.342 1772.59 59 74 84
10.7344 354.398 1220.64 205 198 194
-18.1802 442.113 1192.73 173 172 169
500.502 4.49404 1722.68 253 238 238
-31.4665 274.811 1107.07 137 115 120
-30.0658 286.197 1182.07 90 65 68
423.937 -19.8483 1624.45 105 98 99
4.4996 312.163 1164.56 255 242 214
-61.7631 54.9199 1110.73 254 251 238
57.562 141.458 1244.27 168 130 105
8.49521 301.857 1246.52 106 89 84
-0.822334 291.987 1243.85 144 130 122
11.7499 355.42 1250.67 252 244 227
0.582581 440.011 1299.57 105 86 77
439.096 -62.7748 1701.35 114 69 54
67.1885 175.939 1249.03 106 83 74
70.2429 174.695 1308.79 254 250 247
11.4953 420.366 1197.95 109 111 109
51.0491 98.0368 1239.23 252 241 219
434.448 16.3446 1632.97 240 236 233
390.988 -94.1317 1527.31 146 126 121
50.5723 174.159 1304.77 255 252 234
-34.6093 374.331 1241.68 180 174 169
-48.4591 54.8444 1137.21 119 102 99
397.296 -51.6388 1615.09 254 223 204
352.162 -224.356 1767.29 62 67 63
2.36542 326.713 1191.27 158 136 117
57.2268 135.636 1261.55 249 225 199
-64.656 160.008 1116.86 110 72 46
476.672 343.021 1886.43 96 109 119
394.264 -105.326 1525.55 49 23 21
51.5585 178.618 1246.2 241 221 208
464.406 187.313 1760.35 89 87 77
4.78611 397.392 1222.94 183 183 185
298.138 -267.196 1806.77 203 201 191
100.33 408.373 1316.59 111 110 109
-10.0635 -14.2661 1164.62 255 246 227
41.5487 147.923 1260.03 249 233 216
-31.4786 244.225 1104.82 123 86 57
429.407 -114.066 1568.06 254 250 249
458.754 -29.3304 1711.05 240 240 235
-17.3056 352.257 1145.31 221 214 203
32.4782 97.7496 1235.58 255 230 217
27.2373 318.558 1251.59 201 210 194
-66.8043 66.796 1021.26 248 182 167
11.4622 255.112 1243.88 107 65 56
433.458 0.209191 1629.56 232 222 219
-62.4219 60.4119 1086.44 75 92 73
63.5254 154.915 1305.58 255 253 239
20.6813 230.55 1244 180 133 129
11.0265 237.675 1187.66 218 167 159
474.924 -46.1796 1708.52 255 246 228
15.7921 253.516 1091.91 155 129 121
-38.6384 338.861 1157.48 216 201 189
43.5057 141.38 1168.01 171 133 118
-53.338 270.199 1176.03 99 88 91
-43.1825 442.021 1184.68 131 131 125
436.213 320.454 1837.45 65 102 124
372.883 -232.649 1655.08 113 92 92
-60.5794 164.482 1025.02 69 53 44
48.863 84.8566 1183.93 118 66 45
-9.84585 101.529 1173.8 249 226 194
478.149 425.199 2021.91 108 118 112
-61.9194 165.663 1117.79 185 153 122
-24.2178 280.573 1182.98 249 232 232
-35.7906 136.727 1141.19 188 118 98
-52.0667 235.73 1043.41 204 208 202
25.8524 327.46 1221.44 215 195 172
-87.7034 110.964 1082.59 105 64 53
-22.4324 441.839 1220.46 124 105 89
458.116 -126.669 1605.1 238 218 206
66.9486 158.014 1266.08 227 211 193
425.7 -93.2247 1609.78 254 249 248
-69.6856 73.6672 1065.13 170 86 56
-20.4541 311.759 1111.96 160 150 137
79.3727 142.392 1213.24 151 136 117
48.5096 190.993 1246.59 166 157 147
-31.4097 368.522 1088.92 33 23 10
-59.3005 148.183 1071.51 239 225 220
-77.7971 158.278 1134.09 84 72 71
-120.994 88.0218 1148.55 162 137 138
-6.97914 355.628 1165.5 119 105 96
461.088 -74.8121 1789.04 114 83 68
61.5192 200.069 1371.55 121 88 68
-0.757235 249.055 1185.97 255 243 230
480.503 -56.5291 1920.22 205 170 155
36.8458 129.42 1204.03 255 232 220
116.323 199.231 1426.09 155 125 113
-44.6062 173.69 1171.7 252 240 207
403.494 -79.2162 1693.95 176 148 139
-39.8461 85.5779 1117.3 153 157 148
-49.8667 156.289 1139.99 160 115 98
359.087 -3.31905 1374.36 130 106 105
969.111 -367.51 1429.84 90 97 96
1.76426 78.377 1174.36 253 249 239
101.808 45.1446 1301.78 255 245 224
472.842 178.514 1759.41 105 98 74
49.618 582.86 1366.77 120 144 131
480.078 250.35 1873.57 225 247 247
-56.1609 196.677 1170.73 255 252 231
346.729 -247.725 1732.36 217 175 166
-170.104 28.1129 1132.57 150 129 111
383.381 14.0447 1599.58 162 152 146
381.333 -43.3114 1465.72 232 207 190
-30.1466 124.455 1171.3 182 138 130
61.0874 200.757 1249.86 180 153 153
-134.272 40.6108 1093.99 149 125 111
1007.59 -383.381 1456.52 100 108 104
97.4215 54.4904 1258.51 251 225 198
20.8478 276.134 1176.44 235 213 198
56.4603 580.011 1368.01 208 233 218
510.734 -29.0669 1829.49 236 224 228
420.434 -90.1365 1702.62 221 209 196
-16.2217 306.77 1241.5 253 240 214
2.15784 234.335 1185.63 153 100 92
527.354 84.3784 1746.39 246 242 217
514.583 -92.1867 1700.5 255 250 233
-13.347 173.598 1232.42 166 115 96
-79.5337 89.8425 1211 228 206 183
496.615 -46.2368 1710.29 234 220 210
-200.497 55.4768 1178.44 64 14 7
31.1342 559.944 1298.1 142 173 159
7.5196 -65.749 1271.96 143 162 154
382.322 -182.51 1509.84 124 113 111
439.998 231.663 1766.7 124 153 154
547.049 -266.465 1741.93 88 91 88
-19.2702 97.84 1255.89 251 250 233
-4.08124 72.4794 1172.73 186 136 120
-80.7121 24.6343 1104.73 216 209 182
475.24 -37.1433 1589.82 180 155 155
101.693 35.4758 1300.72 254 244 227
363.875 243.674 1758.76 53 79 78
-81.8707 163.187 1101.29 186 151 137
20.6465 221.202 1243.28 203 180 174
453.748 -100.157 1693.85 234 231 232
55.5849 318.367 1281.88 162 161 139
-67.1486 121.372 1068.4 203 197 195
42.9076 -44.8996 1258.8 175 156 141
-88.914 166.417 1132.3 184 156 138
677.591 -159.199 2050.76 253 255 246
-51.387 148.41 1073.14 156 116 96
-31.5052 228.453 1127.9 178 135 105
-53.5301 22.0063 1110.19 231 185 178
435.192 -103.066 1608.15 171 174 173
-132.624 106.061 1360.13 96 62 52
22.1205 43.624 1175.55 182 168 158
-13.6068 387.326 1108.02 138 117 110
-101.658 151.564 1157.45 93 41 19
545.948 -124.57 1712.58 233 231 214
-17.0435 266.279 1171.64 170 160 166
428.026 -60.5995 1537.29 223 178 160
287.544 -175.706 1658.07 48 38 20
-84.5453 18.2134 1127.66 235 214 189
573.263 -131.691 1780.54 170 171 161
104.038 73.3392 1262.06 255 241 208
21.0148 96.0847 1253.67 255 250 237
-27.0568 402.955 1194.78 227 223 219
408.543 -193.754 1510.12 87 81 67
17.0842 97.5073 1232.47 219 164 146
-59.0585 74.2329 1112.58 208 195 192
-170.709 207.151 1197.69 86 36 10
59.2949 288.969 1224.59 123 122 109
-9.95932 40.5056 1169.05 255 244 224
116.843 199.03 1320.09 251 226 195
325.359 -194.028 1831.49 136 134 117
-27.1945 206.571 1177.66 229 194 177
58.5456 -66.7223 1260.13 97 69 57
-24.8839 82.2694 1074.56 253 238 219
107.403 441.154 1405.17 74 73 69
95.5411 70.9474 1303.36 255 194 157
-79.1104 201.627 1165.94 227 177 151
118.731 197.73 1280.23 187 171 158
102.443 78.2839 1374.76 254 239 207
-23.9224 -40.5028 1268.11 135 144 158
99.3734 197.193 1276.73 255 246 207
95.8449 186.442 1227.06 137 102 81
594.837 91.3518 1843.22 214 216 186
-1.4216 445.086 1281.8 140 116 102
404.496 5.10136 1899.12 139 115 97
16.2306 34.8675 1173.72 255 238 217
478.272 11.565 2221.23 114 90 71
-34.1809 361.371 1112.39 124 115 108
37.8672 283.971 1121.53 107 109 85
523.187 -92.2211 1701.06 255 252 236
-72.7819 115.414 1112.35 137 69 34
474.864 317.705 1888.46 150 177 175
-44.6322 250.001 1176.7 146 150 130
117.549 88.32 1372.78 190 155 121
-37.4768 89.3373 1184.98 194 184 183
29.3342 28.3561 1204 255 223 200
-12.2522 16.6265 1117.97 195 113 80
504.068 51.6468 1734.05 255 253 221
374.084 324.961 1876.41 68 79 74
109.304 64.737 1375.46 255 235 205
355.51 318.13 1811.15 108 108 102
