363.716 -168.995 1150.5 239 236 235
-221.539 332.117 1139.31 253 247 229
-224.365 346.123 1139.37 16 5 2
399.467 -4.10503 1223.28 7 6 4
-84.5613 129.376 1023.24 38 5 0
-234.903 399.234 1219.06 214 209 206
-253.808 331.249 1103.94 61 21 27
389.929 -107.279 1159.76 238 232 232
-223.302 392.713 1116.78 53 56 53
-209.212 313.605 1042.48 87 90 83
-142.12 143.697 1053.54 100 66 36
518.849 -10.5055 1286.48 226 205 197
377.498 -53.0148 1165.07 236 229 224
-286.15 60.9137 973.017 85 79 80
-129.499 170.303 1057.81 253 248 239
-219.86 357.899 1163.66 255 250 239
-79.1156 199.601 1166.13 43 28 18
-150.963 102.607 1007.7 213 193 176
-157.403 158.852 1050.82 107 87 77
-188.586 -8.86177 993.783 52 31 14
-164.123 173.823 1095.29 249 226 211
-177.553 278.164 1147.47 67 61 56
-207.161 342.771 1093.77 230 224 216
386.68 -232.458 1292.29 197 176 172
-271.879 382.548 1151.23 255 249 239
-215.5 387.077 1128.32 210 212 202
-179.669 239.511 1070.95 105 88 84
535.619 -254.474 1243.69 45 57 55
-44.9117 379.999 1205.42 238 242 241
-125.15 377.461 1165.89 240 250 223
-189.083 44.5172 1037.21 48 14 13
-179.496 -14.7519 974.437 228 203 189
591.455 -224.84 1250.62 219 224 212
-166.618 154.704 1093.56 126 90 74
-313.487 65.3866 984.588 195 210 193
-251.822 373.222 1107.61 114 93 77
500.743 14.9763 1288.85 68 39 40
-174.675 111.649 1044.26 239 207 189
-153.331 133.418 1095.48 237 207 177
519.262 -151.042 1265.88 249 245 232
-298.669 160.458 1035.22 62 21 2
-260.551 396.765 1211.37 41 34 24
533.302 253.368 1458.99 221 250 255
476.869 -0.636359 1433.31 190 188 189
-284.362 211.203 1066.32 225 199 163
-281.836 77.7955 974.906 81 81 76
434.152 38.995 1294.37 231 225 225
-277.113 141.62 1020.05 29 7 6
-158.931 184.912 1097.18 243 219 204
-184.274 52.5878 997.717 84 56 46
-221.578 336.362 1061.24 123 118 108
-266.996 352.317 1101.82 252 254 252
447.795 23.1749 1230.64 239 217 220
-141.392 132.811 1011.28 236 214 187
435.791 98.1485 1294.32 196 192 174
-311.219 105.951 968.356 245 242 229
-174.368 140.919 1090.86 222 181 176
-143.994 303.772 1084.12 251 243 216
-228.487 467.651 1245.03 249 255 245
633.52 -112.794 1334.7 253 254 240
-74.8882 61.3177 1063.49 168 93 71
-172.212 116.869 1045.12 129 90 76
359.318 10.7046 1093.57 44 36 32
-146.135 107.696 1009.02 57 26 14
-235.753 276.009 1155.99 88 76 79
-183.93 -12.9255 921.624 217 196 182
-127.067 186.205 1104.78 112 98 83
-268.818 131.239 980.731 253 246 233
-264.488 280.54 1096.59 255 242 248
431.511 -54.5012 1274.19 245 244 234
435.165 -51.8939 1288.73 110 61 59
510.796 18.1728 1289.97 236 207 207
413.821 -101.823 1162.16 255 249 250
578.198 310.518 1407.96 95 113 125
-158.17 116.164 986.47 218 206 187
-278.118 74.7812 938.044 112 98 98
451.158 -152.638 1035.41 219 208 198
494.358 18.1494 1288.83 237 203 203
-146.681 -5.20426 981.802 79 34 25
475.752 220.294 1327.22 174 199 216
-57.077 45.2634 1086.97 255 245 226
433.932 -113.882 1251.22 228 225 227
-185.387 303.488 1073.9 239 243 219
-222.951 374.236 1091.32 94 81 69
474.482 -42.0559 1279.11 255 234 215
-282.539 261.811 1069.72 86 94 78
-255.105 268.95 1077.52 119 96 98
483.983 -105.029 1219.25 255 255 229
-78.3763 50.4992 1082.83 135 121 112
-40.7984 96.0668 1072.49 242 233 213
-214.146 249.924 1087.16 132 69 59
460.592 -112.245 1199.13 221 202 176
-287.476 60.7076 951.256 112 101 90
-137.791 2.23034 1024.25 139 95 79
-44.2007 84.415 1028.96 255 249 224
-230.389 291.566 1006.35 247 218 189
-193.279 -13.7357 992.477 176 154 138
-227.831 418.222 1222.02 35 37 32
484.497 18.1321 1288.12 248 230 230
406.678 17.0836 1226.45 168 160 149
579.342 -178.754 1159.75 240 249 235
519.455 -0.96806 1287.86 219 205 194
-237.908 265.156 1057.62 255 249 239
-109.351 298.35 1188.09 245 241 233
-172.619 312.512 1077.7 194 182 164
-227.501 385.983 1133.01 68 45 32
-56.5569 35.106 1065.61 254 243 225
-279.355 131.465 1018.92 167 165 163
535 -174.291 1209.18 69 68 62
-82.651 45.5094 1060.94 255 237 209
470.027 237.062 1329.42 46 77 88
-137.469 -12.1985 1085.06 120 27 14
-79.1557 217.042 1167.26 234 227 211
-194.797 345.361 1169.44 206 204 179
-271.994 261.042 1093.8 98 33 20
499.95 -51.562 1279.45 251 236 225
489.496 223.795 1328.73 182 222 244
-238.749 288.861 992.857 147 139 130
484.723 301.813 1400.48 139 173 199
643.232 342.136 1549.38 69 85 98
-43.684 80.3587 1091.29 248 245 216
-276.6 58.6326 902.769 245 245 251
-317.608 86.6624 965.745 247 226 214
435.007 -2.59261 1262.16 228 223 227
429.208 -260.495 1356.49 202 184 159
422.342 -93.8035 1082.78 255 254 228
-265.284 284.334 1051.5 158 149 147
-307.766 155.642 1012.43 231 233 231
-310.816 77.5571 1001.08 85 50 41
476.154 108.052 1299.16 234 234 207
526.86 241.742 1393.25 65 100 108
508.241 -23.1592 1284.01 204 184 178
-245.562 97.9476 985.108 180 120 106
-56.5775 53.5351 1066.75 252 220 198
645.16 7.09672 1293.29 229 243 224
-89.3059 33.4931 1017.28 255 241 229
-80.8104 58.0514 1205.29 252 207 179
434.885 78.806 1291.87 191 187 167
-726.241 -413.353 2274.4 196 192 184
-9.08877 241.198 1133.54 255 253 228
-292.242 254.388 1088.14 90 90 68
557.373 347.708 1592.45 153 184 213
-137.461 133.883 1099.24 149 104 65
-159 195.822 1097.8 120 95 83
435.385 -43.7079 1334.92 224 224 228
-228.676 267.605 1057.23 234 218 214
-242.323 251.866 1101 99 64 41
-803.849 -401.805 2305.03 172 180 175
-31.4635 137.403 1036.52 238 223 204
-95.5385 29.7278 1057.31 218 178 164
-6.62528 261.378 1185.89 238 231 207
520.859 21.3735 1291.08 147 118 113
-141.592 158.405 1073.65 143 89 78
-34.3974 138.023 1144.41 248 240 225
518.039 -23.1844 1284.62 236 218 213
-247.501 266.772 1079.41 164 152 152
-113.24 224.174 1159.84 255 242 222
-229.927 548.801 1254.09 16 13 13
-205.032 -8.74002 982.764 190 189 176
541.405 -128.893 1383.8 238 225 192
513.051 40.3572 1334.67 124 105 84
-137.341 149.637 1032.5 245 242 207
-59.3028 23.4817 1022.66 255 248 218
-262.147 70.4995 958.176 136 149 140
-124.512 229.432 1157.5 255 248 232
-270.319 281.329 1074.13 128 125 124
485.585 37.2992 1290.78 218 190 177
-76.1841 194.833 1064.19 183 162 141
-94.2303 50.3881 1079.48 250 214 205
-289.717 206.935 1020.03 233 229 209
434.666 -11.9414 1261.27 238 225 219
661.659 -276.147 1431.09 134 139 129
-51.3262 53.5746 1067.8 252 249 227
-74.6539 -45.9893 1056.92 244 241 217
-232.518 294.674 1084.85 251 213 208
-85.1944 27.1577 1059.31 142 117 106
-102.202 303.095 1167.25 236 229 207
498.652 103.326 1361.15 227 220 198
-227.275 281.531 1085.5 113 100 100
389.859 -79.033 1213.28 144 117 110
-138.672 384.444 1112.27 121 106 86
-256.184 81.071 999.849 242 238 238
-143.178 207.446 1102.23 107 102 96
-250.373 298.855 1080.4 128 110 103
641.873 -61.2024 1284.21 228 246 227
-229.917 90.3878 1049.99 236 198 181
440.54 -40.9386 1354.56 179 172 160
-310.424 126.111 986.58 244 233 228
-156.925 120.87 1068.66 195 151 129
-227.089 572.518 1296.82 37 34 31
-141.869 96.8236 1051.05 146 95 61
-83.7012 66.5084 1082.44 255 249 235
438.77 -96.0842 1219.4 177 171 166
-47.1843 342.459 1262.88 137 61 29
535.201 328.601 1473.1 91 124 133
-113.006 169.435 1156.3 136 98 64
483.549 304.51 1351.81 84 108 117
-253.627 332.464 1130.75 162 67 46
371.94 -59.2631 1145.23 135 106 109
488.599 205.684 1440.45 46 42 34
402.939 -176.75 1049.2 177 173 163
357.619 107.517 1559.41 49 45 38
-238.296 61.6689 985.241 255 241 234
-180.93 412.286 1209.02 175 183 153
647.575 29.5519 1297.84 203 205 187
427.604 -91.5159 1198.18 231 229 229
-134.875 -1.48837 1086 201 113 70
-243.348 109.76 1027.24 247 204 183
-114.347 7.92743 972.44 139 68 39
-31.5412 153.472 1123.66 255 235 212
619.543 310.743 1474.01 228 253 253
446.438 -26.9715 1231.18 222 186 169
-236.607 -2.68271 1044.41 172 146 137
501.599 242.312 1446.56 83 123 129
441.725 -133.112 1160.13 174 170 157
-69.7194 87.7414 1066.13 251 234 223
-206.172 271.995 1039.8 245 232 234
506.194 -100.457 1218.3 205 190 166
405.767 -11.5567 1203.14 193 167 165
-116.618 -24.7393 1043.42 182 114 83
-91.6245 58.4384 1104.78 253 244 243
-192.794 87.1643 1106.19 139 134 137
459.035 98.2646 1296.46 67 66 50
-72.3224 82.4254 1065.28 251 239 206
413.811 26.6437 1188.62 178 180 186
-146.894 1.03716 1037.73 255 241 234
-264.156 121.65 981.492 125 120 125
-237.068 320.303 1188.19 118 83 90
330.502 -205.947 1247.16 50 52 46
-61.8881 106.367 1068.83 183 143 112
-248.124 295.645 1102.81 225 195 170
646.193 16.7001 1295.24 204 215 197
-208.757 223.191 1087.05 178 162 152
-208.915 94.4365 1011.76 211 183 167
-293.394 100.5 951.436 186 160 157
503.753 66.2675 1295.98 251 243 216
588.156 -76.6887 1225.18 138 143 114
-61.9449 151.411 1071.39 240 213 200
565.987 19.2137 1353.54 189 159 142
-162.59 330.711 1178.44 114 102 86
-221.117 431.766 1189.36 73 56 51
-263.837 485.956 1236.7 61 61 56
564.887 -242.716 1246.92 11 17 19
-67.1207 98.3216 1067.29 253 239 225
-269.112 63.7999 1018.14 254 243 235
546.07 -53.9226 1437.9 152 138 121
-268.041 305.22 1052.17 89 88 86
-313.755 178.094 1103.95 137 87 46
-208.39 396.201 1092.85 167 151 150
-9.60331 240.506 1183.95 241 227 208
-210.58 91.443 993.377 122 108 93
-25.8826 169.485 1147.59 243 225 199
-275.304 238.87 1044.51 153 139 110
513.653 265.941 1670.45 45 55 49
396.747 -87.4608 1162.62 253 254 254
-270.912 51.5393 955.417 251 253 238
396.891 -91.2285 1195.25 239 230 224
-266.554 63.3759 956.869 254 242 233
-287.526 335.388 1144.94 187 184 196
-80.1548 87.5941 1063.95 253 230 201
-18.4386 210.683 1180.12 235 220 203
-278.639 519.406 1341.65 46 42 39
491.123 -94.419 1218.31 211 203 181
597.178 161.278 1381.1 233 238 227
520.492 -70.6613 1223.15 246 227 203
-312.231 142.9 1010.53 225 224 225
420.795 -79.2467 1215.7 218 214 221
-89.4161 292.452 1142.94 244 225 209
474.98 85.4244 1296.22 199 203 176
-325.19 52.9225 955.598 97 32 16
-299.013 193.804 1036.52 254 253 231
-283.263 56.006 1034.92 122 103 92
-59.7252 18.4436 1085.15 232 210 189
-232.693 351.959 999.03 182 170 157
-175.242 262.885 970.039 136 99 83
-273.723 53.6956 1016.4 180 168 161
312.405 -209.91 1243.17 102 102 91
500.722 -61.5032 1132.57 244 245 237
-201.387 -12.2413 969.006 47 28 22
-298.846 186.291 1016.48 216 198 179
668.916 -274.467 1368.88 168 190 176
530.609 96.6325 1255.41 254 255 238
-249.448 214.314 969.834 234 209 187
537.273 72.847 1299.21 245 242 221
524.567 -120.26 1270.74 212 178 163
352.316 -232.227 1300.4 219 194 195
-284.639 199.671 1040.53 84 46 9
598.805 310.413 1464.04 121 146 169
-232.733 49.6265 964.517 255 247 231
-265.505 234.255 1046.83 152 64 39
-216.402 221.715 941.864 186 131 110
-329.48 43.4952 954.245 110 83 58
-42.0761 209.656 1072.78 255 245 223
429.513 102.418 1251.07 93 90 79
569.176 -119.441 1167.72 198 209 184
524.574 -55.6466 1225.43 199 165 151
-41.7309 233.338 1176.61 194 139 115
566.994 83.3558 1363.28 180 178 146
-204.085 455.37 1292.5 118 96 82
482.95 -152.854 1146.47 113 95 83
385.248 29.2178 1225.89 129 116 113
583.645 -198.462 1157.09 216 227 201
-85.0328 -29.0202 1007.4 243 229 190
539.163 -95.5134 1275.16 203 179 162
472.08 69.7526 1197.54 244 242 240
-140.327 0.754005 958.093 220 193 191
-42.6357 208.998 1124.75 184 165 149
506.07 81.27 1305.44 243 244 234
659.832 -218.757 1297.61 133 142 118
-150.895 90.1627 1007.11 247 214 194
-284.563 171.743 1019.6 186 170 134
-195.536 103.518 1106.29 173 103 86
-197.851 -33.2197 990.517 114 113 116
