63.8598 -72.1837 866.556 255 252 244
2.53497 -149.782 1107.99 23 27 28
42.4768 -4.88308 866.803 255 252 242
-499.393 -28.4666 1086.62 39 19 6
-510.443 63.756 1235.72 246 235 216
-374.817 47.0459 1304.91 188 189 183
78.1423 -28.901 852.56 219 221 217
-462.698 55.3331 1109.38 144 120 94
55.1887 -70.0054 865.56 92 89 74
-500.355 48.7551 1194.56 230 215 192
-3.0096 -97.1912 1004.96 244 227 211
-423.449 27.5198 1284.88 38 16 6
242.954 -191.659 1033 19 7 4
-46.1341 -48.981 912.838 199 196 182
81.2763 3.61358 844.095 184 184 187
96.4704 -152.505 1036.18 56 69 63
-84.921 -41.9241 920 219 193 168
-406.769 340.396 1327.87 207 212 201
1.35566 -120.356 1024.45 222 186 180
129.153 101.008 871.307 74 81 62
-586.011 298.381 1333.67 227 230 224
-40.0101 -84.003 981.319 224 215 186
175.53 200.667 827.607 239 237 230
-348.8 132.123 1395.68 194 156 134
136.334 -32.7536 822.073 233 233 210
-33.9743 -92.8129 975.655 51 59 53
19.7329 -58.4683 882.527 248 220 207
-426.492 33.8314 1284.48 204 187 179
224.181 253.263 1013.6 242 243 229
-479.587 458.17 1407.58 32 43 36
-414.532 -6.59271 1221.29 141 117 106
106.865 -155.337 1037.28 42 48 45
-587.374 105.665 1230.88 251 239 221
16.0756 62.8191 962.315 254 253 238
-336.809 258.779 1497.55 219 208 195
131.79 -43.0642 809.418 25 20 14
-383.342 140.42 1312.91 199 174 159
126.909 103.366 883.017 134 137 120
-277.624 233.114 1253.63 166 171 161
-65.9163 28.0375 929.43 206 204 206
-570.277 156.227 1247.58 136 131 122
-535.821 35.4575 1260.94 249 237 216
288.799 345.261 1141.62 68 82 75
-439.882 211.836 1248.55 251 242 226
-66.7992 83.9244 985.26 118 101 95
-358.286 21.9341 1377.39 40 46 36
-520.061 -36.5627 1121.64 239 224 199
-564.769 110.788 1238.28 136 111 89
-396.23 15.7162 1181.71 59 35 24
-44.9364 49.974 987.58 236 232 229
-14.2117 -139.859 1085.19 234 230 208
-10.4805 153.521 999.362 220 214 215
226.441 221.681 952.112 234 229 207
-498.65 110.412 1265.67 228 213 187
-380.542 137.637 1385.05 144 127 113
-405.973 29.143 1295.69 206 194 191
35.9767 -4.86644 865.906 252 249 236
1.93911 153.635 1001.6 252 243 233
-393.025 42.1897 1367.42 168 164 157
-446.638 95.9615 1121.37 130 109 87
32.7853 14.6057 896.241 247 242 221
-492.399 77.443 1208.44 198 179 159
-363.832 -1.75998 1372.16 78 74 62
-581.668 215.869 1252.7 131 123 120
-76.5254 26.9787 934.336 255 248 248
-539.061 362.658 1366.7 104 104 99
145.066 1.43621 824.741 240 248 232
-526.946 151.52 1195.16 114 108 110
-682.724 14.145 1170.81 253 241 232
35.6367 139.288 969.478 246 233 223
-572.446 149.827 1245.48 230 219 214
98.9749 -176.897 1149.38 209 202 187
-598.694 283.352 1324.91 249 248 245
23.8033 3.52954 894.368 98 83 63
-0.685888 -113.763 1089.12 114 81 85
188.062 117.201 900.861 252 252 235
187.391 129.695 879.957 243 244 230
194.575 109.609 942.184 106 108 89
-601.777 -25.8881 1144.24 251 247 234
217.925 456.924 1201.8 223 249 255
-567.615 116.884 1237.83 246 237 214
-385.715 251.225 1166.92 210 177 169
192.482 141.852 895.941 162 167 158
181.871 179.891 898.039 253 255 241
-732.509 509.75 1912.07 57 64 59
232.996 229.626 976.525 141 139 127
-385.668 203.214 1392.01 50 29 22
-556.477 82.4781 1175.43 226 206 185
27.0956 51.6721 929.227 255 236 231
-546.858 -0.69031 1113.96 123 52 18
-16.5804 0.268397 1110.21 240 232 210
178.461 86.2368 888.405 251 255 242
138.452 -56.6538 858.824 154 160 148
203.961 455.572 1214.16 109 144 159
-475.471 18.231 1090.42 255 241 195
141.732 26.3932 892.063 239 241 224
-40.0657 133.2 992.859 240 231 228
93.9292 -32.9031 948.39 235 246 240
-855.513 84.9519 1100.66 70 71 58
195.884 435.341 1115.18 106 143 153
-71.6376 88.8011 984.576 255 252 234
-61.9937 113.246 987.677 252 240 224
44.6578 172.109 1009.95 135 105 90
179.132 109.424 863.765 232 231 210
-289.978 280.804 1376.71 126 124 120
77.4805 14.211 872.345 210 203 194
-325.972 187.582 1002.99 17 10 3
-461.909 -42.536 1143.36 134 125 103
156.108 3.30187 871.743 92 97 86
27.1221 58.5571 929.582 250 242 235
142.978 145.262 886.911 107 108 104
-646.768 72.9725 1196.18 133 119 114
-471.239 58.8728 1127.78 253 247 217
170.619 129.294 907.5 238 245 234
136.166 -42.376 831.593 188 182 166
6.28432 51.5937 925.93 255 250 241
-603.491 95.9084 1287.46 158 134 114
-374.701 49.0232 1375.13 117 114 113
118.557 53.7604 955.64 206 198 187
9.89996 104.8 1015.84 255 238 224
-442.351 205.306 1246.7 163 141 106
30.9273 -111.645 991.138 237 196 183
-6.62439 -130.454 1063.49 70 74 68
-368.297 148.418 1390.97 161 126 112
32.0782 -107.81 1010.13 215 212 192
25.1318 -115.129 935.755 250 182 171
-17.9657 103.835 995.405 255 235 208
-565.152 242.805 1264.79 240 239 226
-40.0646 123.326 992.363 251 245 247
-418.753 170.362 1375.25 152 143 128
53.1933 -117.219 993.863 121 95 85
227.074 385.061 1162.49 96 122 130
26.9799 19.4932 927.532 139 136 122
-307.239 147.616 1412.14 79 73 68
135.465 62.019 882.064 240 249 238
-387.217 173.033 1315.35 186 158 141
287.62 438.51 1195.66 71 99 128
172.311 135.036 975.273 248 255 252
119.92 -47.1142 794.609 113 126 97
-528.464 381.797 1374.67 115 118 114
-2.91775 51.5367 924.435 255 254 244
-435.729 -56.5092 1099.21 164 144 117
132.199 -11.7887 832.269 237 244 235
-453.418 10.8467 1150.97 141 136 128
139.423 14.2337 879.99 215 228 201
-582.094 322.545 1340.31 97 89 76
-386.444 28.7073 1368.03 93 89 80
173.531 358.974 1152.36 136 154 158
-549.844 100.134 1180.16 236 203 178
-20.4188 113.742 995.493 255 247 232
-17.9731 98.9627 995.137 251 246 223
6.97012 173.632 1003.51 230 210 202
-381.933 196.31 1319.95 150 133 124
129.333 -108.283 950.056 191 189 183
41.3697 150.756 1034.76 255 248 243
-52.9452 38.2374 963.694 253 248 242
-405.364 -61.8826 1333.13 129 159 156
132.74 14.2632 879.206 204 211 200
-614.977 323.852 1395.05 245 244 238
10.3281 326.839 1168.57 94 91 79
125.547 -54.7947 846.262 146 162 148
-387.786 159.378 1323.39 80 47 39
14.4714 173.842 1004.85 246 238 230
135.707 368.952 1146.87 138 153 153
-411.194 224.793 1201.83 142 101 76
-37.6145 138.075 993.57 142 135 135
24.4139 -118.316 1081.15 125 113 105
82.3172 -51.6728 852.353 81 85 75
-579.284 136.995 1240.1 234 220 204
108.744 -174.992 1103.11 125 121 108
-452.609 267.848 1348.48 170 141 128
29.5234 171.751 1007.36 246 234 207
-373.658 5.23994 1300.43 146 124 107
143.74 330.221 1057.93 123 146 152
226.31 214.543 951.614 231 207 198
135.208 27.9724 910.62 245 248 245
-61.7842 -59.9932 943.06 49 44 32
-307.075 322.023 1517.14 7 6 1
-374.382 141.266 1387.8 42 23 19
107.606 25.7043 907.022 145 136 122
-34.8501 -66.6085 914.009 149 143 116
45.4319 -52.8429 876.696 95 135 120
114.044 -31.4904 794.715 242 248 224
7.32598 232.905 1046.68 224 231 201
39.5729 164.493 1008.69 201 172 151
74 77.2177 937.547 244 242 214
213.41 376.586 1132.42 112 125 128
-110.579 -35.4893 901.983 91 91 86
-569.231 491.122 1602.03 100 101 89
41.0552 -50.6529 876.175 140 146 139
-601.594 190.682 1378.87 158 150 150
29.657 211.967 1009.37 152 147 129
121.968 31.2519 832.551 235 244 226
-561.72 113.655 1183.93 226 220 199
-356.115 11.5316 1307.32 57 28 17
143.168 -135.183 968.085 27 84 83
-47.702 -43.5297 824.801 153 153 136
119.305 -48.4538 829.403 115 126 104
-613.315 179.571 1295.53 151 117 112
-2.9952 88.8116 960.484 242 240 213
-375.531 180.177 1320.33 118 87 71
-575.741 512.513 1633.34 37 37 30
-8.27935 219.266 1043.07 120 124 109
10.8675 -56.8701 902.441 148 110 92
77.1211 139.969 976.091 253 242 225
70.3269 51.8594 915.073 227 209 188
-431.735 271.151 1205.86 168 130 111
30.8872 -123.518 990.475 195 154 150
-55.2131 55.8653 915.827 252 250 249
-52.882 -44.6402 911.847 156 156 139
-627.302 42.0072 1088.31 223 221 219
-527.153 37.7801 1125.34 235 229 213
225.239 455.461 1167.41 102 107 110
-652.301 87.6505 1195.51 255 251 234
-618.776 89.0968 1279.3 205 172 152
-375.199 -35.2928 1363.48 92 90 86
146.604 67.6821 935.272 244 253 254
189.301 173.784 944.348 238 248 239
122.157 -23.7292 795.966 210 227 194
-5.13654 -56.1624 887.633 126 119 117
90.275 -88.4645 912.474 116 137 139
112.646 77.2082 910.434 255 254 231
178.181 74.5548 906.518 231 228 215
-459.641 0.852379 1156.22 157 144 124
-649.265 -11.1826 1070.78 221 211 200
-559.464 129.093 1222.63 158 142 132
-380.372 187.188 1267.09 146 122 113
86.6045 85.2872 1027.74 254 254 236
45.7975 70.0879 933.018 232 212 188
-13.429 -41.812 857.423 59 57 53
-583.952 267.775 1328.64 226 226 208
90.8659 -83.4435 883.411 78 88 86
-611.641 275.116 1317.28 151 150 144
12.8193 146.958 917.652 207 200 191
-461.015 59.8901 1064.7 194 153 120
-27.0709 14.8966 887.1 195 185 167
-386.844 -54.8825 1356.54 29 28 25
155.113 65.5424 903.503 250 254 240
-471.068 29.0891 1092.85 251 236 201
130.78 33.9989 824.762 229 245 232
198.247 242.04 962.464 211 217 201
-79.6159 73.864 998.062 255 253 247
198.154 233.716 972.223 222 229 221
119.986 6.66569 805.559 253 254 230
-359.383 211.538 1121.18 105 92 87
95.7997 -44.0762 843.51 130 130 117
-78.1741 41.1772 944.737 254 252 250
195.104 198.92 995.84 232 237 217
-433.902 -80.3121 1207.1 117 113 91
20.4087 171.146 953.316 152 130 108
87.5879 244.655 982.7 244 243 231
106.624 -45.4418 769.786 213 221 208
25.787 -35.9073 874.413 162 145 142
126.069 -20.6446 821.569 168 169 149
87.337 -57.9896 881.908 107 133 127
-61.9397 64.4862 985.165 152 137 131
114.785 -118.528 931.97 57 88 76
126.597 49.6248 851.814 228 238 210
-24.0321 -41.809 855.818 71 64 54
76.6889 176.514 1029.84 230 215 208
-417.23 170.548 1192.83 132 120 90
94.8775 -149.632 1034.26 182 167 168
-395.051 -65.9834 1381.21 72 76 72
196.164 175.148 979.026 245 253 233
34.6455 -59.1853 835.576 114 163 159
-473.781 -45.5915 1148.54 177 136 119
2.15212 94.1529 906.164 255 245 227
151.293 53.8641 935.591 240 248 227
-419.641 164.404 1191.2 52 39 14
130.229 -17.3321 848.826 255 255 240
-615.207 63.3818 1151.44 245 224 208
-667.066 50.1828 1458.2 244 202 193
180.229 213.6 900.58 200 218 193
-494.186 55.1471 1139.72 238 228 198
-22.8757 118.533 995.309 252 252 247
74.5254 194.172 1072.66 148 123 117
180.84 144.24 932.95 245 254 234
98.5125 -62.8775 947.691 67 94 85
119.778 41.5143 788.031 211 231 214
193.135 196.749 926.439 216 221 206
-654.397 40.459 1188.21 251 253 252
-64.2926 67.0396 948.545 243 223 211
-452.024 167.457 1225.6 233 217 197
158.322 155.662 953.233 147 153 142
23.1863 36.6369 962.026 218 184 173
29.5415 176.737 1007.63 206 181 160
-7.77878 79.2339 959.175 207 194 174
45.2944 127.433 970.442 205 181 175
-622.002 26.3502 1142.59 255 250 242
102.827 275.308 1065.62 244 232 205
6.69347 -157.935 1107.77 151 145 134
-575.879 170.081 1180.03 156 132 119
-454.963 40.2439 1021.77 177 154 137
-627.843 12.4113 1137.66 245 219 207
26.7051 130.035 980.865 199 164 153
-364.104 302.223 1308.02 146 145 139
-73.1235 55.575 1083.95 200 191 191
-338.202 120.219 1200.1 122 99 83
172.564 46.8551 911.665 216 219 209
28.7709 147.741 901.644 207 173 148
-528.15 51.0397 1183.69 250 239 227
323.801 454.193 1255.8 137 153 174
-684.415 159.222 1332.97 254 247 225
89.8365 94.8797 908.262 248 245 227
-18.6123 219.019 1041.07 193 188 172
94.8958 -84.282 913.177 133 151 148
-634.482 82.9622 1145.02 229 227 225
-531.865 71.8587 1247.32 144 123 83
-596.961 168.975 1169.55 255 252 238
-592.748 189.497 1243.05 167 164 158
-2.57828 100.78 974.881 188 169 148
18.6611 119.895 965.714 239 214 199
49.4613 117.901 921.677 206 193 191
103.525 85.9848 909.674 255 255 220
-349.393 24.6541 1326.34 63 57 55
-455.874 357.151 1481.89 201 178 147
111.129 272.496 1049.04 237 227 195
-81.2014 54.5642 980.945 255 253 251
25.9554 139.164 967.875 240 208 191
-68.5127 46.9226 1066.54 252 246 249
-25.7365 96.837 922.761 133 90 66
59.9094 127.644 972.769 241 218 199
-412.361 140.049 1086.94 252 232 215
110.005 -32.331 772.128 202 209 182
-477.794 215.395 1234.32 247 239 220
-19.7256 8.36616 953.459 160 163 135
-556.872 102.677 1334.14 217 170 145
64.0586 -51.8145 813.157 54 84 82
165.821 68.7123 857.276 233 239 218
83.5716 195.512 1058.12 193 177 160
-531.061 74.0111 1082.91 140 100 85
-382.66 -89.1435 1286.36 57 51 42
-708.783 32.3773 1225.61 224 226 222
-523.81 68.663 1187.34 253 225 210
-379.572 145.924 1060.59 161 154 143
-433.555 184.054 1139.3 194 153 142
-66.7387 40.1593 982.973 174 169 167
-332.32 273.173 1166.69 84 77 73
-36.6058 187.17 1035.98 115 106 91
-68.6936 48.6866 1152.21 195 188 187
135.967 -133.482 1042.62 39 87 74
-506.271 54.8807 1135.07 243 216 202
-345.57 -46.8716 1183.09 11 14 16
-357.545 47.8067 1457.39 151 150 140
6.63783 45.1725 996.386 228 190 162
173.375 50.4157 915.628 234 241 221
243.147 329.469 1089.18 122 148 138
227.11 448.489 1203.07 154 166 168
171.329 -187.329 1066.38 86 110 103
-554.307 14.0285 1327.31 154 126 106
35.095 63.837 840.681 232 217 190
-635.456 30.0765 1194.02 255 232 214
-318.227 40.9956 1268.45 89 90 80
