-357.757 260.843 1036.36 80 60 52
322.676 -81.0195 941.963 254 252 243
334.249 -68.1297 957.069 227 234 235
379.972 72.7185 1023.41 17 15 6
-437.181 209.239 1020.75 232 221 200
-487.859 490.958 1162.18 47 42 35
-620.683 123.42 992.902 245 242 241
-347.685 159.1 1062.59 255 246 236
-460.077 230.38 1078.19 72 42 34
-477.416 411.975 1056.14 238 241 233
208.283 157.774 1053.67 255 238 244
-380.358 215.479 1038.97 81 53 37
-471.595 114.687 974.443 103 73 65
-456.235 238.59 1033.35 254 251 237
166.091 -72.0686 1051.93 219 213 186
287.914 145.49 1127.94 252 244 238
-414.155 107.095 993.723 62 19 8
264.099 -88.7218 1004.53 246 226 209
-302.456 236.459 1191.9 202 177 160
-518.885 60.8878 1039.29 225 206 191
-504.464 56.616 987.906 205 199 186
-511.213 309.653 1067.7 142 104 95
224.378 -64.9527 1019.65 216 206 191
-375.101 346.28 1149.79 107 88 74
366.984 16.8361 1016.27 212 210 200
-518.851 531.256 1260.75 233 231 227
-384.871 319.236 1144.69 66 52 39
-368.638 329.995 1118.98 199 190 172
138.612 -143.986 1177.83 39 36 27
393.862 125.417 1051.43 52 63 63
-353.864 287.38 1040.3 234 228 216
-543.248 321.125 1065.81 130 127 133
-577.413 348.375 1097.46 113 101 98
-349.615 109.369 1014.55 247 240 207
295.1 -106.328 985.675 206 212 209
-265.411 419.55 1107.74 241 241 232
-323.421 114.299 1217.81 219 195 176
-602.409 126.055 966.149 55 53 52
-340.699 373.832 1098.28 236 241 218
448.677 203.143 1093.08 237 238 232
382.385 -76.3059 1072.83 232 247 242
-372.073 201.656 1014.34 198 160 152
-480.772 75.281 1043.01 81 68 59
-373.36 318.136 1116.38 213 207 193
182.156 -114.21 1137.98 201 193 188
-352.03 377.276 1128.58 122 82 66
-426.481 169.142 964.021 255 246 226
-381.642 95.4764 906.609 209 168 151
-412.104 112.101 994.765 201 156 142
-356.04 281.91 1039.05 80 69 58
282 -3.51259 1093.07 224 204 186
447.923 192.051 1091.39 229 233 231
-507.795 415.551 1092.94 224 226 224
-328.736 151.701 1265.89 189 190 188
176.458 181.689 1136.5 232 225 230
310.438 -109.058 998.379 43 57 55
-363.552 124.101 1054.71 253 243 213
470.352 231.515 1139.23 244 249 239
-526.774 403.732 1123.77 110 106 108
-301.287 380.179 1174.3 255 245 233
-366.193 141.441 1011.7 209 158 138
-563.198 418.267 1209.7 201 186 172
146.875 81.6829 1060.91 251 251 245
-347.397 131.154 955.032 255 242 221
159.541 23.9669 1058.58 246 237 223
431.052 99.7099 1068.22 242 255 252
-483.247 390.603 1098.84 213 205 186
331.497 -125.334 1063.93 164 183 178
260.074 34.8402 1071.93 253 255 240
244.904 38.5591 1030.09 249 246 230
159.628 122.943 1044.3 145 117 110
-371.821 416.432 1213.9 82 63 52
-573.248 445.306 1167.08 82 81 74
-374.156 193.956 1013.1 90 43 28
-449.885 249.521 1036.56 247 243 230
-364.36 117.077 1061.44 149 123 84
401.883 464.894 1259.8 220 240 249
173.144 158.843 1133.79 239 229 221
348.751 -20.0149 1035.29 217 212 200
-313.201 251.003 1280.57 234 206 191
165.59 130.446 1130.83 255 248 238
-331.609 468.51 1196.92 46 51 45
274.65 47.6403 1090.77 255 251 245
404.56 -14.884 1040 245 252 253
174.183 23.0871 1080.61 234 231 229
-363.291 169.733 1114.89 137 100 81
166.889 58.3519 1021.96 218 204 213
224.029 247.398 1104.75 229 233 207
-344.218 465.621 1156.13 229 236 235
-520.507 455.146 1144.69 223 226 218
250.235 164.971 1100.54 132 117 113
-448.848 196.645 988.792 244 228 206
387.183 -15.2799 978.204 242 249 242
263.328 38.6916 1032.12 92 88 77
300.617 -35.7252 1005.86 195 178 171
-538.722 374.597 1064.56 133 124 134
158.921 81.3061 1040.56 244 233 212
-525.178 351.22 1030.83 133 117 112
394.058 -8.28894 1014.86 239 251 252
-552.106 660.654 1409.35 199 197 191
403.447 91.1909 1004.31 241 255 240
294.688 -2.22675 1072.44 214 195 177
-351.336 131.792 1256.5 159 137 131
-357.54 416.126 1183.89 91 45 37
339.521 -117.455 1075.69 185 204 197
190.82 41.8931 1051.53 237 226 221
-432.983 265.354 1091.29 112 112 107
260.903 97.462 1120.84 254 237 218
-365.152 129.084 1085.22 212 195 171
154.541 135.935 1044.7 195 180 177
-508.571 293.365 1019.89 244 227 214
-287.168 357.467 1112.98 218 199 180
-346.614 192.389 1095.24 255 245 211
-514.235 61.2648 966.102 235 219 216
-486.235 373.027 1083.42 196 206 180
390.419 -15.411 1079.67 177 166 161
253.56 184.336 1102.82 61 36 21
293.885 121.506 1100.88 237 222 219
-424.374 72.5887 973.573 131 47 18
-257.48 375.096 1227.34 46 49 43
-504.063 194.733 1093.82 205 179 160
-417.26 65.0039 950.196 126 55 27
413.748 499.696 1358.03 93 135 165
-518.746 351.117 1102.57 123 118 116
378.239 -31.1185 982.902 219 222 214
226.268 244.024 1120.49 225 212 189
111.239 -37.116 986.837 33 37 32
222.179 -133.986 1140.85 206 190 169
388.872 -29.1528 999.603 238 252 251
-292.807 438.782 1338.13 179 175 168
369.612 44.3914 1042.74 255 254 229
177.455 145.74 1069.48 245 242 242
238.466 -67.2941 979.221 83 82 78
361.367 -89.2495 968.464 104 109 95
-540.276 425.99 1177.38 206 189 179
200.83 -72.225 1056.1 173 172 144
212.744 117.632 1091.35 254 252 236
-308.063 305.526 1114.18 254 239 220
401.423 455.099 1258.48 216 233 255
-481.288 228.376 1081.27 149 133 117
-496.674 344.109 1076.68 115 95 92
452.077 227.484 1126.25 227 237 232
-367.9 108.241 1052.04 254 243 215
229.175 27.52 1043.69 239 209 184
-385.792 115.562 1003.61 254 244 231
-299.247 148.185 907.773 250 237 211
-512.784 470.162 1136.48 62 46 37
202.701 -107.271 1095.67 194 160 157
387.552 -8.04524 979.053 232 245 236
192.22 45.0715 1064.51 228 230 228
384.141 25.059 991.065 229 242 230
-438.5 171.021 1017.77 115 86 67
-439.924 204.928 976.249 252 246 219
-386.798 137.02 1128.35 253 239 205
-351.875 45.4195 954.389 244 230 188
-536.728 413.924 1121.24 164 164 154
-395.655 157.578 1003.5 137 97 84
-491.992 143.792 937.747 254 253 246
190.282 92.6106 1067.73 225 193 174
-550.991 577.149 1322.63 103 109 102
230.594 164.561 1098.13 191 161 145
-434.145 376.73 1101.76 236 224 213
469.269 204.53 1169.82 232 247 247
318.694 257.821 1132.35 252 249 227
205.559 31.9637 916.871 210 198 175
420.187 99.6618 1067.56 213 236 228
-322.746 240.912 1077.01 244 224 205
266.554 32.7655 1047.98 126 103 75
193.195 138.179 1115 163 155 162
-351.422 183.937 1093.2 222 205 184
-547.392 423.926 1129.41 177 174 160
378.095 370.152 1244.62 98 130 136
333.61 195.669 1205.1 95 75 67
253.26 -80.5742 899.408 151 151 152
-545.512 483.424 1182.71 231 218 213
214.599 89.9428 994.784 255 250 217
-504.302 325.792 1123.13 136 132 132
-510.09 445.632 1113.97 173 173 171
-325.029 232.632 1075.64 249 240 227
186.546 29.2299 1062.57 208 190 189
285.027 45.617 1075.57 201 185 184
-317.805 358.519 1194.83 255 248 226
315.249 168.811 1108.1 219 194 183
238.32 -131.563 1097.34 118 88 77
-323.087 340.237 1192.28 251 215 194
-562.304 410.241 1111.1 102 92 88
-343.804 125.574 1198.07 182 163 154
395.315 335.269 1241.01 251 252 245
-346.21 462.376 1137.62 39 42 47
-584.68 254.334 1032.83 234 226 207
-358.21 276.476 1037.8 175 169 158
-515.383 416.947 1129.52 194 189 177
167.666 73.8462 1081.27 214 188 167
-524.889 567.883 1331.44 203 206 208
-570.642 508.492 1247.47 82 73 71
-248.794 485.892 1417.11 51 41 33
-601.902 155.01 969.305 255 255 251
-512.295 63.2808 943.647 232 223 206
-308.019 216.588 1013.47 134 109 91
406.386 29.0351 1044.26 223 235 227
-321.378 216.577 1043.47 255 248 227
-400.539 112.242 1041.63 255 239 224
491.838 227.501 1191.54 123 128 123
-567.824 132.617 981.262 148 142 140
166.503 76.6001 1082.28 174 148 127
-382.996 228.809 946.178 226 221 215
-340.57 181.738 993.562 211 196 177
340.969 70.1307 1083.36 240 235 214
243.426 -71.3962 1079.67 98 79 61
168.215 -149.944 1305.37 71 82 90
164.103 -96.1439 1091.94 188 182 169
350.764 527.608 1314.66 90 118 124
-347.964 116.607 1197.05 51 32 19
324.232 -157.041 1102.8 16 68 66
-533.247 562.864 1327.5 105 106 109
-485.693 217.312 1079.07 133 98 80
-514.8 186.796 1102.9 225 198 178
134.97 -154.285 1237.9 224 204 187
-297.217 272.231 1188.28 197 166 148
-474.6 311.007 1081.14 164 157 155
-294.503 324.872 1092.23 161 131 104
314.13 -30.2285 1031.41 93 87 76
218.629 127.426 1117.75 251 252 251
-406.657 152.335 1026.79 192 152 134
439.273 329.845 1243.46 234 249 243
205.561 -115.964 1170.33 244 149 133
-562.591 194.682 989.46 146 130 113
-373.568 93.1886 1057.52 252 219 174
-359.074 126.511 982.931 162 141 123
165.371 55.4371 1061.69 253 252 251
-547.477 324.596 1055.67 245 240 238
347.298 -125.354 1075.11 101 118 109
223.526 104.159 1091.31 253 226 204
-517.704 303.539 1064.62 202 164 150
318.987 400.217 1242.59 89 116 135
-559.575 357.671 1114.04 234 219 216
-428.092 223.021 997.897 106 100 81
340.163 500.925 1365.69 97 136 137
295.426 389.877 1289.4 62 97 112
-403.15 86.5788 956.073 103 43 23
-317.306 252.746 1250.26 98 67 52
239.695 85.3397 1091.22 236 230 194
128.112 -46.0746 1024.91 135 132 125
-557.355 311.4 1100.82 113 92 78
-577.562 390.378 1157.95 255 240 226
283.868 361.297 1185.66 179 215 234
300.749 175.46 1065.84 156 142 126
229.967 -131.436 1096.46 131 102 89
281.299 168.258 1104.44 93 53 50
-307.939 262.527 1183.94 134 116 99
-538.404 112.57 915.166 130 119 118
355.872 443.601 1252.3 126 153 162
419.306 14.0604 1084.79 209 217 197
-322.664 260.036 1106.93 234 220 191
-532.146 365.485 1117.24 151 142 135
358.899 -105.905 1038.59 181 223 225
388.509 454.63 1257.14 80 114 134
165.446 60.7332 1062.07 243 223 230
-522.859 319.298 1064.39 156 149 141
164.338 89.0812 1041.98 141 94 76
309.34 225.075 1157.91 133 135 130
-624.278 138.476 1094.2 255 250 249
153.736 86.4495 1040.33 150 124 119
392.864 5.34944 988.552 214 233 209
-429.805 371.807 1068.27 231 231 213
-357.559 162.083 1015.89 250 210 189
-627.169 142.948 1001.71 253 240 234
346.029 77.7479 1059.82 254 252 228
106.458 -121.756 1095.25 187 175 155
293.893 51.111 1052.48 247 223 202
-534.306 326.139 1060.84 211 198 192
-587.999 194.664 1041.53 176 161 149
418.867 -107.549 1080.74 220 220 213
-316.545 309.524 1054.17 144 110 110
263.026 121.125 1097.57 223 198 187
-517.926 165.352 961.533 238 198 175
349.762 -130.588 1074.57 115 140 131
155.643 -59.1911 1051.64 162 135 109
-397.978 190.561 1048.99 121 83 74
-521.794 346.643 1067.76 252 234 236
283.55 96.4811 1079.51 175 139 134
370.438 -149.963 1153.19 130 139 135
-300.465 295.972 1189.69 139 131 126
219.014 232.216 1049.17 222 220 194
-560.033 182.454 989.251 119 110 103
229.316 0.445815 1065.55 142 137 112
254.347 -130.988 1080.97 231 198 192
-342.574 66.099 1193.35 184 159 144
412.006 -63.7599 1018.76 226 236 206
428.192 132.091 1043.56 211 229 208
310.663 118.975 1102.27 240 195 183
222.934 340.501 1175.42 42 38 26
-540.889 433.864 1133.53 208 204 197
-464.258 147.03 1007.64 156 146 145
-566.605 403.872 1108.66 236 235 236
-540.739 109.226 978.06 250 198 183
298.044 89.4534 1124.55 172 148 119
-537.214 126.381 980.559 250 230 222
-504.584 301.521 1022.14 248 242 233
-507.793 163.407 1007.71 251 241 239
-508.01 110.484 928.466 239 174 165
132.49 -47.3497 1115.66 180 178 170
237.33 -87.0176 1016.33 107 117 109
-490.723 279.68 1024.97 245 238 228
243.373 228.428 1105.65 65 46 34
145.961 40.6179 1017.96 230 216 216
-429.566 464.023 1135.03 121 117 112
251.43 -93.3952 1059.76 32 33 34
275.326 157.11 1102.64 111 90 86
238.961 124.284 1066.79 212 196 194
244.35 27.4908 1093.73 195 146 121
306.945 -117.17 1073.7 46 77 76
119.301 -99.3759 1130.8 103 91 92
275.586 183.708 1149.67 243 224 208
-436.521 83.0082 1012.84 250 202 173
-588.555 248.645 1030.6 191 169 156
444.567 139.942 1115.38 241 255 236
453.724 151.176 1117.37 219 234 221
-501.18 325.363 1025.69 153 135 136
-568.819 274.451 1041.54 235 234 204
331.246 419.958 1339.22 163 204 206
281.665 -181.297 1300.51 104 87 87
-356.531 193.681 1044.75 189 168 145
389.388 28.5017 983.266 243 255 246
-349.175 38.3444 1248 69 68 59
-577.223 147.403 1026.12 250 230 211
187.653 178.369 1107.67 77 74 81
-581.567 300.377 1089.63 171 142 124
-427.942 272.419 1046.1 178 159 157
200.378 168.228 1150.63 202 201 202
-465.039 167.287 1033.14 235 198 171
-321.736 120.5 1204.63 142 130 126
160.666 104.854 1126.59 205 196 184
260.289 226.054 1107.55 246 250 245
325.58 401.031 1294.55 162 197 213
364.106 59.4351 1059.08 245 251 226
212.663 113.191 1050.2 250 233 213
-617.662 141.363 1026.1 158 172 163
-377.446 33.4089 1053.43 162 136 115
457.518 25.9625 1132.91 225 245 217
290.563 111.594 1058.52 179 155 157
-630.139 142.288 1102.51 165 143 141
-328.198 458.659 1160.49 138 143 143
-509.952 366.039 1181.44 135 137 135
142.659 49.6326 1075.54 234 205 200
371.114 370.031 1281.39 115 155 162
-486.689 84.0911 1090.97 71 27 20
-490.53 274.505 1024.55 185 180 176
324.488 151.82 1065.87 170 160 142
-570.813 313.845 1045.4 248 253 248
-488.861 78.6098 1089.74 54 33 27
377.052 357.505 1227.59 147 175 178
-470.496 148.658 985.403 162 162 159
-309.669 123.977 1223.41 73 62 54
-578.047 399.314 1158.97 205 172 159
250.94 170.08 1125.15 105 83 86
135.859 -129.632 1178.89 105 102 90
497.918 203.144 1153.3 200 199 182
-325.663 568.064 1173.23 48 72 62
-609.654 448.892 1219.48 182 172 172
-372.526 455.759 1145.78 121 103 76
258.501 121.715 1056.22 225 194 182
-592.268 293.644 1084.34 158 139 116
-577.279 303.629 1091.8 218 180 159
-579.845 241.699 1033.33 210 191 165
182.017 170.376 1136.2 253 251 251
-383.876 223.614 1012.3 177 156 125
-358.21 38.2375 952.278 249 236 196
-439.218 74.6586 968.923 229 207 200
339.251 479.484 1362.4 220 249 245
433.104 44.7858 1023.26 236 237 222
414.485 43.9207 1060.41 234 243 236
-545.099 66.505 1048.34 196 189 185
342.298 -162.143 1159.01 63 112 105
281.016 -81.6751 964.609 85 73 77
253.085 133.663 1122.73 146 117 117
-549.668 462.225 1134.35 162 158 150
-586.077 270.076 1069.86 178 163 134
481.353 185.282 1123.24 103 92 84
271.035 229.944 1153.91 181 176 163
142.757 58.0058 1036.34 235 226 226
-608.905 207.67 1017.3 227 230 227
-532.74 330.689 1071.44 207 205 201
193.021 127.018 1114.17 181 157 158
-432.704 203.835 1038.44 180 143 109
-273.737 362.869 1071.92 228 177 142
260.282 178.662 1162.49 151 124 124
367.611 157.344 934.515 199 215 204
-302.796 310.574 1247.44 94 76 77
329.56 185.718 1135.91 254 248 237
268.797 226.25 1108.6 253 252 253
-569.744 292.769 1043.33 145 137 117
-586.567 153.097 1038.89 159 124 116
116.173 -121.307 1128.37 128 114 96
186.98 55.534 1064.61 78 72 71
232.303 126.308 1050.79 215 184 181
271.486 220.787 1108.41 249 251 249
336.811 -158.265 1182.81 217 218 213
-593.303 191.847 981.34 191 192 191
-542.992 128.734 1038.78 251 220 199
-452.807 159.588 956.324 183 135 123
184.574 -108.126 993.384 140 41 29
367.703 376.469 1255.61 176 204 208
372.401 242.103 1029.46 250 251 236
-354.566 86.7142 1085.6 158 151 147
318.266 -11.2836 1214.57 143 123 110
239.459 -3.08429 905.142 196 174 152
-346.817 195.689 1021.68 249 238 221
357.898 245.426 1120.11 255 253 216
369.747 -87.7649 992.294 180 207 183
-591.453 318.609 1087.95 172 179 162
