-517.606 368.808 1178.52 55 52 54
339.675 86.6983 952.393 5 8 4
335.447 130.508 938.399 21 28 27
-548.685 350.512 1246.32 49 37 27
284.394 -67.5184 890.037 245 246 215
-586.921 149.969 1111.02 72 62 61
-517.781 384.353 1222.76 239 235 231
175.997 158.333 1029.25 255 246 247
-494.986 18.1454 1015.06 255 250 240
396.552 184.905 999.621 249 255 245
-290.38 394.481 1204.2 208 210 205
408.922 230.123 1019.53 213 218 214
-377.073 164.465 1036.67 35 12 9
427.358 186.014 1074.85 248 255 246
329.932 428.732 1110.06 48 79 94
-303.082 318.381 1169.29 244 235 221
-475.24 16.5082 996.075 230 226 210
233.934 142.769 1017.01 237 222 217
121.976 21.8126 993.138 200 183 184
296.745 -54.0965 905.905 214 220 219
399.629 197.499 1000.98 226 234 230
400.036 207.545 1001.89 229 230 227
-338.254 113.354 1022.46 255 246 230
-530.326 370.434 1216.58 246 245 240
301.605 -60.6884 922.487 237 239 233
-254.308 330.532 1305.9 12 15 5
-345.458 70.0557 997.349 255 247 233
-514.411 473.811 1343.25 52 51 49
-553.044 374.162 1279.59 255 254 242
400.43 170.991 1011.66 236 244 231
255.82 -95 948.629 49 59 55
380.209 462.483 1222.88 231 250 255
290.177 -50.3254 875.677 241 251 244
-602.403 141.565 1141.94 94 79 65
-477.193 161.577 1100.59 241 218 201
275.626 -95.1014 962.88 219 226 222
-490.747 23.1657 1016.75 101 84 70
210.441 50.2379 954.277 251 249 232
-472.765 324.093 1134.38 247 245 223
-338.817 125.009 1045.74 208 191 172
380.808 174.709 997.506 214 227 218
398.422 192.088 1037.04 236 249 242
78.0493 -36.1693 932.688 39 36 36
403.7 323.541 1152.96 243 255 249
216.336 167.743 1017.01 255 243 230
-371.8 218.568 1089.21 103 84 78
-448.413 557.906 1333.58 88 94 89
225.044 50.321 955.904 228 216 206
-438.153 32.0297 989.497 125 78 59
253.312 -22.0916 921.219 197 184 178
-452.978 429.244 1209.99 203 202 203
366.04 1.00408 965.163 249 252 234
409.866 332.389 1154.12 69 95 91
-445.228 195.267 1063.85 255 247 233
202.999 40.7472 952.85 243 237 219
228.132 7.43469 920.753 227 211 207
121.073 23.896 941.831 238 238 237
-435.447 199.522 1094.17 246 245 232
-415.227 37.3982 974.684 137 39 17
-450.54 131.688 1057.45 255 239 212
142.733 40.2599 945.566 241 239 236
192.108 -53.1506 927.422 227 224 214
277.231 -94.3496 918.007 202 221 217
141.401 125.177 998.579 208 205 207
357.451 -13.0051 930.31 235 247 229
375.676 112.431 991.225 242 255 248
248.194 -8.60441 954.36 237 214 192
270.353 -89.7819 917.801 193 203 203
-451.273 134.136 1056.04 95 67 42
146.696 144.044 1044.2 218 212 213
172.902 146.512 954.997 193 164 146
273.256 129.448 1001.48 250 223 205
-524.282 416.719 1242.89 69 58 47
-296.041 270.228 1087.23 136 97 80
-466.759 182.467 1137.07 170 139 116
201.365 93.8426 990.988 237 221 215
268.683 60.1201 944.256 239 234 205
-341.087 79.9933 999.116 225 203 182
226.75 113.611 944.56 251 238 238
296.151 387.59 1192.78 76 104 112
111.299 85.2903 978.545 254 244 232
-364.791 16.1132 989.057 243 237 197
327.108 -8.29008 897.532 199 227 211
-323.642 264.271 1159.24 238 221 206
255.764 -17.5582 921.758 79 69 59
-368.698 95.3662 1030.68 255 249 233
216.772 173.269 1097.06 137 140 142
-293.01 70.9854 1209.18 164 150 138
-523.353 392.958 1221.61 134 131 130
-352.266 146.658 1100.6 255 246 231
222.528 150.862 996.857 89 67 55
325.91 58.2059 966.329 241 240 215
372.833 475.691 1261.39 105 141 160
110.343 78.6776 1015.27 255 253 245
-287.518 369.726 1177.4 244 233 214
392.657 217.006 1016.92 207 218 197
318.445 30.6658 930.58 157 146 139
-479.141 138.067 1076 247 236 222
185.501 234.277 1056.72 229 226 198
243.486 -1.51516 954.389 210 203 196
295.332 -4.94149 940.403 176 171 165
122.227 89.3279 1036.17 146 102 94
372.192 108.28 956.734 233 243 235
263.874 -69.4169 918.773 167 176 168
130.821 56.423 979.644 250 252 254
-479.509 198.622 1133.85 220 209 195
361.586 359.235 1106.5 58 79 79
-564.985 433.461 1320.75 103 97 91
-550.076 312.676 1242.31 62 59 57
222.604 155.828 997.133 208 186 176
125.831 124.152 1060.48 247 227 218
209.597 224.366 1059.23 79 69 64
-292.335 194.559 1220 210 181 160
-302.834 75.8816 1149.87 171 158 152
294.472 395.415 1304.63 70 99 115
198.309 151.424 977.693 92 85 79
266.186 128.071 1069.76 136 105 110
-365.827 54.9704 1033.58 248 212 172
-310.294 170.475 1012.58 164 129 102
-281.301 367.621 1148.88 171 158 140
-291.372 289.737 1090.15 155 131 102
387.866 224.925 1002.4 217 226 210
360.113 44.0171 968.114 243 250 232
169.293 228.511 1054.01 53 48 42
216.123 157.624 1016.16 57 31 25
-343.659 205.32 1148.68 241 207 197
-526.171 342.791 1154.47 239 233 222
-330.401 215.269 1120.33 236 202 167
183.506 -8.55393 915.071 209 187 170
152.97 137.925 937.7 227 206 204
-451.288 38.5103 1030.61 241 221 207
289.499 -69.6701 873.888 216 219 204
-306.545 176.273 1003.45 255 248 222
321.964 334.791 1098.45 86 113 121
298.952 -106.943 951.211 188 213 208
163.847 110.277 987.174 247 239 222
-486.159 627.309 1489.15 167 173 169
-470.113 151.855 1079.89 152 132 114
-455.949 171.018 1108.89 241 217 189
331.83 -9.35893 881.968 139 155 150
110.884 39.4069 975.895 252 251 250
-448.638 147.55 1059.22 135 109 83
-369.123 111.133 1035.83 166 126 101
-539.778 315.094 1146.65 141 132 130
265.765 166.277 1022.52 229 206 195
163.273 241.186 1116.97 190 193 176
-315 72.8666 1147.41 70 46 35
378.721 60.9322 920.927 237 240 229
-444.159 153.016 1061.14 230 208 183
129.428 -66.1007 971.723 149 145 132
374.976 44.0838 969.258 231 242 234
182.408 5.71351 983.046 173 157 141
-292.67 68.7044 1221.53 43 20 6
-455.38 135.126 1034.32 143 115 99
364.132 151.344 960.035 191 208 198
130.763 29.6273 911.052 245 219 218
-268.642 356.641 1246.06 178 184 179
106.136 -50.1201 935.594 154 137 115
392.734 65.5568 952.467 153 154 150
334.867 10.2836 883.977 240 247 237
266.042 353.332 1118.32 209 243 246
165.022 94.3756 951.386 242 213 193
363.194 317.411 1126.96 220 231 219
204.302 256.418 1141.7 237 241 212
-457.136 197.09 1141.35 248 243 226
255.572 176.283 1022.24 126 102 96
-616.762 69.7811 1073.01 237 225 217
210.516 182.294 1035.2 102 87 54
-271.179 180.427 1168.5 192 170 155
-328.299 79.3854 1201.03 165 144 134
278.626 155.418 986.856 156 143 132
237.028 149.766 931.352 195 177 162
-534.029 273.466 1179.62 182 164 169
220.315 219.404 1060.22 153 159 135
-300.514 83.835 1243.74 61 54 49
119.09 -132.653 1015.92 202 187 171
-425.033 173.861 1038.33 252 245 226
298.681 1.58474 880.878 140 140 128
-601.435 74.317 1044.95 250 252 250
320.128 286.269 1014.52 182 181 174
-354.551 102.402 1063.51 207 180 157
368.113 -42.2599 944.763 225 230 204
-445.092 220.651 1146.97 169 169 161
-524.262 258.19 1064.42 175 160 164
122.726 -52.08 952.477 166 158 129
237.915 -67.3233 857.692 129 133 133
150.404 223.436 1097.65 87 71 56
233.743 55.2807 924.283 239 211 184
-282.267 -2.00457 1115.35 38 35 32
325.055 398.518 1066.59 85 128 141
356.898 99.7281 923.156 234 244 229
322.428 -76.2978 875.104 225 230 215
-357.398 217.482 1199.1 182 135 121
-339.229 67.2251 958.913 250 225 198
336.926 10.8256 913.559 192 207 187
142.316 209.334 1048.66 64 60 48
359.502 0.566044 900.466 204 209 178
377.23 472.504 1265.33 77 119 130
193.307 40.7218 951.734 243 231 208
184.888 92.5378 966.601 137 119 97
-392.539 96.0945 1051.91 243 232 214
-511.991 700.039 1646.67 175 196 186
-602.141 82.6602 1053.38 147 136 127
172.558 29.4024 932.173 198 156 141
347.805 56.1751 934.73 225 233 212
-427.265 29.6673 992.779 141 79 62
379.777 81.9178 938.952 228 247 221
125.678 71.307 1017.05 215 167 162
-510.25 252.795 1127.19 158 108 113
182.789 223.938 995.266 234 234 206
-389.267 267.734 1167.95 175 167 156
254.23 -78.5707 962.973 65 64 63
217.187 -73.8074 914.275 149 147 115
278.593 129.553 1040.28 161 113 91
205.204 100.596 1046.07 247 224 208
-493.034 319.925 1164.29 214 217 201
-303.472 364.452 1090.17 32 36 37
-573.286 206.543 1122.43 252 246 215
-514.552 599.37 1474.84 48 50 45
305.647 87.6453 1002.09 253 243 216
355.349 300.381 1100.66 106 89 75
373.811 89.2488 955.02 219 232 217
-455.479 234.343 1144.44 185 178 172
-621.92 93.493 1072.74 239 225 217
289.472 441.476 1195.2 104 131 132
-354.628 252.166 1068.02 242 235 223
-424.606 69.4482 1040.67 134 90 70
186.632 80.6644 953.295 211 206 180
-377.966 87.8862 1031.75 255 247 209
327.649 434.122 1199.16 123 163 165
-279.326 249.174 1222.79 38 14 7
-369.436 136.017 1060.82 205 165 128
169.526 -103.355 1010.52 193 159 129
281.966 258.862 1087.36 255 252 226
-384.204 279.751 1170.28 176 166 157
279.686 -1.56729 925.019 184 180 165
202.593 -116.773 976.398 144 118 106
-343.646 305.675 1103.65 217 215 202
-359.175 241.216 1065.67 245 243 228
409.166 496.562 1266.97 225 248 239
-580.378 254.913 1160.77 165 130 121
-364.91 94.7346 1080.02 178 152 130
-577.68 802.941 1887.06 98 135 121
-375.922 7.8188 1007.29 228 209 177
290.94 -22.0361 924.523 65 53 44
-525.829 278.688 1109.09 248 239 231
-475.655 239.102 1033.93 176 169 169
-414.488 54.2148 997.736 181 140 118
115.911 37.347 931.229 253 251 253
191.762 128.064 991.771 211 186 196
411.634 432.075 1209.48 126 160 164
136.733 156.034 1038.44 255 252 251
-490.842 236.413 1078.48 220 184 169
261.266 174.047 1002.7 134 106 87
129.112 -92.2459 969.931 96 89 84
206.939 153.418 926.392 255 244 233
290.051 324.116 1056.06 124 150 163
170.777 -99.7731 974.27 182 173 153
-345.402 271.794 1072.5 154 143 132
249.218 122.346 900.202 166 137 116
207.292 -73.246 877.701 24 31 15
-558.917 271.359 1170.29 179 178 182
344.561 28.4163 932.505 192 206 193
214.7 6.47898 934.638 218 210 188
-586.54 225.592 1155.72 230 219 197
-327.954 287.458 1048.27 117 104 86
-325.918 300.882 1050.22 193 190 173
295.628 276.298 1092.49 224 202 180
-464.091 121.979 1030.79 250 231 211
-376.749 74.3288 988.339 255 246 241
-422.399 74.6314 1041.62 208 161 151
306.718 80.8447 1039.81 209 207 182
392.838 157.341 996.802 202 219 204
-537.792 122.621 1054.52 245 211 192
-542.187 90.1238 1024.34 254 255 246
-336.609 40.6169 1192.99 170 144 123
-583.205 150.674 1059.29 249 253 255
391.416 124.95 993.562 199 217 182
122.331 35.7189 851.552 246 244 245
-292.107 102.551 1247.58 119 115 111
-286.811 206.515 1323.69 72 28 18
-363.635 227.577 1063.12 191 181 161
-391.788 22.2037 941.807 181 146 119
-526.19 104.655 1057.52 225 222 219
-551.102 307.771 1205.68 245 231 216
419.928 192.786 1002.01 106 94 82
-518.213 277.537 1126.3 162 141 135
379.688 147.231 994.887 198 223 195
-368.756 64.2221 965.528 190 134 106
112.509 58.4198 1031 251 244 245
189.431 -71.3777 911.71 106 110 102
350.986 256.949 1016.5 242 242 226
304.048 145.153 1195.5 205 157 151
308.876 279.28 1109.25 213 199 171
-249.383 203.703 1295.66 95 79 68
276.416 79.4755 980.059 159 145 123
-298.916 249.083 1222.57 129 112 100
-463.698 273.2 1114.7 197 190 191
373.427 100.01 1000.87 199 237 220
392.623 152.333 996.314 172 192 175
-404.656 47.1279 978.462 188 99 68
153.819 -80.5032 973.697 191 140 114
364.289 269.48 1080.46 180 177 174
236.646 222.583 1062.53 235 234 240
-300.984 89.2742 1345.31 12 16 6
406.771 132.248 1029.71 212 226 191
140.068 201.272 1067.11 106 98 82
-267.451 204.727 923.337 248 233 219
-383.667 146.177 1033.52 174 128 107
-293.28 215.132 1217.46 80 40 26
-405.003 186.832 1076.5 178 160 136
323.792 332.53 1099.9 132 162 169
281.612 171.693 1024.67 178 158 140
125.666 37.0465 977.795 165 158 161
-541.86 400.033 1215.43 117 117 112
138.919 -77.7583 937.899 177 121 104
329.451 77.1897 855.278 165 167 153
166.072 37.3566 1080.17 136 109 95
-368.154 -2.1108 967.268 217 203 175
372.23 342.665 1105.67 130 160 165
-419.513 126.997 1094.94 175 143 132
-367.721 373.761 1242.61 195 144 102
-529.706 314.53 1226.12 247 235 235
207.59 117.582 976.195 203 178 159
