439.184 23.2236 1087.3 255 249 243
-216.248 116.952 1010.84 247 237 217
-191.891 119.148 999.13 225 198 172
-209.695 152.495 1037.96 253 236 221
-322.448 268.038 1080.62 82 74 68
-228.741 97.6545 1030.36 246 225 210
-206.507 89.6011 1026.83 235 212 184
366.164 -50.2714 1034.13 255 253 244
-370.89 45.1991 968.196 248 250 241
-254.522 322.088 1100.95 239 233 220
422.337 -91.9375 1057.83 255 251 250
603.039 -68.0691 1070.89 30 38 24
-196.978 109.879 1015.11 237 201 173
-21.2262 343.795 1187.58 207 201 192
-350.163 136.462 1020.12 65 32 26
-220.291 132.827 1054.11 250 214 197
-249.531 347.304 1103.23 236 232 225
-197.73 133.512 1059.61 127 88 53
-258.928 333.724 1052.37 91 90 81
-225.535 114.903 1068.58 81 31 20
-356.144 62.6791 1015.28 52 73 61
-177.762 151.044 1020.99 209 186 171
-260.406 292.41 1077.49 249 244 225
376.123 -229.723 1085.17 238 227 218
-252.006 27.4128 1026.21 45 6 3
408.322 -50.0226 1140.34 95 70 64
573.817 -141.269 984.715 233 253 240
-355.557 56.8773 947.857 61 47 39
-300.964 348.274 1118.68 122 86 80
-204.858 163.123 1039.7 245 232 219
-100.181 21.4411 976.036 251 242 217
-263.072 305.809 1077.52 82 68 65
-119.307 187.605 1061 239 229 211
-264.323 342.903 1128.53 206 206 199
543.637 -2.87862 1189.38 216 201 196
409.936 -73.1917 1075.4 213 211 208
-124.86 185.917 1144.28 55 23 14
525.102 305.626 1266.97 34 70 78
-261.144 392.444 1154.56 14 4 3
402.847 -107.29 1055.07 237 233 235
-107.157 12.5197 1004.19 255 219 188
-356.342 54.9143 953.56 111 114 109
562.772 248.387 1356.94 226 250 255
-335.06 186.329 1050.48 238 219 189
-198.897 104.018 996.773 105 69 42
-324.304 54.9009 905.583 84 92 85
-364.206 44.2723 998.222 79 59 69
-249.601 306.357 1153.75 245 255 242
-204.384 140.025 1014.46 101 72 53
-297.056 236.827 1038.85 125 105 107
-186.225 -24.3119 986.641 77 3 1
-223.51 108.752 1150.88 92 53 30
388.464 -49.9005 1058.13 244 238 236
-188.419 275.443 1095.05 242 243 229
556.982 266.037 1386.84 8 47 63
-130.753 119.123 1030.28 65 23 6
-172.094 12.5594 998.679 180 139 126
-257.001 355.955 1067.85 255 252 245
-258.608 291.575 1050.85 109 98 90
-277.019 70.5487 994.253 251 243 225
-255.981 555.905 1354.89 59 58 54
-206.12 199.794 975.457 247 233 233
566.633 -206.038 1016.2 194 217 200
-272.592 -22.3792 952.8 184 163 157
-73.1722 134.418 1087.55 248 238 216
-156.064 147.772 1095.72 88 63 34
-354.815 138.846 1018.91 108 64 54
-121.237 39.7752 1052.52 232 204 170
479.298 -36.2505 1157.13 253 189 180
-353.715 42.5464 988.728 113 113 102
555.878 242.226 1315.11 197 222 244
-318.913 307.024 1134.97 138 129 123
-230.866 221.988 1055.03 140 146 140
-106.123 6.05846 990.64 255 248 209
430.473 8.49663 1178.67 69 63 67
-81.046 268.643 1029.85 27 17 0
-333.52 54.9668 994.49 116 102 89
548.891 -226.18 1107.18 165 163 157
446.956 -93.0675 997.163 249 245 227
-281.959 237.836 1090.17 158 131 124
-91.2698 76.1492 1051.57 255 240 212
-322.352 259.915 1080.27 154 135 136
-178.391 17.5129 1043.07 232 194 176
552.951 -92.8399 1001.03 220 220 207
-366.234 133.328 1015.43 253 252 253
-73.176 341.633 1125.28 211 214 196
-264.09 323.004 1127.39 192 162 153
-168.016 161.599 1023.56 125 106 88
-215.723 -19.628 1021.7 77 44 29
556.268 265.34 1357.39 19 49 57
514.777 -23.7326 1095.89 99 68 69
-313.005 314.89 1085.37 230 229 228
-196.608 281.654 1113.72 135 131 111
529.977 -148.678 1129.71 190 181 168
-249.108 200.142 1030.44 255 242 233
488.415 97.4567 1032.28 253 254 234
-274.44 249.233 1092.67 246 249 246
-257.361 355.021 1101.56 229 228 223
-344.639 50.2227 975.677 255 246 248
-148.527 357.988 1127.84 234 230 222
326.936 -210.679 1082.52 14 16 15
411.007 18.865 1128.84 205 197 194
-341.455 182.811 1024.59 255 255 239
397.873 -98.7558 1015.45 234 214 218
700.049 340.306 1445.24 216 239 243
-45.4158 244.443 1126.19 247 228 204
-239.438 36.3864 1002.37 243 217 198
-307 248.902 1062.25 233 215 218
660.876 331.789 1402.14 38 77 99
-207.16 -12.104 1069.07 67 36 28
-254.872 -23.3492 932.9 185 169 166
-324.831 104.728 998.274 65 47 40
-316.795 350.116 1137.71 255 249 236
-289.834 237.175 1040.75 96 85 78
-191.978 79.533 1015.18 106 53 22
-85.3812 84.1093 1038.52 242 227 195
498.673 25.6546 1116.21 245 222 217
407.504 38.8949 1109.32 192 176 174
652.578 314.613 1351.37 222 247 248
450.136 -93.6612 1019.63 200 196 177
-88.2113 68.0186 998.619 253 244 219
405.52 -111.11 1097.93 200 180 179
-183.905 -14.5654 987.389 141 57 27
-68.3794 157.292 1104.88 255 248 226
-179.202 -9.7208 988.536 255 230 194
-277.688 325.862 1095.16 108 105 95
375.166 -88.5059 1031.12 232 221 219
-238.379 553.071 1327.95 64 66 61
-228.271 60.8814 965.95 174 156 150
-241.042 255.755 1053.83 121 82 78
-148.804 263.898 1104.06 251 255 251
-72.4246 138.52 1068.52 253 244 225
-408.619 97.0512 1083.05 88 71 64
427.557 2.05764 1128.35 209 205 211
-233.124 490.327 1199.71 211 211 204
-124.895 205.874 1144.8 95 87 76
609.29 165.316 1218.39 208 217 211
408.338 -260.558 1159.68 196 180 170
-339.7 37.6707 1018.9 147 136 121
432.181 19.2561 1041.32 190 150 142
404.037 -88.7831 1033 249 246 248
-291.156 391.745 1124.07 62 48 36
-307.659 277.345 1112.26 251 234 227
-329.513 237.823 1077.23 230 227 219
-367.736 103.657 986.866 246 240 237
-45.4189 255.813 1126.81 254 225 204
-123.046 47.5625 1029.28 172 107 90
481.583 -224.301 949.65 16 42 32
-237.875 69.4928 1064.18 255 248 240
423.094 -187.297 1010.32 140 132 132
410.817 -20.6641 1021.85 222 208 198
-333.996 160.966 964.688 252 249 229
-292.423 42.0237 881.023 231 216 203
-167.725 -37.5542 976.353 130 77 60
-37.0714 261.959 1128.9 228 214 196
-110.117 98.4946 1078.2 151 106 69
451.207 43.4385 1212.33 70 59 71
460.848 -22.9771 1127.88 228 205 193
-144.453 23.837 1038.97 253 218 228
-224.577 83.5879 989.662 239 176 154
-197.765 161.253 1140.2 136 99 80
445.318 102.457 1110.75 189 189 164
-180.348 177.2 1004.52 99 96 84
595.404 -111.351 1025.95 223 244 226
-318.02 224.608 1013.27 106 105 94
-189.548 141.289 1032.02 81 47 29
490.269 31.1585 1115.96 234 214 203
-375.493 66.6777 967.68 243 218 207
559.597 -184.799 1101.53 157 149 146
-338.37 121.529 1022.77 130 111 94
603.918 313.666 1273.86 84 116 130
-275.015 256.293 1071.51 122 130 125
683.323 346.415 1405.22 216 244 243
-266.611 230.479 1093.89 156 97 91
396.03 -68.1879 1057.46 118 97 96
-206.045 -14.5858 1024.1 213 190 193
-288.12 279.568 999.236 197 196 198
494.463 116.64 1221.92 201 205 176
573.256 287.249 1269.24 110 153 161
-45.2824 285.257 1233.29 252 231 213
-126.654 29.8112 1000.63 250 234 200
-311.447 83.0926 1007.7 169 96 80
360.139 -66.1512 971.493 244 235 234
-274.398 278.001 1143.01 148 136 127
-316.502 232.277 1058.58 125 61 44
-171.192 -1.06668 1001 77 22 0
-149.878 191.824 1041.92 254 251 232
-293.282 90.0851 990.792 246 191 155
633.968 -104.795 1080.26 249 255 233
412.156 -255.193 1097.95 142 125 109
-308.16 310.997 1114.29 111 94 90
609.029 -47.1481 1045.9 212 235 218
-187.692 147.026 1062.54 210 182 159
428.444 -292.15 1178.16 158 173 165
-281.71 286.846 1144.23 107 85 78
-246.033 260.765 1052.79 185 142 135
515.12 229.168 1288.16 46 82 96
507.838 -95.1862 1107.03 189 180 173
-131.23 167.675 1076.32 252 254 255
405.581 -263.323 1179.32 186 147 139
529.787 30.1655 1166.56 161 133 125
524.013 230.792 1206.77 98 140 147
-341.455 46.967 1004.28 250 234 211
516.973 23.6325 1092.03 235 211 197
-116.802 70.6121 1046.12 240 208 184
-184.671 114.25 1042.06 154 109 68
-145.487 41.4697 1085.07 231 215 189
672.982 14.9735 1140.95 187 209 198
467.614 -44.5889 1064.87 221 185 165
-156.28 188.322 1010.55 254 248 219
-111.378 144.943 1095.51 224 198 185
414.885 27.2014 1128.07 231 230 227
-122.693 489.688 1172 13 41 25
-228.328 257.395 1121.99 177 155 148
527.717 34.17 1118.97 117 95 91
-284.839 273.214 1090.99 239 216 209
-314.216 50.2031 958.309 171 108 97
-281.004 258.928 1122.14 242 237 238
427.754 -13.0871 1064.06 214 206 207
-53.587 187.454 1053.3 166 136 116
609.364 309.399 1396 76 125 137
-315.883 209.852 1032.72 130 76 54
465.899 102.989 1189.76 63 62 50
-352.376 78.7045 955.719 231 234 229
-134.48 54.8356 1041.96 253 232 202
395.351 -89.0667 1055.85 245 241 246
530.854 -20.6096 1187.33 192 179 169
432.477 14.9951 1143.98 119 116 122
363.824 -302.721 1323.13 56 58 43
-309.606 32.5111 908.686 130 135 113
-307.671 59.7558 960.199 240 221 209
379.501 21.6914 1041.73 158 153 151
-308.361 302.114 1137.66 251 206 184
458.495 -207.059 973.854 105 107 102
-318.849 270.046 1168.83 144 102 93
-221.82 245.984 1085 169 152 148
-337.943 85.7854 1021.37 174 139 122
439.44 12.4132 1157.6 172 165 173
450.73 -85.5093 962.745 198 184 184
393.73 -92.2261 1045.32 130 127 130
558.967 73.0915 1202.29 130 132 130
655.506 -99.7629 1070.03 228 234 224
494.618 70.2041 1140.25 242 239 216
-170.596 -35.0506 923.81 255 225 195
-139.768 321.857 1019.95 139 140 126
-281.88 229.672 1089.82 126 85 72
-134.669 282.423 1128.39 253 254 242
-306.946 310.831 1104.01 211 189 197
-233.645 309.773 1105.71 180 176 153
-334.926 175.125 983.084 217 213 201
514.612 -167.006 1029.48 82 67 65
-24.3629 278.568 1156.23 85 74 62
-127.657 -58.8889 1024.05 222 203 171
-290.733 43.6424 950.275 243 231 221
-384.937 56.8085 980.619 126 80 71
-350.729 114.627 957.805 242 240 243
-308.151 107.377 911.17 254 251 248
-171.905 39.0884 1033.34 209 168 143
-284.831 219.229 1041.3 195 143 126
359.125 -19.3698 1018.9 55 42 26
-277.659 81.9535 1054.58 136 125 111
478.701 -114.156 1103.36 199 167 145
-76.531 225.679 1104.68 175 114 81
528.665 -285.216 1135.9 30 82 80
-73.0655 313.803 1022.92 219 217 222
533.965 -59.8441 1083.38 255 245 224
-383.866 45.0855 964.503 72 57 40
-191.569 -13.3009 919.826 205 185 176
-119.681 350.051 1050.87 128 138 147
-330.775 218.165 1053.64 179 168 136
-244.791 68.3056 1143.1 190 158 147
410.846 -50.0208 964.022 188 175 145
-133.403 -59.6345 1098.81 165 144 116
-88.5282 213.058 1153.02 250 236 225
321.643 -202.705 1082.69 61 61 54
638.136 -54.0439 1086.87 192 221 200
475.496 71.7733 1067.15 201 203 208
480.734 13.5786 1070.05 108 88 87
693.429 8.38085 1174.14 181 200 188
-140.069 265.18 1126.5 237 234 237
462.319 76.9987 1067.22 164 169 154
-387.03 130.032 1078.31 177 177 182
-24.0568 330.379 1208.17 190 183 156
453.203 -133.116 1056.74 141 139 129
375.287 -252.187 1180.38 161 161 173
517.587 -55.7901 1184.2 192 174 150
548.745 -62.9735 1068.61 199 203 186
661.713 -146.748 1118.68 164 202 171
414.729 -235.631 1087.64 63 70 72
490.534 -56.338 1125.74 177 159 139
493.155 -146.444 1058.19 188 168 152
650.652 -74.3382 1087.53 150 158 140
518.98 -103.253 1121.35 94 78 72
373.15 -15.6974 1059.06 137 115 108
583.36 -155.602 1044.52 118 118 110
447.008 -14.3618 1083.85 238 233 236
-209.87 286.386 1110.67 246 246 225
-180.994 113.046 1000.56 200 151 114
-318.725 416.919 1229.83 135 129 117
662.986 -36.0671 1134.02 207 225 192
-213.62 79.195 1010.11 221 162 141
