18.0652 367.366 1254.21 228 224 219
24.364 380.413 1256.36 250 247 241
24.7422 -41.1599 1169.1 255 247 242
480.915 -149.67 1524.67 231 213 206
488.646 -149.712 1525.2 255 253 247
-22.2731 377.232 1246.11 255 248 229
80.6783 -29.7917 1245.07 88 3 1
436.492 -198.353 1440.18 217 216 214
522.915 298.578 1759.23 224 251 251
-97.2335 477.574 1435.07 238 240 224
-1.16733 436.367 1226.44 232 233 230
14.8343 329.391 1251.04 78 54 57
-9.81546 444.215 1252.77 245 241 237
479.736 210.156 1584.74 56 88 96
69.6664 95.6773 1301.67 104 66 39
-61.7273 62.0216 1111.67 97 69 67
-48.0949 139.855 1119.83 121 85 92
554.061 65.6295 1742.21 229 207 188
44.9275 21.5109 1292.13 125 57 51
-28.4442 358.026 1243.53 246 246 247
63.4621 85.0387 1241.03 244 227 210
-75.8971 67.4971 1157.81 182 81 59
-59.1407 54.2017 1066.51 19 7 7
-78.3051 40.3344 1082.57 251 192 168
-76.3129 36.0571 1037.78 115 39 12
-73.0458 61.788 1158 248 222 212
-27.1083 282.301 1183.66 120 96 90
528.852 -7.18455 1637.04 104 98 97
137.47 396.095 1368.05 103 106 104
18.7093 339.369 1313.2 251 233 229
-16.4016 404.115 1220.54 204 179 166
-47.3608 41.9673 1161.94 96 79 76
-1305.55 -69.1505 1880.1 214 224 217
119.592 160.867 1223.07 101 80 78
-64.4272 45.499 1109.94 254 254 246
50.018 98.0221 1271.02 254 237 228
69.2225 117.966 1217.66 243 220 186
-78.9558 151.074 1163.37 47 26 18
548.306 -3.25113 1725.19 232 241 238
-22.2872 361.576 1245.12 87 86 78
12.3686 250.076 1225.58 97 77 60
-9.92106 371.807 1248.48 129 100 78
467.489 -274.965 1880.25 59 57 52
-32.9385 332.463 1185.44 218 194 190
496.83 -47.2726 1625.87 242 239 234
640.012 -73.562 1836.11 255 248 237
432.18 -255.784 1763.55 200 195 190
-28.7611 51.4 1117.62 86 85 79
8.13549 245.434 1188.63 135 127 121
25.3473 362.937 1316.43 230 212 197
56.8316 124.554 1302.09 255 236 222
-13.4312 370.325 1218.36 155 122 106
17.1013 201.401 1123.22 255 242 238
600.713 -256.881 1583.92 228 237 223
63.0936 158.485 1277.62 255 251 240
73.6752 183.72 1311.25 95 70 50
-136.262 -111.464 451.505 171 165 160
-50.4001 254.513 1176.83 134 128 125
-294.76 -148.847 691.249 119 112 100
89.9999 164.521 1312.58 255 252 254
335.871 122.877 1825.92 109 104 96
622.761 252.031 1990.59 215 241 247
545.071 -41.3425 1715.62 250 243 246
37.9693 299.349 1222.67 227 234 211
567.014 -47.3328 1630.63 244 227 210
45.5689 52.0012 1155.92 87 69 69
-74.0985 97.0344 1186.87 250 223 215
495.395 -122.202 1609.31 231 219 210
-76.3946 66.8533 1101.04 233 129 106
546.507 -24.4569 1719.87 250 238 241
86.0192 163.107 1252.36 124 117 105
58.3011 133.998 1300.16 254 236 213
564.146 -70.7112 1709.45 249 230 224
26.9034 220.402 1245.54 222 193 185
505.685 -39.3023 1628.29 96 89 85
-32.9793 196.419 1176.67 247 232 196
431.292 -554.687 1914.3 75 65 48
-47.7768 62.1158 1190.59 130 125 125
553.851 234.115 1780.68 46 83 108
-41.6991 272.651 1179.9 106 101 103
69.8653 106.76 1244.25 244 231 203
14.1514 278.518 1192.03 144 123 115
82.9449 115.377 1306.27 175 138 108
10.8967 390.606 1225.3 192 188 176
54.4021 124.977 1242.96 112 76 59
20.7723 241.975 1245.96 123 88 80
66.3671 171.302 1279.08 255 248 232
-16.4327 245.515 1103.82 247 237 234
-167.686 12.0521 1159.91 147 134 121
545.45 -157.428 1604.53 228 207 188
-86.2026 23.3462 1163.21 157 97 69
527.098 -140.525 1614.71 255 252 250
592.995 62.4351 1656.54 255 255 231
545.66 -132.662 1692.76 253 249 253
416.993 -267.956 1651.03 205 159 152
18.1906 411.594 1256.94 122 103 88
-56.0719 148.833 1168.28 199 184 191
535.044 213.789 1871.67 82 114 119
495.978 -114.377 1611.08 118 108 104
599.499 -15.9875 1725.02 255 248 236
-61.8502 174.889 1168.88 102 104 84
25.4586 67.1008 -197.185 104 97 92
517.454 157.309 1645.02 40 37 25
380.707 -291.363 1758.1 189 182 171
-32.9649 249.464 1180.28 232 216 204
-30.0124 326.693 1185.74 135 116 113
34.2732 82.2483 1086 129 83 69
138.129 198.158 1388.13 255 249 239
-727.235 -23.5745 979.559 85 97 94
66.0079 104.668 1274.67 201 167 146
462.437 -5.09851 1598.99 156 142 144
611.087 -19.2706 1844.34 228 225 221
-11.7508 330.148 1231.11 144 100 95
466.225 -128.812 1438.31 251 241 234
15.1676 272.85 1180.29 251 251 244
86.5747 151.336 1310.61 194 167 149
7.62939 65.7761 1175.03 255 251 251
-22.4482 397.466 1218.67 48 33 19
614.343 -100.295 1827.85 253 243 231
20.5656 185.977 1241.45 104 74 67
-78.2747 150.153 1114.07 192 165 150
-346.615 -10.3787 445.34 118 128 124
512.31 -114.466 1612.2 151 143 144
-16.0292 437.41 1251.04 90 72 51
76.7715 187.823 1252.75 148 141 127
-38.5945 247.577 1151.41 139 139 129
-10.114 249.949 1240.02 155 140 124
-10.0835 268.622 1241.41 154 148 143
565.642 -53.9362 1713.72 253 244 245
695.773 324.858 2015.22 151 160 156
-72.7348 111.491 1112.73 155 116 103
464.671 -71.3958 1580.97 219 166 143
72.2393 76.3481 1273.91 151 101 81
-91.4095 109.44 1210.53 78 14 13
713.283 -21.7084 2093.32 117 106 98
-61.8534 145.038 1117.28 177 137 130
-3.919 268.924 1242.76 252 253 249
-0.583381 313.538 1191.18 190 133 123
607.533 -141.929 1610.8 255 254 232
-132.712 -93.34 476.636 130 140 134
406.979 -49.9093 1364.37 130 105 87
443.013 -4.70575 1465.43 180 163 165
464.06 -52.4911 1542.54 217 197 188
538.898 215.858 1775.34 120 149 158
583.537 -157.234 1710.68 207 189 167
488.149 201.775 1767.19 76 103 123
-27.1388 118.714 1198.35 255 204 183
31.1034 276.828 1236.59 227 176 166
33.3715 277.033 1251.19 133 128 116
546.058 -51.3086 1628.48 248 241 246
744.7 73.3273 1938.3 238 239 215
525.577 256.329 2004.54 65 86 86
-34.3528 124.57 1144.18 170 139 125
127.992 28.5467 1305.08 255 249 232
-3.63242 422.614 1252.9 108 82 66
-6.01123 88.2741 1148.04 246 218 197
-121.531 457.214 1426.79 156 138 129
10.9428 187.381 1038.39 155 138 135
541.786 -249.113 1583.6 152 148 148
176.82 82.7964 -546.349 16 12 11
-10.0374 296.655 1243.44 254 240 224
517.443 -105.458 1799.53 51 21 14
45.0055 340.93 1318.97 228 235 208
119.272 33.3516 1245.97 245 189 155
-2.09514 417.406 1406.81 92 77 64
-27.4645 30.0104 1092.29 153 159 142
144.406 427.352 1438.93 86 84 81
-41.6371 59.3002 1164.53 153 170 157
687.643 -181.99 1768.8 249 254 231
179.94 162.186 1464.05 255 247 226
56.1749 57.2188 1269.38 196 163 155
24.4919 62.6588 -198.25 90 90 81
595.631 310.999 1900.65 159 179 181
571.514 226.701 1774.34 112 138 140
-120.118 75.8056 1175.09 158 129 114
645.133 -237.761 1669.35 182 195 182
460.296 -98.5382 1611.75 153 131 124
585.861 -67.186 1627.13 172 151 147
685.111 -203.058 1762.62 248 251 229
-351.783 -127.059 840.457 117 121 113
2.38192 322.39 1247.91 252 226 204
626.977 -149.779 1609.58 249 253 235
-159.203 -86.9617 478.798 152 159 150
-20.3982 248.704 1297.15 189 141 106
121.27 18.8311 1302.82 253 232 199
71.9082 315.76 1308.67 255 254 232
-56.5855 91.4628 1190.42 76 61 52
105.965 399.584 1374.36 138 119 105
595.12 31.0085 1736.49 251 239 212
-91.8723 8.95488 1161.61 155 123 92
-6.65293 10.1186 1118.84 255 212 200
-6.48062 21.2357 1196.69 227 166 156
-41.6734 160.932 1172.27 218 207 170
-21.2707 44.7307 1195.14 251 254 244
638.652 -149.516 1673.52 152 153 131
69.9642 276.041 1225.94 168 172 158
95.2504 138.359 1251.86 132 131 110
14.7972 316.834 1250.17 248 231 214
446.368 -156.514 1448.45 109 106 90
648.107 -209.715 1676.66 192 196 179
-19.3317 243.326 1237.51 252 207 181
482.198 -131.199 1528.46 255 247 243
140.997 15.6675 1305.84 240 222 201
-31.5434 -39.2118 1110.32 102 79 64
502.624 368.048 1904.51 79 93 87
9.70484 398.083 1234.4 233 228 223
576.124 171.4 1768.6 169 176 169
563.667 -154.298 1463.32 200 207 182
112.91 27.1662 1244.25 243 231 212
-89.9801 5.84582 1126.06 211 188 161
-56.1094 180.924 1170.57 248 232 212
101.102 15.1459 1154.11 174 133 124
-342.014 -247.498 1065.85 123 113 102
-1.47386 2.13362 1220.58 200 115 91
418.364 170.677 1529.34 78 107 119
148.661 71.707 1460.43 255 240 209
-47.3922 82.3101 1165.12 235 243 250
581.988 -110.625 1617 240 237 210
88.8532 325.936 1393.21 253 255 236
-30.0665 208.304 1178.12 247 204 173
-14.1534 238.607 1169.79 252 242 229
138.111 64.0069 1374.29 255 243 216
26.5707 81.0757 1207.14 223 157 145
109.585 138.787 1313.7 184 169 152
-1371.81 -103.567 2166.5 99 83 65
5.94469 272.965 1213.07 155 136 124
611.751 219.306 1879.13 174 196 190
-32.8081 195.538 1098.74 193 153 131
56.2123 40.8112 1293.26 161 146 144
55.2746 408.217 1326.08 131 110 86
-31.5677 73.4906 1161.36 168 120 110
-20.3385 389.563 1118.58 157 138 115
-133.18 6.89052 786.643 162 112 99
-6.24992 365.917 1471.71 254 223 197
571.481 -24.5482 1594.21 151 124 112
456.988 -101.273 1532.41 172 153 150
734.726 -172.627 1856.39 243 244 231
-74.6274 58.8989 972.428 214 144 119
-152.756 185.052 1168.55 76 23 5
-50.3625 201.611 1173.28 255 253 236
673.609 -189.578 1934.76 240 219 194
618.161 291.771 1897.75 173 197 191
-79.7991 194.642 1220.12 190 144 120
677.412 201.621 1978.09 177 184 185
591.942 335.178 1918.14 164 191 190
479.105 304.132 1887.39 47 65 60
588.81 -128.665 1695.98 210 188 162
-4.09657 39.4803 1170.55 255 239 229
659.001 -21.2958 1832.17 174 165 149
36.0358 304.027 1188.1 132 114 96
