-180.545 179.443 1170.61 94 45 39
-44.2921 418.097 1287.04 205 201 198
-269.848 172.403 1134.79 228 189 177
534.897 -191.41 991.316 194 205 196
477.067 69.4805 1198.8 221 212 212
-158.999 248.155 1172.06 253 248 243
-290.826 351.161 1116.53 53 44 36
-379.201 400.07 1302.49 50 32 37
-339.593 456.593 1325.76 57 51 42
580.674 -93.4628 1041.81 210 213 203
-272.091 143.101 1094.18 245 225 208
-402.927 176.42 1143.44 76 57 47
-325.124 10.7724 1153.83 255 251 230
-309.934 474.106 1279.89 57 41 35
403.851 -220.215 1198.41 214 203 200
541.215 39.5933 1196.41 253 239 241
-158.833 230.374 1170.5 112 86 63
381.968 -75.562 1085.78 244 239 236
590.334 327.41 1411.76 36 63 77
-227.726 214.899 1150.67 241 233 232
-259.857 207.348 1140.85 250 242 230
702.527 -40.2089 1233.59 86 95 77
619.259 331.36 1413.78 65 85 87
596.052 309.266 1408.93 222 251 254
406.34 80.8764 1149.4 220 209 211
-284.676 406.009 1170.8 208 203 197
400.419 57.6341 1141.25 219 203 204
-261.373 141.426 1134.45 226 197 176
640.782 353.639 1548.26 209 238 241
662.193 104.163 1100.97 246 253 240
338.426 -141.56 1072.79 173 180 178
-439.476 89.5126 1076.34 246 247 231
-239.361 172.286 1106.87 248 237 214
-155.24 421.086 1206.16 82 74 67
1117.25 -246.354 1485.6 44 46 42
581.207 -220.15 1065.56 188 208 209
-363.038 439.759 1314.89 106 93 82
533.899 -222.936 1065.94 66 76 69
-124.17 112.675 1086.79 253 247 228
-320.995 79.9515 1201.48 101 75 58
-261.351 350.408 1127.5 220 217 199
759.486 102.041 1255.68 238 250 243
580.306 305.596 1347.25 193 217 254
-137.573 86.537 1114.44 255 245 235
-241.732 161.007 1104.97 255 238 206
418.274 -59.6679 1089.02 244 239 237
-291.34 377.599 1168.27 225 203 192
586.554 -189.445 1070.17 181 189 181
361.552 -71.4851 1009.05 201 188 186
669.319 390.482 1364.34 78 103 105
-301.945 14.8214 982.395 198 190 181
-297.2 392.227 1168.65 238 236 239
-236.875 178.011 1108.2 142 109 83
469.515 63.7604 1150.71 213 183 174
-160.879 83.2193 1090.62 255 241 220
-148.216 75.2526 1110.93 255 242 236
523.539 -227.881 1058.73 157 180 176
479.667 -67.7558 1087.69 224 220 200
414.95 -17.6915 1172.41 255 245 245
711.861 -19.781 1184.98 235 255 236
-267.412 183.997 1136.55 227 201 171
-148.049 55.9319 1109.33 239 245 239
487.541 -58.4588 1090.1 215 209 200
-293.629 426.788 1172.02 133 128 127
-106.503 325.046 1084.52 107 71 54
-298.816 352.408 1156.97 209 189 175
-342.822 410.516 1205.5 143 132 122
-286.482 360.685 1213.67 250 255 234
-239.661 138.608 1059.9 119 78 52
510.251 -169.361 937.875 226 232 221
-287.464 292.191 1204.21 135 122 124
-377.697 234.666 1116.7 255 240 218
398.2 -39.5098 1089.38 235 234 234
530.158 16.5313 1143.68 225 218 218
649.016 -113.366 1111.32 230 241 222
387.123 -7.33251 1136.15 183 154 157
439.227 0.929408 1096.86 250 229 202
-408.267 104.481 1134.11 95 85 72
-411.967 106.901 1088.76 99 118 107
-151.332 70.2409 1140.31 243 239 219
-305.273 434.212 1217.24 155 149 150
-297.441 162.309 1215.8 136 105 90
-302.746 319.032 1155.44 140 144 139
761.53 124.159 1258.87 219 233 216
688.796 -93.5938 1173.95 240 251 249
574.074 301.792 1406.56 63 101 117
-189.656 191.585 1122.68 140 121 96
438.299 56.0164 1194.59 212 205 207
-215.733 321.658 1129.59 251 255 243
-247.213 15.9025 1112.1 107 36 10
-129.428 112.517 1085.56 255 248 221
-163.846 413.987 1203.1 194 189 178
428.342 -80.0591 1173.41 209 206 210
-156.734 58.8267 1138.21 250 227 191
-257.049 198.87 1140.9 139 106 82
-160.444 90.0617 1075.89 223 161 133
-213.966 215.832 1118.74 156 140 128
-275.731 632.921 1441.27 94 94 88
650.014 -105.293 1112.93 245 255 239
-73.4169 315.414 1253.52 250 241 229
639.874 -91.3857 1076.71 239 255 236
-345.399 9.53077 1165.61 245 237 227
-245.37 214.039 1109.68 236 211 199
-299.667 493.146 1283.71 168 167 164
-119.031 129.359 1089.68 255 243 216
378.11 37.9831 1104.02 71 65 62
659.501 -113.285 1110.47 243 254 231
629.943 -88.7838 1077.92 239 250 245
-254.08 437.071 1233.42 213 227 200
707.144 389.995 1417.51 231 253 255
381.059 46.571 1052.06 80 76 79
634.888 -132.774 1068.83 234 240 223
566.889 75.7517 1253.25 159 142 131
450.872 16.6568 1143.77 248 233 228
-112.397 188.519 1189.07 255 251 228
-299.669 331.435 1205.59 129 122 116
458.952 -252.35 1248.23 208 180 164
323.277 -180.42 1153.21 59 53 46
-232.746 337.486 1180.01 173 181 165
-279.728 390.125 1086.17 152 150 148
-123.98 152.292 1205.65 255 248 226
-293.647 306.528 1105.25 251 246 244
390.254 -240.751 1269.36 232 222 225
-150.649 271.055 1189.8 71 58 41
-100.983 213.223 1194.95 243 229 197
-435.833 131.058 1077.21 232 223 218
-442.663 111.07 1077.71 255 240 236
-292.962 68.8118 1080.05 244 231 214
413.314 -181.49 1157.28 188 184 159
-361.437 347.518 1241.87 238 219 213
-92.2974 412.747 1229.11 135 133 117
-433.949 198.303 1189.12 149 106 93
475.16 -183.294 1113.71 94 88 77
490.512 258.325 1278.58 35 35 26
-318.288 291.552 1143.53 151 131 121
-201.423 94.8493 1237.93 255 242 235
668.709 183.827 1387.17 255 255 237
434.667 -242.082 1182.51 234 200 191
-356.852 358.458 1191.52 161 155 147
-272.062 21.631 1125.55 116 69 49
476.299 63.1607 1071.63 217 187 180
-147.854 277.276 1191.29 161 146 128
-168.659 -9.71613 1098.84 220 199 163
-415.989 87.6527 1084.98 172 163 165
-219.639 347.77 1180.1 250 243 228
-256.815 266.962 1112.05 143 116 114
-64.8747 309.733 1173.49 250 220 202
431.382 -55.3781 947.309 171 152 144
692.267 46.4449 1151.26 227 244 239
439.457 -169.235 1073.11 168 170 162
-319.228 338.887 1200.26 134 111 103
592.549 82.035 1254.88 134 110 104
-116.429 134.911 1090.85 180 157 136
375.351 -55.4309 1086.04 229 221 221
-183.005 63.5624 1057.25 249 240 241
-314.468 271.555 1192.73 253 249 251
-238.267 196.968 1146.09 168 142 126
-381.724 226.187 1070.17 255 253 241
-271.319 318.398 1212.78 163 147 153
442.085 -72.4964 1167.91 255 252 250
-219.806 39.2479 1073.47 101 41 11
422.747 -32.3699 1177.54 116 74 82
-185.064 49.83 1099.76 170 122 81
436.115 147.997 1207.83 157 152 127
-292.747 323.323 1155.41 202 170 155
-152.334 308.01 1268.71 228 222 211
709.399 57.4334 1199.82 222 241 232
629.565 -124.739 1079.62 207 225 211
-328.399 235.434 1001.86 144 108 88
-145.73 49.6954 1039.04 250 238 208
-419.698 183.796 1095.33 245 240 239
546.291 61.2022 1109.23 139 123 106
-153.022 151.159 1198.35 161 137 114
-68.3505 346.097 1292.61 253 230 224
509.51 -204.719 1110.68 123 120 121
514.977 90.6094 1203.76 123 107 95
-126.075 408.978 1142.67 74 81 86
-316.251 312.34 1146.67 170 159 158
-375.694 95.5316 974.941 152 156 152
399.862 -237.27 1195.62 213 164 152
-103.461 182.328 1098.7 250 244 220
575.447 385.073 1362.34 73 104 106
532.237 -116.708 1120.12 187 184 163
508.136 22.1622 1145.04 254 238 236
492.093 -81.3329 1169.82 226 190 165
-140.625 186.028 1090.34 249 228 214
328.585 -191.592 1151.97 72 71 75
480.011 72.2762 1108.5 220 193 184
-77.0398 320.436 1311.95 227 210 199
441.847 39.6403 1192.44 182 180 193
511.581 28.8181 1291.78 252 254 254
-311.449 316.106 1064.09 255 227 203
-371.65 147.69 1051.39 157 159 149
415.484 -214.601 1144.53 181 154 151
-376.655 336.313 1287.07 255 248 246
-121.471 352.946 1212.72 146 123 108
-362.038 104.378 1037.61 245 252 246
-331.324 335.62 1183.73 248 229 221
691.309 64.6965 1147.38 188 205 197
525.078 -64.6405 1127.87 219 199 187
490.62 -7.54888 1140.98 237 198 182
617.472 -13.8968 1055.23 201 226 213
-358.17 412.692 1252.82 219 209 193
-194.972 412.238 1202.39 215 219 186
-339.165 295.539 1137.22 174 176 176
-415.066 97.9519 1171.89 251 240 231
384.011 43.5185 1105.16 165 157 158
542.466 59.9749 1137.01 226 200 185
615.591 74.5799 1285.32 77 53 44
-153.846 127.776 1124.84 180 117 84
687.056 186.038 1416.55 232 227 212
520.938 -137.637 1038.86 118 115 107
-188.185 57.4988 1065.8 232 208 192
-348.438 295.905 1091.89 173 161 161
-369.315 74.8442 1006.03 148 132 133
-263.662 642.901 1443.77 79 81 76
-326.987 342.258 1063.25 250 249 249
538.786 67.4727 1242.8 68 32 33
-77.3653 270.008 1159.17 242 224 198
449.988 -260.131 1303.49 187 149 149
-219.97 155.428 1066.94 169 129 93
-374.108 328.601 1180.07 182 161 155
-323.851 310.68 1194.95 240 237 227
666.963 -129.405 1120.31 203 230 200
532.21 39.5926 1196.17 253 243 239
690.333 393.949 1418.99 73 109 144
503.884 164.473 1265.53 201 203 173
589.47 67.5357 1245.65 251 234 223
-261.153 234.198 1154.39 154 142 122
-263.066 26.1358 1135.88 226 183 179
-310.174 268.316 1095.14 159 115 101
281.573 -196.597 1064.62 157 149 143
-89.7399 292.962 1305.71 178 157 129
686.096 349.053 1354.56 237 255 253
556.139 60.1097 1250.24 119 95 103
-229.81 23.806 1042.62 154 75 39
-84.632 257.507 1161.32 238 222 196
-361.886 488.454 1323.25 89 84 71
355.911 -269.846 1346.5 100 87 81
391.481 -54.3077 1089.45 250 249 252
-145.085 286.557 1193.14 112 93 83
581.175 -133.742 998.55 213 233 227
447.793 -62.9051 1050.26 191 188 162
-118.535 312.857 1118.18 139 110 101
-435.379 237.505 1193.31 247 246 228
-335.676 92.4586 955.094 255 235 235
-256.336 154.05 1144.44 222 190 163
-414.445 147.035 1047.83 230 229 219
493.558 -181.803 985.088 55 68 63
-399.306 218.869 1107.11 230 230 206
-6.77652 457.681 1555.72 120 107 94
571.234 -207.408 1028.25 104 109 98
749.288 25.7146 1242.1 216 241 227
609.557 -25.2975 1185.91 190 189 181
-113.19 587.67 1347.68 70 96 84
620.156 -150.74 1066.44 204 231 219
486.726 -315.016 1398.43 179 181 173
-275.767 105.627 1046.48 183 184 181
-87.4436 252.168 1190.02 200 175 153
-73.1231 271.321 1122.92 212 174 162
522.791 -31.8516 1011.3 141 140 130
487.075 80.9071 1357.37 247 247 247
590.705 -214.539 1056.97 182 188 180
-75.901 292.054 1196.31 255 240 223
-302.795 266.352 1098.12 232 183 169
-319.428 301.087 1131.42 239 233 240
-329.038 12.8736 1021.16 87 69 66
-356.36 140.328 1105.16 253 189 173
593.793 -32.9883 1138.47 239 242 225
533.686 111.755 1162.34 255 253 238
-350.898 86.5701 1055.75 252 247 236
-345.124 49.4587 1020.17 120 56 42
597.324 -12.9087 1290.55 169 136 137
-307.589 283.678 1145.99 171 120 112
616.945 -174.798 1032 202 230 198
370.917 -47.3708 1118.61 212 182 170
457.498 24.8869 1132.91 252 253 255
-391.178 129.858 1099.06 175 142 118
599.428 54.5013 1199.96 169 161 149
-407.661 84.6339 1132.3 200 181 183
512.707 -115.096 1078.55 115 117 105
-326.854 315.026 1101.85 159 155 152
406.931 -63.1937 1129.37 180 178 182
467.939 -246.416 1195.66 143 124 103
-373.564 275.797 1173.26 179 140 120
-159.107 116.318 1122.24 245 208 168
-343.498 283.446 1174.58 193 136 120
-335.389 261.662 1047.07 162 89 58
-419.1 322.336 1270.02 174 177 175
668.342 233.447 1327.52 219 230 220
603.359 -68.4102 1030.32 226 238 213
553.279 -121.806 991.031 56 56 46
-232.428 200.003 998.225 184 182 186
-160.452 110.142 1158.93 232 186 153
-389.325 213.93 1110.05 211 200 172
-184.895 87.4242 1181.64 203 188 175
471.183 -10.8693 1044.71 245 229 208
-231.522 244.934 1164.43 179 150 146
-336.718 416.666 1260.02 72 62 54
677.379 -240.805 1201.84 139 149 135
542.41 279.958 1393.15 78 79 67
614.884 -141.608 1047.13 216 240 233
-292.678 350.416 1067.88 217 215 206
732.585 -34.1563 1385.22 248 248 209
-474.473 63.9212 1093.93 219 199 178
568.385 142.766 1310.71 245 244 242
633.312 371.854 1421.25 135 166 186
444.892 -291.034 1298.48 68 71 64
-270.58 709.058 1583.67 93 95 91
472.554 -187.041 994.248 130 126 138
427.69 20.6452 1063.69 255 246 248
-408.144 163.38 1051.87 196 196 200
739.255 -60.0019 1345.89 181 183 159
496.956 124.693 1160.73 157 152 134
-367.888 50.2071 1144.32 190 103 78
-386.145 88.2045 1044.5 252 248 243
-340.634 164.591 1169.27 221 181 156
534.936 69.5202 1251.27 122 104 99
536.356 63.7787 1153.3 126 94 82
481.016 -0.333069 1184.07 247 236 208
-126.807 133.436 1101.64 246 209 170
587.463 -51.7788 1087.66 241 245 218
557.106 -72.94 1279.74 122 113 101
619.394 -37.9707 1035.43 244 253 239
615.794 356.602 1376.4 118 151 161
681.56 445.774 1646.74 138 175 188
-216.631 391.765 1101.86 173 176 145
501.705 33.7225 1194.23 197 171 176
-60.4103 327.536 1169.36 235 183 143
