169.992 -60.3665 1664.57 255 250 238
-61.8553 411.809 1110.33 255 247 218
-38.55 21.1321 1161.06 255 249 231
-66.5227 384.388 1082.9 237 226 217
2.37827 467.296 1259.4 94 94 89
187.636 258.533 1831.37 79 77 73
-44.6769 302.724 1180.28 255 241 234
-29.8765 -14.325 1268.86 36 17 4
184.463 -32.875 1883.15 217 196 184
156.247 -32.8992 1633.15 97 73 64
181.542 36.7885 1779.44 74 63 53
-46.385 10.3288 1211.1 204 184 176
-56.4896 445.81 1113.7 179 157 149
-45.5925 399.764 1134.37 92 84 81
-55.4234 510.067 1189.7 215 212 203
-96.0419 203.469 1066.44 41 26 19
176.223 20.1561 1870.85 234 204 184
-91.7211 66.6939 1018.14 135 103 81
2.56351 -6.96788 1315.37 255 254 231
151.767 313.468 1835.3 210 241 249
138.149 36.3789 1507.55 190 183 184
32.86 247.73 1373 71 68 70
-30.2919 465.21 1169.26 124 123 118
-29.8111 -189.167 2033.17 219 225 219
-44.7752 388.726 1185.38 255 247 234
-16.2719 195.122 1233.44 132 98 74
-86.8122 89.1639 1020.22 101 39 19
-82.2391 114.495 1083.27 109 85 75
-42.8033 405.653 1135.23 239 231 229
-61.9029 514.961 1218.32 130 114 97
-70.9953 410.633 1180.81 224 211 206
-61.5455 345.882 1153.35 135 127 125
-38.9363 404.013 1187.58 239 237 231
-40.7982 479.85 1220.55 106 82 61
-90.3897 87.5692 1061.32 216 149 131
-139.441 134.175 1053.5 159 143 131
-27.2347 494.652 1246.38 177 175 180
-80.4371 225.042 1070.9 100 88 81
-0.731462 476.879 1260.31 64 63 62
156.071 348.072 1951.63 57 78 97
-54.1938 322.363 1147.74 129 98 112
-62.4899 179.676 1091.27 122 80 49
-25.3665 5.86967 1248.15 153 119 100
-85.8546 -7.47024 1257.27 165 174 172
-62.5978 296.091 1095.69 157 138 125
-98.6585 208.569 1066.14 206 183 170
-10.4762 38.6805 1316.4 182 103 81
33.6979 315.904 1287.83 50 59 60
-85.0725 316.544 1140.85 108 55 58
-12.7338 209.304 1264.13 248 237 215
194.841 338.989 2087.71 101 135 130
166.069 80.7672 1738.93 57 57 49
-28.6416 366.426 1213.78 241 244 227
-78.0302 307.809 1075.78 25 0 0
199.749 100.278 2039.55 125 113 102
152.253 21.2806 1773.97 216 180 163
-86.8291 94.1715 1020.47 159 106 85
-56.4533 35.1336 1186.7 200 180 160
-40.7472 448.992 1218.12 228 216 211
173.249 68.1803 1692.2 210 199 193
-85.3189 121.724 1064.29 176 108 91
21.4265 -99.8186 1806.5 8 2 0
-88.0207 -8.31441 1383.64 43 55 52
74.5038 -139.904 1834.47 15 9 5
121.103 385.16 1821.08 59 93 114
-9.55646 234.947 1268.83 114 97 88
-64.9538 330.851 1126.69 255 250 255
-36.9381 312.136 1082.62 240 224 224
195.179 80.6012 1876.42 198 200 195
-78.5007 240.547 1118.47 253 238 226
-37.132 329.526 1132.57 126 108 106
-32.7872 448.232 1116.99 99 100 99
127.921 336.552 2056.1 88 124 116
-17.7808 29.2746 1088.77 177 108 92
88.5851 89.2098 1772.46 142 126 110
-66.9479 90.3659 1066.2 255 247 238
-40.3626 420.778 1149.57 112 106 101
138.59 -23.9708 1563.09 136 113 100
132.871 -6.86751 1732.54 153 130 112
-34.548 338.914 1176.24 161 116 112
-119.302 194.812 1060.95 73 30 16
-98.9246 282.889 1070.1 79 55 48
-61.3363 378.675 1262.91 245 222 217
-51.1738 80.0177 1068.64 255 247 238
-98.5309 174.311 1064.35 206 176 167
-133.819 332.215 1088.32 131 111 105
-102.257 308.576 1167.67 235 235 229
218.794 -189.154 1845.11 180 199 196
155.119 58.7736 1779.51 55 33 39
1.72968 7.25868 1277.68 180 155 134
171.43 361.473 1849.16 127 154 154
-70.9362 291.905 994.843 177 163 169
-36.0671 298.68 1223.07 194 160 158
-34.3268 268.807 1129.85 147 110 101
-103.66 160.95 1062.54 91 40 35
-34.7163 351.361 1266.73 178 144 139
-88.1076 169.224 1066.23 173 144 141
-60.0627 123.666 1212.66 250 245 230
197.043 3.69813 1780.94 242 220 192
-32.9072 139.307 1171.42 222 172 160
-100.229 -124.7 1675.85 92 91 78
215.756 -20.6934 1771.75 237 231 198
-86.7518 125.85 1065.03 225 173 161
-58.9064 83.3612 1112.74 243 254 247
126.729 339.322 1644.25 109 135 142
164.407 49.1811 1746.27 95 78 84
-91.4716 110.631 1183.3 139 131 123
-67.1373 32.8399 1156.26 235 203 183
137.391 61.5058 1533.78 118 101 98
-66.7676 437.218 1230.55 250 254 248
-53.3494 128.509 1047.84 246 218 211
