62.2931 -71.7359 1821.18 11 5 4
81.5712 -46.889 1348.67 223 209 200
305.693 -88.4837 1634.02 246 229 221
19.6707 2.45152 1223.29 255 248 225
-20.3441 374.197 1139.86 193 185 181
282.479 375.705 1843.73 50 77 81
-4.35712 490.162 1231.7 242 243 234
-35.9067 296.462 1156.08 87 76 69
9.55818 394.742 1194.06 239 233 224
-116.378 70.4452 1071.85 192 161 157
-13.1328 429.736 1252.35 255 252 220
-51.395 72.8721 1067.81 121 35 16
-12.9632 317.915 1162.98 117 105 109
-46.1292 98.9658 1070.61 185 98 73
-129.651 449.822 1167.37 158 153 148
-102.658 116.741 1105.09 184 160 155
16.0744 425.538 1249.9 239 232 227
309.753 -68.4362 1684.91 123 103 95
-42.4164 185.396 1097.95 96 63 57
50.5815 180.072 1305.69 153 125 110
56.0955 12.867 1244.86 156 59 31
10.6183 367.311 1223.95 207 180 171
82.9172 463.392 1366.41 94 92 95
-51.3965 78.0802 1068.16 235 160 136
46.309 480.985 1318.39 163 175 185
252.872 -30.9155 1576.62 202 171 162
320.844 6.52491 1794.85 244 222 216
-17.3431 223.318 1295.13 47 16 11
-9.42298 448.379 1208.18 239 233 226
-4.48187 415.764 1225.16 113 89 75
337.961 220.554 1802.32 45 36 22
-22.4469 401.014 1248.27 255 251 249
-43.0699 205.701 1159.13 218 201 189
9.34016 286.645 1229.73 246 201 190
326.265 -63.3225 1777.6 237 221 212
-10.051 414.315 1251.98 148 133 126
-4.43654 458.683 1384.69 255 243 234
-14.742 303.73 1136.9 164 152 158
228.959 305.418 1956.28 139 155 161
13.0841 -8.76159 1168.33 179 173 164
68.336 -41.1831 1285.17 138 116 93
28.1096 346.919 1242.02 245 245 227
-51.3851 54.7256 1066.61 255 248 233
-42.6662 84.099 1115.79 219 211 196
16.7603 478.791 1311.63 107 83 64
-11.0416 469.508 1198.05 118 94 74
-158.104 60.0549 1088.64 184 157 142
38.9197 134.747 1213.05 140 100 80
-15.6035 139.977 1070.16 118 82 82
17.9341 387.769 1256.32 252 247 237
306.032 57.0619 1676.19 113 103 97
-4.37891 474.618 1230.39 94 83 71
23.5294 327.415 1278.01 142 137 124
48.4035 219.974 1270.54 162 139 132
49.3867 8.80838 1287.08 167 103 84
33.8808 467.602 1265.09 126 136 133
-16.5785 451.956 1225.69 70 39 23
14.6019 300.318 1249.14 151 139 136
-56.2429 196.576 1170.8 39 21 17
12.0321 260.009 1177.83 84 49 49
-56.6349 49.5872 1065.21 165 143 120
50.6565 192.978 1307.01 149 124 116
-15.8747 11.1426 1164.4 222 196 182
8.68788 446.893 1258.3 151 148 145
52.8955 478.048 1319.44 56 57 58
249.248 316.235 1962.75 91 124 116
1.51327 13.8378 1168.03 254 240 223
28.1647 605.292 1317.44 65 86 75
-42.4342 204.448 1099.62 112 77 77
63.9205 212.779 1311.73 169 170 160
4.73195 453.499 1230.58 250 245 237
308.148 -10.5444 1697.77 235 212 191
18.4111 292.606 1309.49 197 151 147
301.549 35.3556 1707.07 140 119 115
-35.7724 -3.87444 1126.66 213 200 200
196.471 -146.743 1650.14 68 72 68
43.8502 147.845 1300.98 220 193 172
300.546 38.5363 1599.48 235 221 221
45.8418 -37.7762 1281.33 129 110 87
-67.226 137.97 1068.8 122 69 60
318.945 308.543 1905.52 80 113 113
93.2103 75.3566 1366.28 246 225 213
-41.7338 172.61 1037.7 252 235 237
45.5877 201.46 1224.55 250 227 214
-19.5504 154.392 1079.6 170 137 120
-94.566 116.595 1106.92 170 151 146
276.801 270.452 1850.91 98 122 123
50.0281 -158.778 1705.05 66 70 55
-21.6462 11.2128 1163.25 107 81 65
28.0155 59.4563 1177.13 162 129 129
355.433 -28.9328 1790.36 255 241 217
132.327 -202.519 1799.06 215 215 205
-28.8483 71.9808 1060.01 253 233 217
-147.146 564.566 1459.67 95 98 92
331.582 48.8278 1815.76 116 98 89
53.7736 167.274 1305.05 252 239 216
-20.6099 273.728 1110.28 141 142 128
-57.6055 188.678 1107.81 206 165 156
200.454 -152.707 1605.91 72 68 65
284.421 253.924 1660.77 228 249 253
-30.1884 185.157 1146.66 175 130 123
335.629 21.72 1801.32 243 234 224
-28.8606 78.6778 1118.21 152 140 133
314.378 380.955 1881.21 117 144 144
-18.7055 367.177 1166.01 166 147 150
-209.558 -15.856 1284.55 75 70 59
44.5593 129.033 1258.15 248 231 209
-6.791 13.4264 1117.56 177 167 135
-14.9769 89.6375 1121.8 178 165 158
-67.7542 207.755 1169.09 164 142 122
-3.36448 351.731 1274.35 175 160 151
9.9131 441.081 1250.53 247 243 240
-43.7091 0.161931 1210.32 128 100 82
-174.02 252.835 1200.32 88 41 16
302.595 -69.9293 1571.62 253 251 248
-143.46 447.054 1175.2 154 152 134
327.749 -0.670498 1661.29 255 246 233
-20.4133 227.787 1130.73 242 207 181
-215.881 521.291 1433.37 128 120 102
379.85 -2.80463 1800.23 153 141 132
-200.927 93.8822 1180.46 69 27 15
-7.82892 308.34 1133.58 236 181 172
-14.7863 258.874 1133.92 170 127 99
-27.4022 11.2569 1162.11 230 200 181
338.462 271.559 1861.64 143 164 169
-48.2072 149.639 1119.38 169 134 112
83.6237 66.1806 1258.74 210 183 171
298.651 19.9261 1795 154 125 126
-26.0131 236.079 1130.05 165 131 108
363.611 7.04888 1905.87 221 217 207
330.918 24.0977 1800.75 109 88 84
333.676 297.988 1972.91 115 139 160
-33.0385 247.818 1152.12 199 165 158
-92.2295 316.902 1225.95 134 129 117
200.081 366.023 1631.8 52 73 69
-31.5705 232.067 1104.36 255 248 240
-235.768 462.242 1300.69 97 85 61
316.214 -196.748 1656.21 183 201 198
-6.14431 353.487 1149.87 137 129 119
248.364 341.639 1829.28 93 125 120
49.0579 147.36 1208.18 200 160 137
349.683 -201.544 1659.03 202 224 225
300.47 -151.238 1581.5 168 168 152
351.449 40.1048 1675.07 188 176 162
-9.43029 78.6943 1122.07 255 255 249
40.1924 464.865 1266.28 46 54 56
185.086 236.845 1511.2 68 98 91
317.368 -21.4562 1721.95 205 175 154
0.927176 131.852 1196.91 253 203 179
57.792 198.105 1269.66 233 226 216
-5.43843 267.961 1057.39 194 187 190
298.055 -152.314 1550.19 68 62 53
-22.4101 444.714 1251.25 126 109 99
-2.00598 59.038 1139.48 198 162 142
-24.6779 96.4034 1104.8 158 158 154
349.788 -45.4143 1649.71 255 252 220
-163.602 255.893 1136.29 96 34 10
-17.1196 461.1 1314.88 253 255 237
-65.6831 179.516 1024.82 191 157 138
-0.617274 65.1532 1199.57 255 255 240
-7.52666 114.939 1144.26 255 238 226
123.774 253.804 1152.35 50 50 40
420.488 -248.699 2117.5 157 160 162
328.398 285.672 1821.89 159 181 177
-282.575 41.0264 1153.44 110 96 78
-49.9515 144.503 1061.14 233 222 220
19.4299 116.864 1180.41 218 181 166
7.62875 105.272 1177.04 218 221 206
-46.9107 195.799 1039.61 106 63 55
48.5653 195.162 1300.19 222 194 178
391.574 -233.072 2005.65 106 102 107
316.807 -29.8586 1719.16 229 220 205
-1.21025 82.2997 1173.32 254 248 226
