-27.1371 155.55 834.521 242 242 234
69.0299 271.924 901.299 214 210 200
83.9423 258.688 913.592 234 215 204
261.217 371.404 1010.3 244 217 210
68.2446 -9.65042 1062.57 251 250 247
-93.9946 4.82326 1784.9 251 231 223
77.2503 317.681 913.941 219 220 214
-75.9836 80.4413 925.666 222 211 205
2.00602 210.788 840.538 185 180 181
103.812 325.14 925.475 225 208 209
-62.2462 9.04356 1444.39 237 222 220
-111.738 -130.048 1651.35 202 190 170
60.3166 3.47963 1061.91 226 203 205
142.887 -4.3504 993.494 255 252 239
-153.308 -100.737 1487.98 206 177 159
204.945 29.7489 889.039 173 191 186
-199.017 -96.0303 1627.67 232 206 194
-5.38096 -9.31026 1538.69 222 191 188
234.178 225.927 941.417 7 12 12
-13.7173 29.9481 1112.23 255 251 237
-169.707 -106.181 1569.25 212 186 164
117.786 284.375 927.176 219 192 190
-165.071 64.0768 1365.53 18 5 2
159.104 344.953 967.974 199 210 212
165.064 350.47 950.378 162 167 166
12.3182 37.372 1321.4 11 14 6
109.777 24.1039 1002.55 234 238 240
36.4635 11.3523 1058.25 253 233 253
5.39996 33.8051 1199.6 171 153 146
22.4595 301.096 905.059 249 228 212
109.432 271.202 917.633 203 195 201
-21.1069 -72.0608 1462.48 178 213 212
53.3685 -3.0375 1040.85 159 161 159
-198.413 -90.3503 1530.57 187 157 141
194.386 337.43 930.557 244 196 198
117.979 20.1245 991.103 112 109 109
112.835 16.9982 956.737 53 55 53
-79.2409 -46.4766 1809.92 190 166 157
-77.6977 -41.3227 1605.19 165 143 139
130.296 8.70265 1073.3 241 242 235
230.839 270.687 976.665 172 174 170
-34.0849 -13.7352 1620.97 145 138 129
214.51 31.6 879.973 31 31 21
-22.9813 188.926 836.049 171 187 180
163.226 -3.27214 1094.46 229 232 225
73.7129 299.322 903.06 196 180 167
28.7644 -50.068 1700.62 56 55 44
65.7001 20.0855 1108.66 228 198 191
-2.92357 29.4791 1052.09 164 137 135
-31.3446 86.9888 889.674 37 64 60
-185.746 -28.8547 1574.85 193 179 170
-79.463 117.04 972.337 184 213 210
-18.128 80.5886 891.642 68 112 112
256.333 352.694 972.586 81 45 28
-188.233 -42.6099 1580.33 232 201 185
17.4383 75.9599 877.123 190 190 178
-200.039 -82.6175 1563.07 187 156 132
225.696 208.007 899.448 61 54 40
260.373 175.143 943.407 40 13 11
-4.88458 38.2013 1078.94 204 216 193
158.085 4.31316 1009.05 202 216 210
-18.7235 191.92 844.494 20 26 21
105.834 -8.32965 1048.55 76 22 10
6.20115 217.244 841.339 170 168 168
29.4504 20.7822 1073.13 64 30 37
13.2043 156.241 878.216 74 83 81
-170.953 2.24879 1583.59 155 145 135
-38.2117 150.18 806.15 159 153 142
25.574 84.852 868.723 182 183 181
178.933 264.918 960.421 161 156 151
7.93976 -48.3314 1401.11 123 123 106
-263.258 -89.1047 1509.89 255 245 223
196.794 375.741 1001.99 149 151 156
345.756 429.78 1061.51 100 89 78
94.0735 271.698 896.85 170 166 164
54.5877 20.0509 1106.72 225 192 176
161.045 241.277 844.945 61 64 60
0.577267 -100.989 1463.06 60 56 44
18.1377 -70.0159 1626.57 68 63 48
98.8829 252.987 828.357 150 146 140
-177.155 -9.4729 1587.06 29 26 8
-6.04432 -57.8035 1622.17 142 148 131
-59.9833 125.673 802.009 193 199 189
246.258 228.625 942.86 122 123 124
220.509 242.353 964.969 92 59 34
24.1777 163.096 880.032 36 62 60
98.0449 337.03 959.311 39 40 41
-264.948 -95.0292 1545.7 113 92 68
18.2162 -54.0216 1628.9 188 184 172
162.711 73.2547 897.019 177 168 149
262.966 267.926 970.965 114 112 107
-81.0431 70.8894 934.588 156 149 142
224.62 245.539 931.977 168 152 144
-27.8278 -44.0067 1799.24 146 117 105
-8.80149 172.267 866.217 75 86 79
-37.7149 -49.1777 1538.84 130 108 102
113.016 251.594 877.214 166 133 124
54.0226 58.8401 946.962 60 89 84
225.609 256.99 966.125 164 138 129
43.0996 173.048 859.466 121 121 122
80.4754 -19.1823 1006.92 163 148 144
165.906 -16.7806 1094.38 180 167 161
180.043 -9.61555 1037.32 63 62 46
102.467 -11.212 1084.6 213 152 143
307.79 340.47 1015.01 139 98 89
-19.5326 -103.05 1709.54 165 186 178
209.729 235.213 950.701 160 132 112
-227.734 25.4371 1568.55 162 129 103
-230.4 -40.0991 1559.05 187 158 136
191.882 359.061 954.359 48 50 54
55.8569 289.967 891.524 203 175 158
224.778 212.57 877.143 111 109 111
37.6353 319.387 883.774 193 175 168
225.237 176.048 974.136 152 118 107
215.726 256.65 964.888 168 141 124
-97.4161 59.2261 1007.17 72 75 64
204.998 6.83885 1023.02 93 96 84
65.82 34.586 983.901 251 222 201
308.263 301.729 1024.19 108 81 72
103.25 -24.775 1161.2 135 129 124
-66.9004 80.5471 927.331 44 70 60
129.521 278.828 963.337 177 175 159
255.923 273.981 979.739 110 113 116
-203.339 18.555 1361.29 238 212 196
-18.0213 169.527 822.396 36 34 22
23.0991 261.201 1000.74 74 71 75
288.043 276.028 974.092 103 52 43
235.929 354 959.822 180 138 118
242.992 92.7915 948.254 80 47 34
0.126379 152.668 846.829 77 95 92
-231.206 9.94969 1565.39 141 115 99
147.332 280.423 956.575 61 55 35
-88.7935 96.1826 911.468 162 160 147
-234.788 2.22085 1563.2 204 188 172
220.562 247.172 965.152 186 147 121
115.877 265.466 894.563 158 156 152
-41.8686 80.6275 941.791 78 86 88
151.082 217.694 921.829 122 73 59
136.647 202.829 859.418 128 83 62
134.518 189.675 918.637 186 120 100
185.353 -7.06273 1038.16 178 171 163
-224.128 33.2267 1570.73 227 193 172
-147.108 -22.7109 1552.43 136 134 126
144.65 263.873 911.893 53 29 9
-335.339 -147.911 2042.7 160 158 143
139.775 209.891 875.391 114 68 50
125.827 292.574 920.474 169 152 133
36.3421 44.0878 979.576 135 106 89
79.4096 276.718 913.371 108 113 115
-233.197 -93.4424 1550.93 73 57 46
-14.8013 81.4417 834.306 164 192 189
-277.141 -121.947 1626 181 187 185
174.741 -12.1634 1036.47 140 141 126
39.9187 21.2371 887.639 150 108 87
-30.2382 81.0815 921.488 168 209 210
272.58 249.372 937.553 26 14 7
47.5342 52.1424 912.249 225 200 188
105.404 28.9727 1086.39 89 87 77
-77.3606 -131.369 1592.52 158 125 104
-238.23 -13.177 1560.04 208 187 161
-85.0859 -146.67 1588.16 39 13 2
30.3703 43.8446 925.69 196 138 136
-305.304 -145.297 1713.99 196 188 176
-69.1829 92.0035 927.228 192 218 215
152.02 -16.7393 1092.26 210 167 151
63.4329 305.548 911.601 76 49 41
-2.17762 293.832 870.212 49 47 40
208.027 299.74 939.069 39 67 79
46.135 39.3222 980.977 236 196 187
-208.863 52.2678 1507.39 165 129 111
222.382 279.302 940.66 20 42 49
