-167.281 135.02 1047.69 255 246 217
-212.179 241.879 1109.5 58 50 53
-187.332 127.758 1018.37 247 227 217
-99.7584 209.879 1151.57 255 251 237
422.331 12.0761 1176.47 248 241 250
-165.508 119.986 1005.54 249 228 201
-154.522 170.811 1071.91 255 252 244
-251.729 369.714 1109.63 88 84 77
-179.802 104.358 1063.01 255 245 225
408.415 -100.643 1115.13 255 248 250
-235.484 345.406 1088.78 244 236 234
422.862 23.6742 1177.87 247 236 235
-175.352 156.909 1005.22 255 250 225
404.289 -227.412 1194.93 236 214 221
-199.511 41.4038 972.25 86 42 30
489.288 30.7583 1235.19 255 246 241
502.833 1.68801 1142.8 252 218 216
409.41 4.83867 1154.17 44 38 39
-213.378 50.124 1009.07 65 42 34
-300.025 283.1 1088.79 85 73 72
-324.993 73.6787 1003.33 36 37 32
-215.205 307.674 1111.9 214 217 199
-266.901 348.962 1103.61 251 250 238
-187.287 139.653 1043.18 218 190 175
-110.181 134.871 1080.23 79 41 25
-191.716 104.682 998.64 251 232 219
545.646 248.926 1385.8 192 219 226
-234.186 371.705 1068.03 230 226 222
423.786 44.0242 1180.29 197 197 198
729.549 77.1726 1309.11 245 255 239
-240.592 314.793 1108.19 191 172 162
-200.601 43.7643 971.662 219 186 181
-324.564 149.743 1028.17 77 44 39
-94.4735 183.415 1085.79 41 10 6
-230.243 332.205 1089.36 230 221 211
-334.647 56.8887 959.51 236 240 228
488.502 -90.1229 1121.1 254 253 241
-252.283 247.175 1078.27 248 238 228
-177.554 173.558 1047.48 254 243 235
-244.197 413.853 1165.83 66 52 50
-297.959 322.14 1143.28 115 110 107
-73.0534 53.0002 1084.2 253 251 215
-167.537 303.905 1103.33 252 247 220
-78.3322 34.3962 1082.15 252 242 220
-208.42 -16.7971 930.779 208 185 173
437.626 -84.6927 1118.93 252 250 249
-224.707 370.255 1045.28 235 223 225
-240.363 320.61 1086.02 105 87 91
-206.883 314.877 1094.27 234 230 215
578.009 269.367 1459.26 183 211 248
-71.8349 41.4372 1021.18 252 232 217
-238.17 224.278 1102.03 255 252 239
-282.246 64.5307 936.412 59 41 34
-154.635 124.97 1050.06 114 68 36
-280.327 366.147 1127.56 132 109 97
-159.141 302.89 1125.17 251 250 232
-284.833 353.024 1098.78 254 242 230
-182.775 188.318 1066.1 96 80 71
-327.723 143.711 984.027 255 254 255
-189.485 -10.6409 1102.14 63 23 9
-210.553 -18.8272 1006.92 237 216 200
-56.9535 357.231 1150.06 236 238 229
-124.258 151.795 1058.58 71 46 24
-55.9987 383.529 1240.32 82 77 65
441.332 -177.337 1024.8 194 191 183
-273.123 312.916 1076.8 87 59 59
722.169 0.373291 1296.26 221 238 228
-224.735 292.749 998.475 113 98 98
637.943 336.132 1418.16 71 99 101
-298.2 412.484 1302.4 210 202 196
-306.161 347.141 1142.4 233 232 228
-286.055 392.459 1228.87 223 216 208
-184.912 161.706 1090.14 105 59 46
-4.33202 413.903 1381.83 48 38 30
-308.483 71.2936 967.416 78 92 80
-203.322 75.1258 994.348 156 135 132
-162.368 153.297 1049.92 128 95 79
-243.008 79.3806 984.887 255 252 237
447.506 -176.042 987.716 249 251 247
691.965 12.4682 1241.65 250 254 245
-153.151 151.265 1027.09 210 188 173
-164.498 93.7157 1045.93 127 77 43
464.728 -267.121 1295.08 216 178 164
-214.287 -12.1044 980.445 113 71 62
-190.15 340.897 1297.8 220 218 197
536.581 30.7909 1238.26 255 244 243
-144.78 174.688 1055.26 128 113 99
503.529 -40.2186 1175.54 250 242 226
629.52 -65.8019 1176.88 110 116 88
-307.643 279.949 1113.83 121 110 113
-196.721 75.178 1014.01 255 241 240
-198.485 236.718 1091.54 121 100 96
408.213 -43.4781 1121.71 247 236 225
562.789 340.432 1479.96 177 207 228
450.162 -96.7979 1149.02 224 213 213
-179.333 113.388 1088.39 103 65 33
-300.346 122.48 990.384 144 141 131
568.724 39.9092 1241.3 84 64 54
-157.396 395.662 1187.42 199 202 190
440.093 6.16881 1177.17 237 235 243
-149.467 32.1548 1097.27 252 227 211
415.248 -85.2708 1147.05 255 251 250
427.841 -2.39447 1226.21 199 178 178
-269.019 458.038 1234.76 37 38 33
-240.928 245.847 1102.43 115 86 79
-187.293 120.25 1018.07 148 101 77
-300.392 127.362 990.579 239 233 221
-291.65 236.002 999.765 101 116 106
-234.005 337.805 1039.81 122 120 112
-150.309 -5.69416 1002.25 129 39 18
590.479 -227.318 1097.78 182 206 194
426.419 -42.0227 1202.62 157 157 150
-263.796 353.043 1121.27 61 58 49
531.937 -104.2 1205.34 237 227 210
-260.288 296.088 1152.12 255 250 249
614.203 310.718 1367.92 57 98 112
619.119 -144.099 1118.58 239 251 251
-188.076 250.884 1049.38 137 129 127
-246.061 -11.0915 998.732 239 204 206
-111.009 48.1382 1055.12 254 220 207
524.004 10.6214 1191.33 216 207 207
-137.318 -24.2256 1007.69 255 234 206
-196.116 176.047 1189.97 164 121 105
-67.7642 79.756 1086.62 253 244 216
-331.035 96.3371 940.828 239 227 220
623.587 174.569 1327.93 109 105 100
-213.946 208.701 942.604 217 168 155
413.124 -56.5153 1167.49 153 135 132
-328.285 71.0981 961.959 106 87 82
-354.293 106.038 1017.76 64 34 30
-201.796 98.358 1037.23 228 178 155
596.565 -92.3 1127.95 217 222 198
-282.914 237.866 1024.46 150 71 61
-141.161 355.534 1112.54 187 198 163
565.043 -196.05 1066.65 172 191 182
-173.7 -2.73126 1106.38 128 75 53
457.16 -38.442 1125.68 219 205 180
-109.056 31.5534 1013.01 255 247 236
-165.485 -4.01247 977.667 122 90 79
-281.923 55.0495 952.708 237 225 218
418.887 -179.425 1202.18 130 135 128
579.52 -104.851 1039.16 231 255 228
-293.605 243.057 1041.68 241 175 167
-300.441 132.252 990.774 108 86 75
-286.257 45.7171 951.292 131 104 89
-319.343 56.9684 963.768 119 96 99
397.239 -176.467 1136.98 179 177 165
-300.226 118.859 1012.78 95 92 87
-77.0186 17.4025 996.603 255 241 217
-289.741 187.059 978.325 142 120 94
586.214 352.11 1483.5 62 91 99
470.678 -103.568 1118.52 213 180 157
-328.225 66.3682 961.751 120 123 123
480.184 -16.0131 1210.06 255 253 238
584.502 -154.201 1075.08 222 247 234
-250.018 271.396 1080.43 129 110 110
497.45 25.7967 1215.38 210 183 168
-186.013 304.034 1118.83 139 132 115
650.159 -112.402 1159.93 230 255 235
421.217 -70.9653 1119.47 230 226 232
-352.131 70.9571 995.339 195 154 149
-343.859 120.293 1000.48 255 253 243
542.104 18.6378 1236.92 73 51 53
-185.395 360.668 1067.26 147 150 123
-243.668 309.918 978.254 191 175 159
-84.5081 296.577 1226.87 243 240 232
380.055 -164.943 1105.69 146 146 140
-219.211 534.014 1238.47 92 91 88
433.398 -68.2369 1167.54 240 233 239
-277.936 289.676 1109.86 249 225 213
734.506 -137.675 1617.79 165 150 146
-179.276 310.234 1174.2 87 86 63
-273.595 66.9085 938.723 255 244 231
-324.76 56.4547 1002.47 140 141 138
-208.474 81.182 1102.28 212 175 172
-108.463 53.3308 1055.99 253 241 232
574.307 -170.343 1160.45 62 63 51
-291.726 59.6104 949.795 251 217 207
-42.6055 166.029 1122.97 248 229 203
-146.791 224.238 1152.97 240 234 207
570.98 -175.964 1159.58 153 141 132
474.38 -12.0235 1096.39 216 197 183
-122.035 273.455 1112.35 238 238 234
454.365 -4.14441 1288.45 125 97 96
587.671 32.2885 1297.14 255 234 227
603.4 173.222 1293.67 240 250 246
-335.296 66.1325 1021.28 213 184 181
-343.633 80.3936 958.085 234 196 189
516.763 115.592 1304.45 229 220 197
-154.93 -14.554 1019.7 131 44 23
-253.809 227.612 1023.97 134 92 77
-132.525 215.274 1106.25 255 255 233
-61.834 85.0144 1067.82 248 244 222
-313.169 46.7043 1005.21 254 238 222
-320.251 61.4188 1004.01 250 255 253
-86.3386 71.6139 1082.32 235 188 163
543.884 324.391 1411.12 160 187 202
436.81 105.251 1202.55 163 144 128
-336.945 212.373 1100.16 194 189 168
-100.707 170.657 1039.16 248 252 246
449.574 -273.13 1356.4 206 175 165
406.503 102.858 1548.35 91 83 74
-222.368 510.494 1200.66 25 25 19
-337.055 60.6352 963.544 56 54 44
-95.2299 57.7735 1096.73 155 99 72
-286.187 76.3897 992.15 250 240 233
-78.3135 23.7637 1081.62 232 219 202
-263.276 101.224 999 230 174 152
630.928 -46.9249 1131.9 220 251 233
563.783 -87.0604 1209.36 222 205 191
364.838 -229.688 1191.91 198 174 176
401.671 -51.6261 1123.05 250 246 243
-123.462 432.779 1329.95 85 66 50
-49.5763 125.77 1047.71 254 239 217
-59.7733 98.6319 1089.18 247 236 199
438.544 -260.401 1293.62 203 164 157
-298.042 328.042 1120 236 237 238
-341.063 187.359 1072.2 249 244 228
-66.989 309.649 1151.31 96 56 31
-159.958 -2.75382 1094.04 241 169 136
507.92 241.486 1334.73 43 73 91
-125.206 289.917 1186.22 239 236 234
-290.65 45.7083 950.187 127 110 97
-250.204 264.451 1101.16 229 215 203
393.41 -29.6131 1123.27 162 123 113
450.518 -6.61881 1139.57 254 249 243
586.176 -181.022 1031.02 237 250 237
535.69 260.099 1399.24 36 63 81
-343.107 136.493 1022.38 138 142 140
-90.3474 29.9885 1058.37 204 150 114
427.027 -85.426 1148.09 254 254 252
-281.197 94.2689 1016.59 167 99 76
-320.801 124.469 945.424 249 252 252
406.383 -73.601 1164.91 181 161 145
406.651 -67.9236 1165.62 96 71 64
376.082 -81.5866 1045.85 125 116 112
-279.767 296.603 1065.11 134 106 104
658.879 -199.065 1150.42 109 129 108
675.992 247.829 1514.4 88 124 133
533.456 -55.1911 1127.66 255 241 226
501.167 25.318 1193.1 219 206 193
-297.293 254.755 1021.58 123 129 128
-285.894 94.2044 1015.31 255 220 209
398.71 -88.2337 1032.08 216 205 208
-348.562 145.733 1044.39 252 252 250
688.321 -109.78 1248.8 177 186 166
701.282 -122.539 1268.42 225 249 233
-37.186 201.994 1147.66 253 245 228
-82.8803 150.392 1067.52 245 225 193
363.571 -206.13 1234.22 4 4 2
430.53 -5.34599 1175.05 87 53 56
419.793 -86.5903 1126.14 156 158 154
-259.553 265.555 1010.72 253 251 251
-20.2826 250.702 1133.18 220 214 201
-100.857 84.5441 1059.6 250 235 206
-48.4771 147.991 1142.61 244 220 199
501.956 -5.63479 1239.95 210 206 208
-83.7278 90.2416 1083.79 144 84 53
-162.619 194.88 1052.26 129 126 119
-80.1721 105.767 1065.33 184 151 121
-103.361 63.7184 1057.75 255 227 207
-230.611 83.8907 966.195 223 185 178
-62.6348 326.024 1201.7 153 67 21
567.843 204.82 1293.07 130 172 177
-244.673 44.7454 904.452 246 172 155
-31.4939 211.1 1128.28 244 220 199
562.871 238.635 1385.96 75 113 116
615.173 -101.78 1123.97 122 144 120
519.775 -133.363 1116.95 199 199 194
648.857 -132.05 1157.71 207 239 211
-64.725 218.154 1121.69 245 209 180
-279.95 258.945 1071.51 160 149 150
-313.036 269.508 1164.21 253 220 203
-118.886 314.667 1220.57 254 251 239
-297.812 95.7716 989.918 195 147 121
-355.621 56.4809 972.72 77 54 36
-280.255 259.168 1045.3 221 208 208
-273.693 56.8604 1016.53 242 213 199
-329.836 74.9727 915.703 159 88 84
-162.587 373.362 1108.41 207 189 162
460.293 18.5296 1231.49 186 173 189
-59.3363 198.8 1075.39 174 129 108
-124.805 300.125 1163.54 249 245 220
-319.365 139.472 1079.58 168 128 104
437.925 23.5349 1179.08 136 125 136
-56.5068 293.795 1128.21 248 177 149
620.98 316.462 1438.81 143 183 178
438.906 -39.3184 1204.08 123 95 84
480.073 70.1805 1139.7 232 221 173
-217.779 252.136 1006.95 243 227 224
452.972 -7.97259 1128.98 254 255 252
-295.73 227.528 1039.78 120 81 60
469.291 -127.818 1115.44 141 131 115
538.756 -152.656 1149.87 99 89 75
554.048 278.867 1290.92 120 158 162
525.613 -268.741 1194.93 38 85 93
