265.548 -48.5654 1683.97 253 248 236
-171.452 100.122 1089.04 214 188 179
-37.8762 33.5193 1247.73 255 248 231
-40.7362 451.577 1244.72 252 243 243
-67.2344 435.973 1157.97 254 233 217
-29.9561 488.898 1192.2 90 93 90
-61.4709 456.539 1212.79 110 92 69
290.54 27.5204 1892.24 251 235 224
-61.5214 493.762 1215.38 229 225 220
-43.9724 296.049 1123.37 253 227 217
-62.2292 544.088 1244.15 185 183 174
-7.50292 40.6876 1222.63 174 78 81
-39.8574 22.5187 1308.7 234 212 218
-34.9119 31.5209 1285.93 124 80 70
-67.6205 1.21675 1262.86 183 194 194
-106.089 100.02 1059.08 112 41 30
56.4465 188.532 1371.88 102 95 81
-107.959 109.92 1104.42 236 188 166
255.952 -17.4504 1688.54 173 151 145
-10.7727 205.214 1202.51 138 117 101
-86.8883 323.23 1121.08 68 58 57
303.315 394.833 2103.36 98 121 122
-73.3938 200.446 1167.29 86 46 38
-51.9243 380.564 1039.97 240 234 227
-106.07 94.7354 1058.79 232 163 139
-98.4226 124.089 1062.06 255 184 170
-102.671 134.93 1107.15 189 109 71
-16.354 206.124 1234.43 255 240 232
273.245 -29.3802 1790.57 73 48 43
-4.36144 548.382 1375.21 153 161 167
-66.9204 338.836 1103.98 136 123 122
-3.99582 250.182 1240.36 123 117 106
-73.533 273.962 1171.87 226 202 180
-75.6906 408.733 1154.27 209 221 206
-4.43841 203.664 1295.88 255 239 209
-109.309 214.491 1085.84 76 61 57
253.301 30.2805 1790.07 249 203 179
272.847 61.5942 1800.77 248 254 248
-70.9204 473.172 1182.61 28 16 8
-36.408 451.518 1307.03 216 206 196
178.485 275.56 1831.28 39 55 43
-204.978 488.754 1199.51 162 149 136
-102.53 171.512 1148.76 103 42 30
327.738 44.7503 1928.5 254 249 230
-127.338 235.854 1157.04 236 210 194
-10.1682 240.551 1238.33 250 237 220
-13.2685 492.072 1226.16 225 231 232
-149.693 138.399 1051.42 160 125 115
-10.2942 169.175 1232.87 167 132 108
-199.381 576.901 1370.91 66 65 64
172.206 -131.33 1859.67 69 70 71
-22.4954 379.245 1215.68 228 227 205
-216.448 92.3226 1125.31 181 147 137
315.248 119.494 2022.36 144 131 128
-7.13547 218.905 1237.38 158 140 135
-94.8842 241.152 1115.06 132 94 85
-53.1302 43.8246 1160.6 251 228 203
-94.3514 109.01 1081.94 239 237 222
6.27872 254.553 1335.02 115 91 90
-14.3436 167.751 1160.64 200 184 161
-40.7384 413.845 1242.7 151 127 113
-31.5456 358.105 1241.51 140 116 110
213.697 39.1437 1482.35 139 113 99
357.275 104.639 2073.33 127 106 94
-10.311 159.93 1232.13 255 234 210
-23.9175 173.035 1249.67 225 204 187
-73.7011 130.499 1215.77 156 135 126
247.126 106.475 1807.1 187 186 177
143.258 71.9476 1893.4 29 27 6
-98.583 32.2736 1258.59 52 48 30
5.33828 239.973 1301.14 253 251 243
-78.1606 274.454 1143.85 120 109 85
5.30995 230.142 1300.3 158 123 109
-111.144 76.1217 1056.65 158 124 98
-1.44353 207.297 1361.1 175 131 105
-8.27012 230.629 1259.41 237 215 209
1.53172 39.5237 1281.75 175 88 54
26.8916 495.718 1312.38 75 75 75
248.057 -111.88 1666.79 157 153 150
-91.7836 100.21 996.668 147 100 70
-233.455 316.256 1246.98 59 0 0
303.391 -164.118 1675.61 202 223 223
267.703 433.385 1939.05 205 233 245
219.928 13.4971 1475.97 175 145 140
-40.7315 498.847 1247.03 156 143 131
-59.2977 501.275 1186.28 79 54 41
-47.9171 416.366 1112.82 230 220 215
-220.427 277.81 1158.12 67 19 2
238.827 8.14 1782.32 185 161 144
-103.63 134.525 1061.51 203 134 107
-48.0603 504.161 1222.21 228 209 194
30.0867 482.357 1311.42 146 144 146
-1.16936 223.351 1298.3 219 202 188
149.311 -149.904 1728.12 196 166 164
-108.595 81.4545 1057.5 237 211 182
-69.667 4.84599 1332.23 181 185 180
-182.297 100.675 1109.33 178 148 138
6.62331 613.125 1281.72 218 237 222
197.672 369.576 1956.47 76 95 99
-70.7789 353.974 1177.02 171 168 160
-73.382 194.588 1166.91 220 176 156
-47.6164 372.719 1297.57 183 168 164
-101.155 169.201 1063.9 145 77 45
-46.5252 470.308 1217.21 240 245 238
-333.529 82.6679 1142.5 69 55 45
234.399 -34.5499 1426.16 222 196 178
267.708 90.9807 1810.09 64 40 31
-24.2353 94.3766 1197.12 178 155 141
-89.4578 249.859 1116.74 253 239 212
-81.9975 131.327 1133.85 174 176 163
217.095 -101.215 1503.88 30 26 24
-111.69 304.114 1138.37 189 173 171
-38.6335 288.332 1153.71 142 118 110
-53.2473 160.194 1169.03 250 217 194
-89.3311 26.1811 1260.21 180 168 175
-40.5044 396.438 1213.05 255 244 224
-34.5165 359.894 1211.42 123 96 83
-106.367 179.641 1063.31 210 215 216
-78.4772 227.95 1117.96 232 217 186
-107.38 69.9105 1007.35 240 222 200
-70.509 188.849 1167.17 206 180 164
