488.219 -160.718 1523.12 255 248 250
519.226 208.329 1681.77 1 34 43
16.8525 348.649 1223.21 221 218 210
20.3364 354.912 1198.2 234 226 225
-97.1718 467.329 1435.12 253 249 236
-59.1407 47.84 1065.88 40 9 9
66.6005 83.1235 1241.43 112 74 52
21.0347 -46.3438 1119.23 176 154 148
68.2928 -42.5897 1206.63 82 51 36
-35.5645 112.577 1094.62 79 61 49
31.6696 -48.4623 1135.69 95 64 52
60.7664 73.6363 1185.66 248 235 209
-27.4778 42.2735 1092.81 67 38 41
-15.2842 352.66 1190.66 85 68 60
-8.91839 326.277 1139.18 252 245 235
68.915 -32.724 1128.6 105 68 40
-72.2137 50.3403 1063.39 248 224 189
11.2705 306.456 1193.42 145 139 128
15.4672 -43.5433 1118.47 28 7 5
370.9 114.248 1952.31 69 57 51
561.617 211.401 1777.77 217 250 254
131.381 374.263 1318.58 75 73 75
77.5351 -36.2327 1192.33 91 5 2
-71.8502 53.563 1021.85 150 59 34
472.664 -153.063 1451.08 255 245 248
36.7421 7.71552 1151.56 67 43 36
-67.9397 38.0846 1132.48 243 243 229
-32.9351 324.793 1185.22 253 237 233
-62.0533 430.184 1301.82 189 184 167
8.12121 237.783 1188.21 109 99 86
511.612 -53.1559 1627.63 62 54 55
409.475 -269.466 1579.08 217 171 164
-14.3809 243.726 1153.8 115 78 91
475.91 -56.0893 1543.21 214 206 200
15.1325 265.14 1179.37 234 231 230
-16.0539 403.875 1249.55 210 190 174
566.583 -162.033 1692.09 250 250 247
35.4058 22.8083 1205.09 52 62 45
65.5352 406.542 1266.88 171 181 179
80.3903 -48.5966 1208.38 139 52 26
14.5831 242.877 1244.9 115 91 82
-85.438 447.505 1363.78 35 34 30
-31.4254 311.434 1111 182 177 173
123.99 155.845 1258.75 97 73 71
-43.6432 50.1891 1090.01 113 107 99
572.912 -79.2671 1624.25 254 247 232
18.6994 330.461 1312.91 215 198 189
624.307 -222.954 1592.54 139 161 143
79.2431 101.844 1245.57 151 109 76
69.1981 110.091 1217.24 243 223 199
61.787 144.11 1239.09 245 241 223
502.61 47.5861 1565.66 153 136 113
52.3842 113.25 1236.09 156 119 107
117.623 106.694 1284.84 122 83 62
524.945 144.687 1643.04 60 58 44
-75.5247 137.868 1113.77 51 16 13
-82.5067 10.9837 1058.77 255 255 231
-3.35101 416.445 1196.65 223 223 218
70.3562 166.895 1249.83 76 50 46
5.13722 222.854 1186.55 219 168 164
468.349 -46.1219 1470.27 234 231 234
-27.1139 274.721 1183.31 130 116 114
-50.9262 236.377 1125.3 67 64 58
63.9056 59.4635 1135.37 105 57 36
574.288 -63.3943 1627.96 240 210 202
21.111 337.102 1253.23 244 217 209
-35.455 173.511 1078.41 205 193 156
520.553 280.64 1679.42 73 92 102
502.738 -136.415 1612.89 215 197 191
494.971 -120.11 1531.84 129 124 123
54.3397 110.665 1241.67 236 206 196
13.9804 217.215 1187.95 241 192 171
85.5886 150.638 1281.72 219 220 217
26.7355 256.23 1178.44 213 171 158
497.045 -233.165 1595.61 125 124 121
469.246 -31.6779 1472.93 219 206 201
82.2577 148.05 1195.81 129 117 102
-61.8856 160.514 1118.17 107 87 77
625.057 -215.454 1594.34 226 231 213
527.649 -136.688 1615.63 238 232 235
63.3097 559.812 1370.78 46 66 55
74.9392 378.569 1266.99 128 123 107
572.446 -32.7528 1708.81 219 206 206
17.0271 395.257 1227.36 112 86 69
576.284 305.653 1899.52 216 240 248
468.797 -38.9154 1471.6 120 110 109
544.179 -79.1213 1622.63 255 244 233
1.87992 101.983 1176.71 68 31 14
35.0246 283.819 1196.74 222 225 207
-5.09658 95.5775 1069.23 140 96 80
55.465 377.702 1172.14 31 37 38
-48.709 127.663 1073 117 83 75
-27.488 23.4376 1091.83 131 107 96
-41.9146 268.889 1202.98 124 128 129
48.8118 80.7078 1387.78 254 240 219
-57.0691 77.0336 1088.62 91 83 72
7.60726 365.653 1171.01 112 114 110
69.8367 98.5988 1243.5 249 236 206
31.5527 161.562 1187.3 189 166 159
87.8052 138.983 1306.53 185 151 131
53.8936 97.7862 1213.55 181 149 123
-12.4471 275.446 1186.48 252 238 245
28.9591 256.587 1193.72 119 91 86
505.161 -17.0474 1632.56 164 160 164
130.143 183.173 1322.19 255 252 242
534.166 58.1701 1652.28 132 118 99
-6.17663 75.081 1077.94 255 239 214
-67.5383 97.0879 1042.86 148 126 128
64.019 157.382 1247.76 245 226 219
497.739 280.875 1693.05 81 104 124
-88.9907 93.3614 1107.85 100 61 41
510.178 188.458 1767.85 87 120 120
2.29158 -34.6831 1142.36 236 207 192
490.18 -130.712 1501.35 158 155 157
725.858 -119.249 1834.23 130 137 131
-114.826 65.6372 1123.73 179 148 140
86.061 146.027 1269.1 254 250 238
-73.7493 95.6348 1102.55 164 124 123
624.351 -37.7353 1842.74 148 131 130
-32.9823 200.704 1176.98 255 238 215
-30.1146 63.69 1167.13 255 254 249
-72.6762 82.6238 1110.63 254 251 237
525.065 -162.972 1526.1 224 195 177
581.254 -69.4052 1727.5 255 251 249
-1124.66 -44.859 1573.39 106 122 117
63.5508 92.314 1241.72 254 240 213
496.629 188.276 1766.44 54 89 92
76.7344 179.579 1252.15 140 126 116
-47.3456 34.6747 1161.19 154 149 147
627.592 -79.9091 1820.3 234 227 225
-28.7265 100.595 1144.06 145 98 94
125.379 15.9276 1245.17 253 236 222
656.206 -288.998 1690.62 210 232 213
-23.2419 33.5413 1117.21 255 240 230
-59.3858 122.449 1028.19 255 254 252
101.488 372.76 1313.02 135 121 106
-21.3089 218.839 1180.75 189 139 117
603.153 18.0506 1734.63 255 252 236
-12.5069 230.994 1183.46 172 118 84
73.7424 622.033 1523.34 139 147 141
-51.1198 198.579 1217.52 249 252 232
-59.5682 143.051 1192.7 181 175 171
-40.772 141.254 1075.41 245 224 191
-61.853 138.264 1116.71 168 131 114
394.731 -243.817 1574.82 81 82 80
314.232 -247.484 1413.15 184 184 176
55.2573 399.127 1326 108 93 68
25.3184 204.971 1210.75 244 204 201
-164.442 6.46847 1132.58 143 124 113
-21.3038 224.726 1181.17 255 222 207
7.3965 56.0302 1124.8 255 249 237
-63.0044 168.988 1158.01 209 172 151
470.948 210.431 1768.41 53 75 72
637.178 52.5367 1744.99 255 252 233
122.062 -98.0407 1269 250 243 223
-75.419 444.672 1366.16 107 104 86
662.37 -166.464 1716.33 252 252 227
88.8726 354.722 1233.04 117 94 87
-37.0477 214.504 1126.87 241 223 192
454.221 -211.931 1438.94 54 60 57
670.898 -220.077 1706.03 151 157 142
550.668 -101.346 1624.08 247 216 196
-91.5383 549.291 1669.13 193 194 179
48.6235 29.5823 1179.59 162 144 141
434.709 -106.034 1497.12 149 128 114
-115.163 424.491 1354.29 154 140 132
557.687 -161.651 1604.52 251 234 218
-3.213 228.656 1087.94 252 250 249
493.13 -102.642 1613.87 194 154 149
-84.642 149.48 1161.92 200 169 153
119.019 9.75077 1243.45 255 244 216
18.9475 132.327 1201.64 181 154 141
123.43 98.6116 1349.66 190 169 147
-42.0639 236.76 1075.9 244 243 246
432.537 -17.0362 1472.19 141 129 125
681.107 52.576 1746.73 222 222 208
638.004 -165.693 1606.49 255 255 235
609.86 -290.789 1576.31 191 192 180
128.109 32.7086 1305.61 255 214 206
38.5787 294.696 1181.44 205 197 171
-7.50621 -28.8666 969.42 190 168 146
405.478 -98.7871 1303.47 164 150 151
125.826 49.9739 1248.76 255 248 224
-28.7831 -45.8788 1110.09 88 64 49
1.45316 242.067 1159.28 181 187 179
-35.6859 157.101 1123.47 248 226 193
2.38917 320.355 1248.07 237 218 205
-9.41331 14.8984 1048.4 255 220 223
8.79791 399.361 1254.67 158 145 143
77.5041 286.514 1261.02 228 229 211
109.533 129.968 1312.92 185 163 143
5.22155 258.512 1189.03 181 160 153
498.397 -100.176 1462.67 215 188 161
458.51 -82.3014 1536.55 167 123 104
45.6624 74.2299 1331.97 238 183 173
-82.8445 137.417 1066.55 170 143 126
136.975 24.2764 1379.19 220 160 141
415.446 -32.7876 1368.89 146 119 118
52.6505 550.353 1334.9 173 200 186
714.75 58.1868 1935.16 179 178 150
7.12796 -40.7348 1117.19 121 100 88
65.5704 33.741 1356.97 175 158 149
-51.7476 177.391 1094.2 242 247 240
588.215 261.596 1791.13 158 177 176
-18.5623 52.2621 1168.56 255 255 240
635.224 -200.2 1614.45 210 212 197
64.9652 264.181 1201.28 183 175 169
589.152 -126.742 1614.06 247 239 212
-159.056 184.258 1228.86 81 22 3
677.35 -62.9097 1716.5 144 148 142
156.558 131.605 1279.07 239 222 193
496.282 -236.41 1437.04 128 124 119
-85.1979 -0.558424 1035.04 219 194 170
-4.28087 403.052 1223.47 106 86 71
133.627 55.6827 1311.62 255 242 232
101.022 4.94525 1152.76 188 163 152
-33.206 246.005 1294.21 172 87 67
609.338 -54.198 1716.58 183 148 138
-71.3612 225.718 1194.44 186 166 159
-33.0808 448.994 1277.36 135 116 100
553.706 149.425 1673.15 196 204 196
511.76 353.607 1904.1 94 107 104
67.9545 -82.2221 1102.93 80 67 56
111.036 18.2679 1189.41 255 240 218
667.775 293.019 2007.02 151 173 173
407.078 -95.9072 1353.37 157 141 130
477.298 -177.062 1518.9 118 108 100
542.382 -17.5194 1663.93 99 94 93
138.936 2.19311 1266.88 249 211 191
-6.60561 30.9168 1120.24 253 255 255
16.063 67.0024 1288.37 255 249 244
626.7 -157.867 1608.07 156 159 135
370.606 163.207 1414.02 70 91 91
-79.0252 178.569 1165.3 194 148 116
102.759 86.0098 1194.18 162 143 125
22.5663 70.218 1152.59 212 139 111
704.819 308.823 2013.24 173 178 187
88.5474 181.105 1199.58 188 185 173
627.961 -83.5184 1709.71 204 186 176
-54.128 220.404 1080.39 190 189 186
522.99 273.183 1886.25 88 118 120
670.191 -84.6792 1825.58 139 120 104
54.4073 161.095 1265.1 178 144 133
597.361 -35.4523 1635.59 186 165 143
-9.68993 162.897 1034.99 206 184 169
-67.1798 156.484 1070.95 156 108 88
487.783 128.854 1423.24 178 189 194
14.2314 161.046 1121.87 186 147 143
458.041 237.073 1664.65 95 120 125
