-59.7572 65.365 1087.37 177 172 159
126.765 -50.1686 1295.73 238 223 213
38.3907 388.236 1128.73 255 244 214
33.9042 376.774 1148.56 214 201 198
351.218 -92.9515 1685.2 244 228 216
309.511 348.368 1770.07 204 229 234
73.2145 -5.60938 1178.67 254 240 209
47.888 425.264 1234.46 142 110 84
4.48904 68.9148 1079.5 88 13 2
358.36 41.0013 1716.18 251 247 238
4.40151 71.1072 1037.26 200 135 120
39.6667 380.05 1149.81 75 64 54
322.816 279.875 1738.73 25 59 68
-0.632043 181.884 1085.26 83 69 66
-0.352387 44.422 1098.08 120 91 66
4.4752 63.5527 1079.16 241 164 139
39.4214 390.012 1039.25 232 208 192
18.0753 307.952 1216.08 28 10 5
123.221 436.982 1276.64 96 95 94
33.9638 378.637 1175.79 250 239 228
12.6197 90.5034 1082.38 241 218 199
15.2992 85.1571 1082.53 72 56 43
94.3635 163.151 1198.7 116 84 67
343.291 207.275 1658.12 77 75 63
11.9867 177.176 1065.31 45 19 14
17.1249 185.888 1124.3 238 219 217
366.003 -76.0231 1779.49 132 115 108
348.521 19.7457 1710.2 54 46 42
-56.6114 92.0256 1069.08 147 138 132
122.29 461.219 1309.21 25 26 27
89.0371 2.8352 1135.08 165 93 87
344.169 -64.0705 1690.91 210 191 178
47.185 451.488 1133.88 243 236 223
32.086 226.617 1093.79 121 103 89
-46.0802 105.452 1072 160 135 124
68.5784 381.684 1207.7 225 224 222
26.7566 302.727 1120.96 84 91 91
14.0082 121.385 1083.21 227 176 173
69.6319 426.881 1238.95 251 243 233
236.612 -163.261 1660.01 53 58 55
160.155 291.952 1303.14 27 30 28
69.8304 455.172 1241.13 100 75 54
-3.40416 266.236 1135.97 250 234 231
15.6552 201.463 1089.41 98 74 61
57.6034 495.095 1241.5 160 161 161
23.965 5.48538 1124.1 231 201 184
325.537 55.9882 1606.32 117 106 104
119.357 7.97893 1374.46 173 84 51
57.656 293.099 1126.13 144 128 133
9.83897 165.46 1011.51 224 218 217
17.7146 198.468 1046.38 243 228 214
117.031 213.086 1321.82 151 151 146
63.8972 272.859 1169.17 225 211 218
34.0126 277.988 1126.74 167 169 167
396.148 22.3623 1903.72 182 176 171
33.1033 -36.7489 1280.27 138 148 154
56.6416 9.61008 1232.4 223 200 175
121.427 -28.6644 1251.58 219 205 185
404.551 51.0481 1920.06 221 211 205
385.246 418.58 2123.02 175 203 217
37.1409 448.73 1261.61 143 132 117
94.4683 175.131 1199.63 162 134 120
-24.9338 165.295 1057.41 70 30 11
97.5117 -43.6749 1291.47 106 82 65
89.6413 -21.9806 1212.11 121 108 75
39.0568 234.597 1165.28 231 198 172
-14.4213 181.487 1060.62 239 200 183
39.4326 314.11 1146.84 161 141 126
41.0121 292.835 1197.44 128 85 63
66.1093 370.266 1233.66 161 132 115
-140.412 84.6145 1143.98 78 27 18
339.593 15.4963 1708.07 137 123 116
319.62 53.6295 1713.59 156 136 138
69.6983 252.799 1169.56 95 62 56
94.4017 199.234 1184.7 160 150 131
38.5675 442.985 1204.56 51 28 17
366.69 270.342 1863.95 105 133 136
60.3297 270.621 1124.96 150 140 143
-75.9459 68.5437 1157.63 157 121 111
-163.19 -24.503 1297.33 21 30 23
-9.21645 210.137 1206.39 155 129 114
288.554 -30.836 1580.99 151 120 113
-102.182 423.14 1121.65 108 100 89
94.724 205.146 1201.89 164 145 121
-104.869 56.4728 1119.38 168 132 117
89.2119 499.305 1337.53 21 26 26
343.387 111.876 1640.9 158 144 126
58.2757 353.857 1170.43 255 242 231
365.112 -14.582 1795.17 223 194 177
351.816 361.166 1881.19 110 138 141
-118.707 270.335 1215.61 85 23 4
71.9332 312.735 1178.15 119 110 87
35.8362 490.038 1236.67 176 163 138
102.923 140.187 1312.16 176 137 116
100 175.491 1182.46 153 131 115
360.558 337.141 1984.74 117 140 134
77.9903 327.932 1180.5 208 199 176
-107.839 477.658 1259.71 57 52 42
11.8199 109.98 1171.08 254 231 207
22.1693 284.656 1142.01 203 204 192
380.873 0.996898 1815.74 131 113 108
-35.8967 327.222 1183.41 146 124 115
66.3983 365.876 1181.23 251 242 228
413.026 -49.9797 1791.46 255 254 220
358.768 34.4267 1806.76 144 117 113
-175.554 426.959 1201.23 71 54 38
-154.035 59.083 1165.78 165 138 106
371.889 -30.8487 1701.84 254 231 213
18.6675 271.315 1011.59 166 165 160
52.0502 448.484 1184.05 110 91 71
45.1918 317.292 1148.1 255 250 235
6.54945 134.53 1061.1 127 53 25
-101.197 73.6352 1126.98 140 103 90
346.345 -22.4161 1700.55 115 91 74
-11.4703 135.775 1080.57 97 47 37
60.289 238.161 1091.11 97 50 49
-113.622 54.1599 1054.94 176 145 126
-119.198 246.635 1181.99 65 16 2
578.66 71.0754 2630.65 140 116 105
55.6689 348.725 1259.76 163 135 120
192.8 -128.014 1654.46 26 25 6
48.7321 257.058 1274.44 138 101 83
42.2487 299.964 1146.69 255 241 244
72.0574 261.797 1196.97 189 144 144
467.663 133.131 1943.34 230 229 204
116.881 199.83 1320.56 255 248 235
15.4022 117.512 1084.56 255 254 252
343.803 -152.755 1680.33 47 40 38
280.385 340.004 1830.69 82 111 113
51.1757 299.81 1173.16 214 184 184
41.5486 143.193 1137.28 140 98 85
-31.4758 293.163 1131.57 146 130 123
1.30043 -36.6728 1273.94 121 145 156
-27.8314 148.175 958.634 134 111 93
-91.1459 463.002 1206.32 100 97 88
-1.18685 139.185 1020.03 140 114 113
-37.0856 113.241 1119.94 118 95 92
-34.855 133.297 1279.66 107 64 51
298.407 13.5638 1535.63 71 58 45
231.79 -197.945 1751.25 196 165 158
60.7847 416.289 1183.69 206 201 196
109.817 151.094 1379.96 245 213 191
60.161 320.967 1176.59 243 218 213
36.0405 191.253 1092.31 244 222 184
23.536 504.63 1235.06 109 108 96
-44.3596 358.527 1157.88 62 56 38
-233.809 46.8949 1144.83 74 57 45
