200.937 149.137 944.012 79 84 80
-391.062 384.284 1379.61 245 244 239
194.186 105.53 955.264 51 57 38
134.522 -33.5497 907.763 245 254 250
144.147 2.22583 910.854 247 231 214
271.008 237.57 1018.8 241 245 241
-346.299 161.012 1261.38 199 173 157
-429.849 163.471 1208.21 61 33 18
112.855 -41.308 846.459 35 35 38
-0.0647016 -84.136 1021.52 224 211 183
-23.7374 93.472 1050.94 113 89 82
263.858 162.718 966.405 246 250 237
188.214 -37.4051 854.615 241 245 229
89.1065 -6.71033 903.505 245 226 220
269.869 383.676 1154.97 100 109 109
-570.915 17.3589 1177.94 114 86 75
148.728 -93.4848 953.781 223 238 232
-34.0836 32.4341 1027.88 250 253 253
82.4634 -57.6413 931.947 117 115 101
-5.36658 -47.269 919.813 187 177 169
-406.61 51.9158 1308.64 40 19 9
4.66739 150.705 1084.6 255 252 249
-402.714 57.439 1365.41 183 171 164
-25.312 30.7639 1006.81 8 5 7
-599.592 336.301 1377.69 245 242 232
257.229 223.161 972.176 249 251 246
253.659 131.045 948.391 209 206 193
-436.306 300.583 1394.52 244 236 216
181.867 7.56449 884.963 105 109 103
183.65 11.0934 915.896 245 255 247
-355.796 46.0276 1325.3 186 176 168
313.11 460.635 1272.81 69 90 107
-470.956 2.7956 1095.49 248 226 197
72.3963 56.8302 988.851 252 251 237
35.874 163.731 1048.01 255 244 246
202.933 -39.8899 907.657 168 176 152
139.26 -40.3843 940.138 251 254 252
-499.919 138.853 1122.8 131 108 86
113.422 -75.4651 916.672 249 252 243
-618.482 371.64 1462.72 230 231 221
-564.582 110.192 1255.18 143 117 96
-463.33 70.797 1158.17 255 247 224
-513.524 21.3471 1081.99 119 60 42
-410.468 269.751 1289.3 131 94 78
33.3679 -110.29 992.003 233 213 198
-570.055 116.304 1253.52 244 229 208
81.9861 20.8169 987.467 77 71 62
240.402 136.972 900.327 182 187 170
241.782 113.981 928.007 243 240 218
177.342 5.4467 884.363 248 252 234
72.8655 -59.0788 898.763 191 195 186
132.625 3.29003 879.205 176 165 143
-386.996 242.441 1194.62 255 247 226
-398.873 240.944 1224.31 151 110 95
-584.392 320.432 1382.1 254 254 234
4.52063 134.529 1040.78 249 246 251
-381.945 58.4546 1431.78 50 44 36
32.4868 4.62707 941.601 241 227 210
132.712 11.9375 922.568 203 203 182
238.927 87.0494 926.221 96 97 92
-594.769 -2.77811 1167.25 255 249 236
-504.098 -14.0296 1139.47 255 251 230
42.8225 172.593 1114.08 112 80 73
-290.772 299.922 1436.47 32 32 24
274.926 249.305 1010.85 231 233 229
181.56 26.7012 916.548 241 246 243
73.6683 21.8911 934.966 252 251 243
91.583 155.64 1036.95 226 212 210
-518.242 518.432 1521.63 73 75 67
262.451 216.298 989.861 226 230 228
118.049 -75.6079 917.257 95 105 96
-0.254142 53.0999 1012.16 248 243 240
70.9854 185.989 1035.93 103 77 63
286.828 334.551 1138.93 219 235 217
3.15938 -89.8396 1042.09 59 64 53
-596.954 205.591 1362.87 133 128 116
65.2515 -62.0591 944.003 224 210 195
-571.037 16.1489 1204.07 121 61 42
7.38128 156.19 1085.44 115 112 113
297.131 408.332 1242.05 125 145 161
-508.2 169.21 1180.91 230 220 206
-365.723 215.557 1109.53 255 242 226
49.0179 166.702 1050.46 232 212 199
-389.724 55.5723 1244.59 174 157 148
-45.8002 -40.2209 962.448 171 154 129
-322.828 165.593 1309.68 155 131 110
142.776 -45.7184 849.55 111 119 100
-313.907 145.549 1209.51 140 110 101
-598.871 318.993 1375.9 242 235 225
260.392 472.811 1223.29 74 88 106
90.5484 173.956 1017.4 120 103 96
206.458 -3.37588 886.915 184 190 185
82.0956 63.9976 1010.03 202 181 161
-374.745 221.635 1409.85 66 38 29
-432.39 157.326 1206.89 193 154 118
39.3226 -59.0886 940.309 167 157 151
-469.329 136.41 1257.21 255 239 212
-562.668 203.655 1340.04 153 150 152
-351.626 225.956 1363.48 24 5 3
-383.214 79.4757 1429.8 142 133 132
188.551 -16.3605 855.754 119 121 111
247.087 453.318 1192.16 105 133 152
247.271 424.794 1121.47 215 246 254
294.648 341.015 1141.65 115 138 141
197.26 -14.109 885.377 231 229 215
175.369 -113.591 973.765 232 226 227
-531.023 418.861 1414.45 89 95 91
-471.906 130.049 1255.71 161 118 85
52.2529 54.9093 967.909 255 252 234
-37.6068 80.1034 990.648 255 254 251
231.227 129.273 960.929 245 251 247
-323.673 158.129 1382.2 149 111 98
66.8963 66.3778 1007.8 255 250 245
183.958 31.1448 917.069 245 252 252
211.434 22.4779 888.871 213 209 196
102.168 76.3939 1030.06 244 235 214
194.52 49.6658 904.63 248 254 237
116.911 168.197 983.416 253 241 235
-13.5581 123.865 1036.86 102 91 76
-441.248 -38.88 1189.33 181 144 126
195.346 -59.7062 895.528 178 184 168
225.462 439.896 1215.49 138 165 162
-499.3 -8.45488 1141.46 157 121 94
-315.306 39.3183 1268.83 60 39 29
-21.1518 77.9932 1050.8 240 211 197
198.627 399.376 1232.89 131 155 148
-438.531 -36.498 1160.77 137 116 100
52.5018 102.297 970.359 255 244 225
-380.772 196.838 1406.05 86 51 38
-343.78 -5.92906 1309.24 43 41 33
44.3896 -64.5425 975.628 44 42 36
33.2217 -140.558 1049.63 201 193 187
-657.638 334.168 1495.79 107 109 96
-39.3918 44.0092 918.209 125 108 107
246.395 131.018 947.644 238 247 223
-407.773 17.6052 1269.11 148 120 113
-27.8162 70.4809 991.96 161 110 101
214.519 344.333 1111.37 89 113 122
-13.645 67.9785 1033.7 213 211 215
-359.006 38.2046 1401.76 52 37 30
183.165 21.7872 872.249 232 237 227
-518.342 96.1909 1271.76 125 73 61
-688.071 44.7719 1198.36 212 200 186
-552.32 180.977 1251.78 214 189 169
363.014 470.598 1261.1 102 128 136
-390.962 234.688 1405.26 176 154 140
-296.674 284.125 1402.15 57 52 40
-406.699 85.3632 1037.47 146 117 94
206.534 0.934685 887.168 132 139 131
90.6736 -116.5 999.721 128 106 95
-33.9188 -40.1985 964.533 184 180 160
59.6535 250.398 1100.44 248 253 230
-357.39 250.564 1205.02 164 158 152
-491.925 511.033 1473.57 55 58 53
-359.618 76.2497 1404.42 120 120 119
249.42 143.385 930.363 250 254 244
-460.117 100.617 1192.85 198 163 148
56.8658 244.786 1099.64 229 226 203
40.3763 85.8571 1020.44 214 202 175
88.8183 178.231 1057.81 252 240 223
-493.968 374.161 1342.47 134 132 124
-19.5335 128.747 1078.64 245 230 214
183.679 -49.9213 853.502 170 176 156
193.697 43.9654 888.17 236 247 216
-468.184 59.3754 1155.9 237 224 202
121.076 192.12 1063.79 132 112 97
-19.8403 75.4762 1051.55 120 105 89
23.8818 -100.174 1044.49 124 120 115
30.925 -97.1298 972.911 166 129 113
17.5468 -128.678 1047.92 191 190 173
-377.668 294.868 1234.97 204 148 132
-470.339 376.531 1351.28 114 110 93
-311.363 41.4606 1237.66 159 150 144
44.3894 105.642 1006.34 158 161 138
27.0863 42.3305 929.02 250 213 189
29.3201 107.613 1003.94 255 218 194
-415.945 387.183 1454.17 190 167 139
110.946 2.00427 929.592 244 243 237
-32.7092 85.0095 991.799 186 172 172
49.4325 105.806 1007.18 255 253 234
244.727 215.968 987.825 240 252 248
57.0195 185.118 1052.85 215 194 184
76.7337 177.339 1029.69 246 233 216
19.1154 18.7238 975.694 210 201 177
-371.888 206.992 1370.41 211 168 155
85.7893 -51.9945 870.888 150 182 177
-636.438 99.5714 1225.3 255 234 219
166.306 18.3209 883.829 113 124 115
35.633 -97.0201 1027.21 207 149 120
96.0271 119.572 928.613 181 155 151
38.5843 -106.115 1052.62 106 56 54
153.236 48.1758 883.83 198 200 183
60.0998 157.22 974.198 214 200 192
-502.102 540.243 1530.22 143 149 144
136.677 -93.1181 952.29 146 164 165
-25.1866 69.9033 1023.53 255 252 252
-337.27 65.4729 1231.31 123 109 100
-12.0768 39.6216 922.635 227 215 212
-607.686 236.463 1448.91 190 186 183
-540.5 238.283 1198.73 174 171 170
43.3266 249.43 1164.84 100 98 90
142.803 -3.33536 993.412 195 190 175
-564.641 342.965 1312.74 255 254 250
205.241 122.169 911.043 220 229 210
-492.088 545.582 1534.59 209 216 210
127.774 -40.6432 831.551 138 154 135
-360.608 182.161 1325.09 139 108 97
122.593 -77.5814 903.924 171 192 182
-437.641 396.657 1223.06 170 170 165
-4.28393 161.156 998.849 223 222 219
58.2141 334.182 1170.68 124 121 107
-426.478 -65.5596 1225.3 148 128 108
131.91 197.739 1065.79 171 154 133
261.124 198.854 919.834 174 159 154
-326.607 223.243 1086.53 84 85 83
23.3582 119.138 985.531 254 253 238
-615.583 1.60411 1186.11 233 223 214
110.773 131.493 1018.28 255 233 223
7.26041 194.146 1044.42 75 70 58
-346.311 48.7177 1406.87 42 43 35
-439.902 72.5764 1057.15 189 168 154
89.7801 125.807 961.247 245 239 236
87.2672 232.276 1104.3 182 181 158
71.537 0.856137 958.641 204 192 173
-511.027 172.052 1244.79 164 148 132
77.3082 164.932 977.262 255 242 212
105.549 -85.6733 948.588 85 91 90
-440.372 226.337 1235.55 175 155 153
-427.649 267.189 1425.06 196 187 171
-18.9202 -59.5763 1025.15 27 16 13
88.9592 -116.388 1038.32 131 94 83
-415.058 32.4804 1304.43 144 121 106
-653.431 192.37 1301.84 248 242 218
66.4475 -103.169 992.155 150 149 139
-527.782 150.704 1172.15 245 243 231
68.2119 -106.225 997.317 215 192 153
-300.145 328.601 1519.28 58 54 44
-475.135 89.2757 1217.86 162 144 112
70.1614 169.812 1054.25 134 107 99
269.304 201.172 1043.66 215 216 200
195.762 49.8662 952.254 248 253 247
-507.49 152.543 1121.09 246 238 225
148.983 19.9347 912.39 190 183 172
125.695 9.77542 921.575 193 185 166
137.61 258.373 1051.79 253 253 252
-705.83 18.3019 1188.07 225 221 205
-461.181 35.6372 1251.44 149 143 135
196.841 64.1223 937.153 242 253 252
186.695 29.0166 886.626 245 250 238
84.3108 107.497 975.537 178 157 146
190.231 -31.3775 883.685 239 245 211
-277.028 166.294 1351.02 108 90 74
174.725 226.751 820.184 226 227 204
348.285 449.565 1233.46 95 123 149
231.575 155.96 916.233 246 255 229
-405.909 179.244 1157.43 249 234 198
363.933 440.956 1234.64 182 206 217
148.451 22.5841 882.012 161 161 150
281.332 160.226 1028.05 178 186 171
125.692 -2.20339 908.38 82 78 66
-62.3398 -44.71 959.331 65 68 65
290.561 228.967 1008.89 193 189 179
69.5428 253.427 1119.72 233 234 205
-22.8065 45.561 1007.83 167 161 162
-530.857 497.219 1514.34 223 223 216
-19.1648 135.653 1114.31 255 252 244
339.1 421.121 1179.78 96 129 133
-464.979 -20.6252 1214.64 115 103 87
248.839 174.38 985.143 229 238 228
-505.619 90.3594 1088.32 236 212 198
-472.585 79.7438 1186.82 229 215 189
-351.931 -35.4044 1283.72 60 63 55
298.541 495.212 1253.33 245 253 253
-641.891 331.935 1502.4 225 229 211
234.568 186.143 964.26 221 230 209
236.377 143.452 962.291 247 255 233
80.655 151.853 1054.98 249 232 220
-717.699 68.6434 1260.79 236 232 222
172.123 -44.4065 881.095 115 136 115
-366.855 -27.4242 1349.93 71 68 61
289.681 294.196 998.309 117 135 122
-413.924 109.642 1083.18 243 221 191
-613.912 -2.45836 1159.58 133 124 110
-8.39598 154.367 1101.47 230 230 222
164.252 6.15468 894.603 142 169 151
-434.582 256.65 1213.69 255 248 241
-556.29 254.9 1194.36 255 250 245
242.224 285.471 1029.12 240 238 217
-39.3056 62.3749 1046.7 251 255 255
-609.449 297.236 1368.77 210 198 180
234.322 285.157 1028.11 238 235 211
169.674 77.2435 968.315 237 231 198
-470.407 -14.7622 1213.08 129 116 91
366.935 434.809 1234.47 148 174 188
284.502 226.648 1009.46 138 134 128
-437.618 107.405 1142.15 250 239 216
208.726 63.9671 933.826 232 240 224
146.138 98.8256 983.927 217 220 197
-592.953 223.208 1288.32 234 178 175
4.49601 124.167 1040.22 220 202 194
102.208 -49.0449 832.243 88 115 129
149.747 83.8746 915.796 246 246 217
114.276 2.55474 907.198 94 97 96
-459.709 -27.3509 1183.61 93 82 69
-348.185 203.941 1288.11 111 84 66
248.018 159.086 1097.37 173 188 171
-439.603 28.9402 1163.78 95 87 76
241.108 339.499 1160.38 170 162 154
-439.277 -62.8289 1289.46 122 102 84
84.2929 69.5932 917.906 235 227 202
15.6932 221.47 1090.74 124 114 98
216.616 311.973 1067.01 241 238 229
-373.673 240.067 1480.26 162 139 131
326.342 322.996 1099.93 121 129 118
-581.079 96.9649 1394.93 186 140 122
31.6865 248.942 1162.58 188 183 165
-619.356 49.3076 1364.05 166 120 92
153.97 48.7619 914.518 209 215 190
-311.626 194.416 1561.7 106 93 83
195.687 45.2176 951.967 225 223 208
-456.559 -25.2947 1155.3 104 83 63
131.382 -103.639 935.333 102 93 90
142.489 -116.082 897.078 138 152 149
249.888 285.751 1058.06 183 180 154
151.34 267.163 1087.2 251 248 236
-534.683 164.745 1235.05 252 246 228
-631.992 234.114 1351.02 213 168 160
-5.55516 44.5933 1052.29 255 246 243
119.682 133.823 932.774 250 240 226
-662.083 94.2259 1191.08 223 208 205
-422.975 173.72 1086.12 227 219 215
193.895 56.8284 888.86 243 247 243
-27.7832 55.379 1007.3 212 197 201
-46.7176 -32.3508 1021.78 139 133 116
380.625 373.034 1257.69 109 126 121
-420.008 -15.5237 1299.47 114 116 113
190.678 241.756 875.366 147 147 125
176.203 54.4772 982.539 115 102 97
-598.738 99.0046 1203.03 214 165 171
-407.876 295.789 1403.94 151 142 133
242.026 275.173 1028.38 225 222 194
18.69 116.701 942.95 172 157 147
59.9177 1.25407 869.926 186 168 145
-719.237 15.6947 1216.89 254 253 235
-602.685 264.335 1288.86 204 184 186
-419.806 197.076 1214.14 207 188 155
205.975 -81.4844 1186.8 85 112 96
-628.183 239.476 1316.99 184 184 182
