-94.1235 401.561 1102.69 254 247 248
-72.998 28.4268 1155.17 255 244 232
-92.6132 425.09 1125.28 232 221 198
115.397 -48.5329 1657.03 237 229 216
-87.0291 516.894 1182.67 232 234 228
137.108 68.2104 2016.49 24 22 18
-82.2569 17.8679 1204.54 188 183 180
-98.5183 450.36 1232.29 107 100 99
-94.2304 490.956 1208.63 252 238 238
-33.2874 3.15271 1270.67 249 233 217
-70.8599 26.0817 1177.08 128 108 90
-122.062 201.334 1018.9 21 17 9
-102.556 417.379 1173.89 237 229 221
104.651 54.4701 1675.73 223 218 213
-14.517 168.597 843.865 1 10 10
-52.8351 203.007 1226.55 99 69 52
131.35 33.0659 2007.14 249 214 196
-64.4832 -6.14053 1262.8 88 64 53
-91.5713 449.249 1106.12 36 2 0
-89.7053 343.526 1122.17 110 94 88
115.635 -18.8389 1758.68 184 167 158
-113.787 219.35 1109.96 95 70 51
-107.993 310.979 1067.9 86 74 68
-93.7892 304.504 1096.34 101 39 28
147.001 53.225 2015.64 125 107 100
-132.606 224 1105.89 210 180 168
-60.1349 14.2147 1152.97 251 232 208
117.198 -29.5649 1751.09 62 47 37
109.586 96.3256 1685.07 109 107 106
-122.164 330.654 1164.59 239 226 223
-113.925 128.103 1059.1 158 82 66
-174.406 145.607 1091.23 160 143 140
-109.148 231.571 1065.73 96 72 63
-73.487 486.861 1213.26 109 87 61
-111.471 159.889 1061.39 105 41 17
-103.979 237.15 1067.16 250 237 222
-36.1574 478.689 1242.45 42 41 40
-46.6591 42.1365 1214.53 171 88 55
-107.955 493.913 1261.96 124 108 90
-31.5751 471.87 1252.9 96 99 98
112.119 35.0961 1981.67 251 212 196
119.395 36.3616 1918.28 107 82 68
-221.713 485.653 1123.97 138 133 130
147.21 16.9076 2138.61 122 75 62
-118.851 80.7433 1055.3 254 246 221
-90.8411 365.835 1199.72 253 219 218
-116.457 213.683 1109.01 228 229 225
-48.6551 249.109 1252.97 124 108 101
-112.022 161.042 1019.12 120 59 39
40.6446 288.552 1679.17 54 78 81
-134.598 167.006 1056.62 102 55 30
-84.0638 319.471 1092.09 243 238 232
-245.403 499.065 1169.99 107 100 91
-58.7695 11.4127 1156.87 126 105 70
-93.3103 186.704 1087.63 124 97 97
-73.6394 319.197 1175.18 141 124 122
-79.3743 310.012 1173.33 249 221 202
-78.0631 471.783 1216.89 139 133 127
-74.3191 424.457 1236.53 241 236 219
-119.083 133.289 1058.24 176 98 76
-237.159 90.6605 1095.24 171 151 137
155.709 106.609 2085.43 191 174 181
-84.8906 502.578 1233.5 231 210 187
-12.9304 183.819 1261.23 35 25 20
-124.408 177.952 1059.49 130 108 112
-166.611 152.974 1115.75 68 35 29
-237.18 503.647 1172.33 66 59 53
-257.57 285.493 1151.13 73 19 10
161.766 -179.324 1847.3 181 195 195
-61.4708 357.828 1154.72 204 190 177
-73.0638 315.479 1199.57 154 123 107
-265.82 116.018 1065.86 65 11 4
-95.8359 123.301 1062.77 172 182 182
-78.7778 380.979 1126.37 255 247 243
-250.622 298.346 1129.99 53 6 2
-184.511 95.1715 1041.05 138 113 112
-85.6193 42.3688 1180.83 249 220 197
-82.3755 483.139 1326.24 192 186 179
170.283 -8.50108 1861.73 255 248 212
-43.8413 489.688 1247 77 78 74
-62.7897 414.932 1328.01 117 118 93
117.778 79.6551 1683.52 200 181 183
-83.6405 38.7556 1081.17 175 142 124
-85.0905 300.833 1171.48 255 232 214
29.3916 97.9567 1716.4 31 25 8
-37.6624 14.9782 1214.07 255 247 218
-73.2708 140.825 1163.53 254 245 236
-67.897 337.295 1177.5 176 165 154
-63.7223 411.665 1302.2 201 201 176
-67.5608 140.96 1164.8 255 248 239
-243.311 96.1407 1127.83 95 58 48
84.0924 101.483 1774.18 127 117 107
-69.2046 424.324 1130.6 177 170 164
35.3632 96.2807 1761.61 137 119 100
105.271 301.878 1821.88 96 131 134
-130.086 205.829 998.323 189 172 156
-90.2274 111.509 1157.61 255 249 234
-96.5951 365.064 1034.19 79 52 42
-104.263 508.943 1177.78 143 134 112
-49.8039 190.851 1226.29 219 184 159
-153.807 209.25 1100.01 83 45 28
58.1493 328.194 1923.31 98 127 134
