-35.6032 37.5435 1090.88 255 247 232
-40.7366 457.104 1245.4 254 245 244
-67.7345 428.724 1130.32 255 245 231
-3.76519 49.8149 1256.23 65 11 0
273.431 -108.66 1584.23 219 223 216
313.11 -49.0645 1692.49 255 246 238
-73.2586 411.234 1128.41 241 233 235
-0.231102 205.972 1208.06 112 67 50
2.45515 50.4467 1200.13 111 13 0
-37.234 28.027 1138.22 223 206 205
85.1056 202.422 1526.27 37 37 33
-34.5766 473.356 1247.61 245 239 238
-50.2744 47.3086 1161.46 248 239 228
-195.138 611.297 1453.53 217 215 213
-3.16055 251.053 1209.5 94 76 64
-56.1037 543.662 1246.08 222 228 221
-36.7909 411.4 1091.72 56 44 45
-116.492 226.004 1109.51 32 13 13
271.56 29.1746 1534.29 247 240 217
-28.4308 508.45 1224.42 71 77 72
-56.3505 437.676 1184.76 255 252 238
173.5 260.961 1827.42 223 225 208
-85.0328 287.622 1170.33 107 99 92
-56.6355 495.365 1135.11 237 227 219
299.295 38.5604 1775.55 251 245 235
-34.5886 438.769 1245.81 240 233 227
383.162 306.172 1987.3 140 141 136
-18.0234 380.123 1211.22 235 236 222
-4.04851 225.024 1238.69 133 122 111
-28.4711 363.986 1242.87 81 51 43
322.925 52.6488 1806.28 71 47 46
12.3942 251.532 1271.78 97 93 84
-115.573 212.501 1001.82 212 199 174
-70.4146 343.449 1126 131 122 132
288.089 -26.7364 1598.44 94 70 63
-114.269 221.863 1063.9 227 194 184
-89.6462 330.855 1121.16 149 147 149
-98.7021 217.257 1067.08 103 83 68
-76.6163 273.339 1141.02 239 225 200
327.323 64.211 1817.3 109 99 101
-70.1381 470.142 1159.96 26 13 4
-34.5651 504.842 1249.15 125 110 94
298.975 51.7004 1705.58 228 210 213
-6.29402 163.723 1204.7 255 229 206
-105.133 333.298 1168.33 238 254 246
-110.672 101.84 1033.93 247 198 176
44.9631 511.926 1375.38 64 62 60
217.192 260.882 1737.48 43 55 50
-78.6581 325.952 1123.35 150 141 141
307.211 47.0729 1623.43 130 111 99
-42.4002 300.694 1107.01 245 221 211
205.931 -125.191 1736 54 55 53
-95.599 130.488 1038.14 147 125 105
-14.9155 495.483 1214.89 54 58 71
-163.313 158.289 1134.66 184 160 161
-38.6412 393.29 1161.9 157 130 120
-92.2891 229.176 1026.39 109 106 90
-112.582 106.948 1058.62 141 68 42
284.338 -14.8944 1599.42 219 197 190
-172.799 509.829 1216.49 37 39 28
333.651 39.1324 1709.92 254 244 236
356.409 462.13 2013.67 129 152 157
8.28468 225.51 1241.35 179 163 147
241.226 347.336 1841.71 52 73 72
335.244 86.0094 1717.2 255 248 245
-103.63 134.809 1061.63 244 202 190
-70.4249 351.931 1126.4 143 135 135
-5.7968 235.101 1227.43 230 211 207
-9.39003 192.638 1287.48 205 161 133
-118.072 325.466 1187.19 219 208 199
3.43407 205.883 1290.72 254 239 215
-85.1939 361.218 1174.47 121 108 109
284.566 -7.01729 1600.54 136 117 114
-43.5258 479.023 1218.98 164 157 157
173.784 63.4489 1682.19 32 32 2
-75.6799 197.152 1116.98 164 113 111
-94.9231 254.883 1116.02 244 241 220
322.548 102.99 1717.38 194 185 183
-50.4638 310.283 1179.43 151 97 88
317.576 322.122 1766.61 218 248 249
9.2076 241.877 1270.6 247 239 241
-4.00258 246.784 1240.32 243 219 195
304.388 79.4556 1629.11 232 218 220
-108.831 145.226 1061.07 255 229 211
392.028 41.9332 1824.93 160 144 142
-72.5204 435.787 1109.06 142 128 109
-103.719 161.261 1063.05 253 251 245
-226.926 294.409 1216.37 64 14 4
-85.432 536.792 1213.18 132 127 114
-55.9628 448.176 1048.09 50 36 20
-54.4936 374.7 1099.17 148 125 120
18.5183 8.0481 1094.38 255 252 233
-99.7224 203.288 1023.64 188 184 190
-109.046 181.164 1182.89 202 162 148
-113.774 92.4098 1057.05 255 249 230
-106.35 107.662 994.075 201 121 102
339.593 15.8632 1708.07 255 247 222
-38.8143 361.515 1184.83 131 121 118
-67.8903 353.555 1177.98 252 250 255
-113.527 80.4566 991.691 138 105 80
323.788 -44.7844 1607.88 246 226 209
-73.7538 415.424 1179.82 167 155 153
357.523 90.5064 1721.75 255 247 237
-90.8804 114.832 982.149 218 216 217
-8.78865 137.339 1081.17 255 244 222
180.429 -138.015 1563.06 216 191 181
41.0155 246.358 1277.54 165 154 143
329.317 -7.59714 1805.07 242 233 225
-92.6402 536.765 1237.36 52 42 27
-68.3246 47.4831 1101.87 244 219 197
280.083 300.432 1659.74 94 131 136
-73.6569 128.942 1135.65 175 155 150
-3.90582 149.958 1178.83 170 131 105
1182.3 -464.523 2273.87 75 74 71
154.123 -84.7514 1656.05 33 30 8
-21.1826 389.631 1190.08 194 178 159
-59.3303 327.207 1127.61 162 149 151
-105.313 121.383 1105.81 185 164 147
-13.3024 199.902 1234.77 236 198 176
2.77088 530.691 1320.87 79 86 88
267.241 9.44157 1693.3 165 141 122
-41.0956 245.8 1112.27 97 75 58
-56.1358 171.836 1169.33 246 203 173
358.137 37.1413 1715.21 245 236 226
-35.7838 293.85 1155.04 171 151 151
237.438 348.909 1912.31 126 139 148
-61.5308 499.007 1216.25 186 178 169
386.048 -183.505 1780.99 189 203 212
-210.376 294.098 1140.07 76 11 6
35.4755 117.05 1294.31 244 192 168
37.1975 114.062 1296.55 255 250 226
24.7564 224.171 1304.17 179 160 146
-69.3343 55.0489 1268.34 210 185 164
295.674 365.598 1676.26 147 166 162
252.447 16.6791 1597.94 57 20 8
-73.3703 188.731 1166.67 120 99 99
309.832 157.667 1625.96 191 185 156
357.235 95.2241 1730.04 185 164 148
370.009 -169.152 1659.85 74 83 78
328.988 -5.00623 1536.47 255 254 227
-77.8168 223.538 1071.9 254 235 203
357.887 153.863 1650.58 250 249 227
287.077 301.101 1674.84 107 158 170
52.7522 -125.874 1811.72 76 72 51
294.065 60.8738 1669.5 115 96 99
432.305 172.73 1849.95 247 252 229
215.97 30.2698 1686.3 37 15 11
234.108 96.089 1708.74 154 122 101
-129.902 189.462 1153.6 98 37 27
-139.904 219.385 1124.75 90 50 43
299.811 330.57 1765.1 134 160 160
-38.4385 341.703 1129.36 254 251 248
345.411 -174.218 1776.32 218 235 227
-88.2654 212.394 1069.09 153 120 116
-69.8637 178.397 1071.21 152 137 124
9.68618 291.216 1338.05 180 158 137
232.458 83.8051 1464.23 144 121 109
-88.0448 352.157 1173.33 229 233 229
-65.3175 154.595 1138.62 246 246 229
366.624 -172.681 1716.25 235 248 250
-87.4894 141.812 1160.26 177 177 174
12.923 9.03114 1057.45 193 170 145
-81.4946 29.8867 1153.41 125 143 154
282.159 -149.828 1486.07 181 209 198
221.792 82.7915 1616.39 137 108 93
214.18 314.079 1746.37 117 131 137
219.019 -137.126 1574.73 238 216 211
34.1163 103.73 1267.75 254 221 195
-46.8537 365.831 1238.85 194 184 173
310.045 165.737 1626.95 111 107 79
-118.134 78.6792 1031.47 236 214 187
900.963 -352.196 1775.22 107 109 107
-6.56382 3.07472 1195.32 115 91 84
-35.382 140.265 1053.52 252 246 241
-94.3005 85.2297 1081.01 250 228 209
418.032 162.137 1968.24 180 178 156
271.869 302.649 1755.19 96 131 131
197.427 -107.098 1720.49 195 196 181
420.808 -43.4681 1813.88 168 174 146
201.731 -112.386 1736.62 56 58 53
-34.3848 155.509 1145.19 209 144 131
