412.172 -183.232 1185.29 226 224 217
-119.33 162.011 1058.56 255 248 224
-255.457 266.378 1052.05 55 51 56
395.767 -226.949 1191.71 250 237 226
-200.294 347.118 1090.22 193 190 177
-141.544 144.767 1010.58 94 79 66
-157.325 129.51 1047.92 243 211 196
-203.641 318.255 1069.96 41 31 29
-147.413 161.109 1052.13 250 235 225
-278.232 135.785 1055.63 43 22 10
-134.574 140.535 1053.84 56 14 6
-274.539 203.109 1067.63 255 241 205
-199.202 344.015 1119.51 200 186 180
-78.3849 134.424 1111.27 70 41 29
-151.098 114.47 1006.76 78 61 41
-144.466 98.5155 1049.02 255 238 221
-229.567 341.114 1038.91 86 55 38
-209.095 384.734 1137.78 253 254 243
-22.7201 373.701 1215.49 38 32 29
-67.8391 207.687 1168.43 251 238 230
-260.274 375.153 1155.38 237 218 208
419.679 -50.0694 1166.69 153 131 130
488.733 17.3916 1231.46 255 247 241
-301.773 55.5863 966.429 213 227 212
-134.51 130.062 1053.23 247 216 192
-267.194 67.6645 938.481 3 10 3
484.139 1.54942 1326.68 71 67 65
-169.833 37.2716 998.184 66 26 25
543.625 -10.2777 1231.01 238 217 213
-195.668 232.143 1044.75 89 55 41
-168.621 33.9243 939.546 50 17 15
-109.064 172.914 1061.52 108 99 87
-154.872 139.987 1049.13 250 233 210
572.722 244.248 1453.35 227 252 254
-129.528 151.219 1055.6 37 13 7
-178.347 303.798 1098.85 236 236 222
-250.095 268.777 1026.42 81 69 59
432.292 28.2958 1177.2 234 231 230
-206.851 318.057 1115.35 201 180 166
-226.678 270.137 1017.72 255 251 248
-170.135 -22.3295 974.202 225 208 182
-169.518 303.571 1051.18 203 188 174
-197.42 328.005 1089.04 211 174 168
-241.371 276.833 1211.32 247 221 214
594.435 262.565 1506.08 155 191 216
424.418 -97.892 1078.99 213 205 204
-269.966 128.74 1019.8 206 181 167
-46.0238 28.788 1065.5 255 245 211
609.39 350.989 1550.93 47 85 87
-215.439 370.92 1117.37 46 40 36
-174.072 -31.3499 993.376 216 185 178
-103.004 23.8006 965.578 187 136 126
-149.833 142.729 1050.47 84 51 32
-174.651 42.1298 997.391 159 95 91
509.348 -106.634 1168.26 248 241 217
-283.445 72.9876 1012.83 95 112 99
468.094 12.3117 1284.66 208 203 199
-127.969 -10.9153 897.619 63 16 7
-123.438 -17.8372 1046.22 88 16 9
-271.383 51.4382 936.643 67 59 49
481.946 -88.7643 1270.94 251 248 250
-240.162 255.606 1034.97 253 237 232
-164.708 105.92 1044.74 233 188 180
-148.468 179.078 1098.34 237 191 180
-137.003 119.561 1051.99 241 217 186
-46.0182 20.9421 1064.93 255 249 226
-175.688 34.1357 1013.23 119 92 82
-159.701 108.611 1046.09 95 52 39
531.078 246.224 1394.22 39 63 83
-260.848 65.563 996.652 64 58 57
-219.09 241.483 1074.16 164 127 115
-168.09 228.298 1051.21 143 136 136
-142 106.407 1050.04 126 57 23
-245.634 309.919 1082.22 134 130 120
511.612 -120.755 1213.3 244 232 213
-197.713 354.537 1048.61 221 217 208
-188.409 -21.4822 990.681 229 195 185
437.073 -9.75109 1224 55 44 38
-256.538 43.9409 977.727 103 88 88
558.84 239.32 1394.44 216 248 254
-301.867 62.7517 966.757 53 46 35
-58.4472 44.7412 1039.49 251 230 205
533.06 -28.3323 1227.87 255 247 241
519.171 16.2001 1181.76 101 73 66
-195.154 261.932 1025.11 254 247 231
-22.2473 100.625 1074.92 250 244 243
-91.3977 389.49 1199.67 222 205 183
-177.188 -15.0989 972.944 114 83 76
-128.302 -6.93714 966.511 228 211 200
-236.257 310.369 1060.81 89 56 51
455.318 -263.608 1292.33 199 176 160
-139.18 317.581 1159.21 234 231 211
546.064 95.5417 1204.13 255 254 229
551.595 -31.481 1228.36 238 214 215
-61.2642 187.057 1139.3 140 93 84
602.253 -107.035 1168.25 212 213 191
-293.49 92.693 932.913 232 222 218
-214.796 337.099 1042.54 112 96 86
701.422 -17.1394 1291.06 240 255 243
534.733 7.38343 1413.73 97 91 93
-62.0927 177.218 1071.79 62 49 25
-216.494 81.6794 1030.71 255 233 234
-252.062 53.6178 979.391 255 242 233
-198.588 220.464 1088.69 255 246 238
-280.425 145.123 976.961 113 96 89
-88.2051 147.066 1064.47 112 87 62
-200.957 273.664 1045.81 85 73 64
663.147 225.803 1509.31 77 102 106
486.172 -28.0873 1225.11 255 245 230
-216.953 395.443 1144.5 212 210 199
532.045 310.935 1405.57 144 189 198
431.328 -55.9016 1166.84 225 215 208
526.69 20.3607 1234.33 233 219 211
-310.954 79.2849 965.187 229 211 200
-113.802 -2.32571 1008.07 255 222 196
-159.403 69.7571 1043.77 136 109 106
520.708 13.4498 1270.6 207 179 167
-270.635 350.711 1150.19 249 250 249
-167.169 34.4439 988.101 253 237 224
-126.033 126.169 1074.87 114 72 42
-275.099 193.888 999.373 245 248 228
-228.086 257.584 1058.8 255 246 247
-220.132 327.093 1023.46 172 151 133
496.84 -107.477 1163.9 221 214 190
-167.693 71.833 1000.64 142 132 132
450.315 -98.7881 1146.88 248 246 243
-239.646 248.12 1128.74 105 42 30
-222.167 280.463 1107.99 126 112 109
-145.29 117.56 1068.47 212 175 138
518.114 -29.2448 1282.12 255 251 240
451.51 -42.9261 1122.66 241 206 183
-265.181 251.882 1073.24 176 175 144
-30.2824 82.1513 1092.91 231 222 197
541.994 -291.182 1429.01 192 192 186
-149.19 300.162 1105.7 117 114 98
486.868 3.11366 1297 221 217 225
-31.6696 355.627 1135 254 254 251
612.95 -174.226 1155.62 199 219 214
-165.214 68.7409 991.57 133 137 132
14.6314 402.982 1342.74 74 73 59
508.593 -9.97546 1177.72 235 213 208
625.263 -159.177 1160.55 222 243 218
-155.553 250.029 1055.41 171 150 153
-46.0079 13.0425 1064.4 255 248 224
-114.512 381.952 1194.74 213 218 178
-77.8199 27.4736 1009.3 253 241 253
435.298 -95.8302 1161.93 255 254 255
380.983 -218.289 1290.79 11 13 11
-158.526 224.705 1046.44 132 116 113
-246.573 471.732 1240.3 36 34 30
-258.187 42.286 939.53 255 235 232
486.72 -6.88347 1283.33 202 195 196
692.039 -182.189 1262.42 232 247 230
-66.4215 39.6557 980.625 252 238 206
-218.403 434.69 1227.21 41 24 20
512.955 -53.0291 1207.42 243 226 211
535.187 5.02728 1232.71 127 105 101
-255.129 245.266 1050.53 82 18 12
-234.203 380.038 1084.18 245 237 224
-289.549 181.201 1017.58 252 248 217
-215.285 538.134 1257.14 23 21 15
-56.3775 79.5822 1112.05 246 210 177
-191.128 -14.9942 969.862 191 184 167
573.002 -228.16 1140.94 161 162 166
-269.522 119.698 1040.09 71 58 50
-272.004 102.703 1136.3 178 118 102
559.985 -175.713 1156.5 85 86 78
426.415 -95.7336 1161.34 255 252 255
-122.663 188.118 1037.19 154 134 129
-24.9187 105.949 1074.79 238 206 203
-170.139 233.316 1086.35 255 248 249
-42.8208 275.302 1128.3 224 216 200
-230.155 363.146 1162.85 53 46 37
525.359 318.118 1406.31 20 61 55
-72.3229 68.2338 1062.61 255 233 239
385.244 96.4761 1484.2 62 58 45
-19.4344 125.853 1097.17 255 249 234
-33.8786 68.0532 1006.95 250 231 206
-259.739 226.507 1047.81 125 83 58
619.588 -285.14 1285.13 147 195 198
498.997 6.10282 1160.64 107 88 81
627.824 273.457 1535.75 81 120 118
-261.968 58.0965 930.877 255 253 255
-250.441 91.2162 1022.72 255 235 212
-111.422 12.5886 1009.43 230 206 184
649.42 -236.327 1252.99 154 172 160
578.665 194.829 1328.09 118 141 157
-31.6731 304.385 1132.23 136 64 35
-59.904 -6.17111 997.476 255 235 185
7.68375 246.792 1136.74 237 224 199
477.147 178.568 1280.59 59 53 39
-205.132 -12.0257 929.657 76 64 53
413.191 -87.3529 1169.99 141 122 113
579.754 13.2094 1275.41 231 204 191
-48.8505 148.181 1072.63 247 219 219
-220.473 42.499 948.705 254 233 215
486.512 -22.025 1225.96 254 252 251
-94.0691 367.16 1118.8 156 159 152
-11.5278 154.573 1080.62 253 234 204
-307.368 117.58 1008.88 255 244 237
-178.179 170.513 980.235 180 145 128
-319.497 57.7179 961.717 74 49 37
372.707 -218.275 1244.27 50 51 54
-267.135 231.336 1046.08 136 103 79
606.083 240.962 1455.46 138 172 173
-134.279 90.869 1050.84 151 87 47
-84.1678 278.37 1090.56 247 245 213
-108.248 2.75365 1050.82 130 42 11
625.269 -124.251 1149.02 225 255 228
-74.3213 579.561 1360.62 47 68 58
534.318 -243.944 1137.1 106 127 126
569.383 27.7111 1330.84 240 218 209
-263.425 95.1302 997.303 193 171 152
-228.985 53.8874 985.145 248 219 215
-207.276 -12.5011 966.318 203 187 171
467.982 95.5351 1273.13 136 132 111
-14.8704 248.474 1132.38 255 240 205
-133.594 282.389 1084.61 159 152 132
-247.677 73.0043 981.567 243 249 238
-247.825 87.6163 982.31 253 227 206
-107.444 46.6875 1074.91 214 171 151
529.775 228.448 1390.91 77 116 121
347.722 -205.083 1176.85 141 142 143
-162.687 386.246 1150.37 175 183 156
-188.802 499.938 1154.45 34 32 29
-261.796 237.454 1006 156 165 146
-146.054 120.84 1051.67 165 122 102
-186.575 267.905 1043.44 114 62 57
-191.564 290.957 1144.38 179 157 149
-69.7402 78.8047 1063.81 251 213 196
757.674 47.8316 1392 192 199 171
545.379 -175.559 1156.14 97 88 74
-195.496 -21.4011 989.056 57 35 17
579.056 -175.852 1253.29 110 97 86
660.917 -165.897 1210.55 190 223 193
774.082 -173.421 1414.58 192 219 202
452.546 -73.0997 1216.68 139 123 118
577.673 -241.5 1128.28 129 189 197
-273.838 58.099 1014.56 228 192 176
486.672 102.76 1321.92 73 66 54
654.231 -292.403 1365.84 118 149 145
462.569 -245.75 1274.7 142 101 106
-323.532 31.7919 959.196 219 191 171
-94.8126 280.557 1088.38 251 244 229
-211.422 341.392 1286.2 203 198 170
-15.2518 142.234 1098.85 240 209 199
