132.542 207.992 907.539 212 208 198
-60.1536 26.4409 863.485 251 247 230
146.559 410.665 984.403 61 72 62
149.193 216.121 941.823 244 238 223
-37.5693 -52.2253 983.828 252 250 247
29.494 191.977 862.448 57 55 35
50.2472 253.364 929.03 78 90 88
71.4586 189.754 856.599 33 37 32
-24.4219 14.1036 794.413 0 1 0
52.4931 -53.6737 943.568 243 241 238
-86.3126 23.061 889.467 214 203 200
-55.6065 31.3226 854.016 68 68 60
177.527 510.142 1054.57 39 70 80
-341.854 175.043 1237.23 65 37 27
-21.2851 61.2629 809.736 253 255 249
-326.65 55.6934 1256.95 193 187 179
-173.093 38.8983 940.344 207 201 196
-46.5389 -47.8772 940.42 253 251 248
129.589 146.924 903.883 186 172 162
-66.0739 24.9307 852.037 248 242 236
8.09666 6.49286 863.131 0 13 21
-23.1891 49.121 821.183 82 88 79
67.8978 180.765 826.687 132 134 129
-383.091 22.77 1242.69 222 205 196
48.9461 63.8926 791.648 187 180 168
-21.8024 16.8589 858.967 254 252 248
-275.468 255.128 1360.5 231 223 210
-377.837 60.9467 1240.33 197 186 181
-157.611 32.3816 928.957 206 187 162
199.876 504.94 1073.54 231 248 255
-34.8797 -14.2734 930.115 93 102 100
-355.782 171.179 1298.9 75 39 27
-323.899 61.9676 1258.46 27 29 24
-361.003 61.2656 1246.1 236 225 221
24.6658 47.2888 839.142 250 254 250
-61.8345 -10.8318 912.214 255 218 201
-25.2292 34.9641 820.259 105 116 117
-47.2682 -42.5051 982.638 47 41 55
-430.665 361.16 1362.73 44 43 42
-89.799 236.521 1027.14 251 250 235
55.9963 -74.9083 997.565 214 214 209
-321.84 59.52 1373.16 184 185 173
-320.76 70.7503 1200.53 167 150 142
-328.604 190.217 1208.28 58 33 23
30.5032 69.7403 793.49 201 203 182
-364.06 23.852 1160.51 184 162 147
-44.4222 269.832 1052.76 120 107 98
-21.1563 41.234 921.443 10 26 22
7.89213 142.079 857.026 248 247 233
-432.029 155.372 1170.74 96 74 39
-25.6038 49.6676 761.697 251 255 255
-518.339 381.059 1442.81 88 89 92
43.569 -67.469 996.176 207 206 195
-348.001 164.679 1274.11 203 167 152
-422.141 -26.1796 1158.72 194 182 168
108.026 182.612 873.45 195 169 155
94.378 321.002 906.665 232 234 230
-19.7437 103.137 850.928 238 234 221
-109.11 40.823 874.33 223 216 197
-54.3908 -12.0572 929.654 241 211 206
-86.5142 -15.9094 968.973 226 227 223
-79.7549 242.139 1029.47 250 245 233
40.4277 -6.13726 867.257 216 214 210
-65.984 348.793 1000.74 126 126 117
96.1572 328.986 895.383 239 239 228
-305.674 49.2555 1327.91 58 52 37
-10.7219 40.767 833.673 65 93 88
-43.1629 -29.5017 948.136 64 65 65
-373.7 183.254 1293.92 191 172 163
-19.1301 41.0852 821.458 119 128 118
-305.628 37.0617 1304.38 67 55 46
-21.8097 6.32614 858.565 169 197 189
-335.828 212.588 1269.27 35 15 9
-59.7048 10.93 882.07 207 234 226
-508.195 154.773 1210.03 114 114 104
-146.727 97.03 933.781 253 249 247
-44.8489 -37.6682 983.326 253 243 238
110.005 327.888 928.469 236 238 224
-92.4138 287.617 1028.71 235 241 221
188.15 497.608 1055.48 225 244 248
-100.593 38.7742 875.834 216 207 197
-314.434 165.997 1271.71 193 170 148
-47.8367 -22.5471 947.661 25 41 32
-442.556 104.866 1139.99 247 232 219
-23.6663 283.835 1042.43 110 101 95
42.8721 105.376 833.459 133 133 125
116.77 327.129 942.381 253 251 242
190.035 441.073 1052.32 49 78 94
-71.0816 -15.6034 943.844 246 228 215
-410.028 209.571 1183.17 128 98 77
-121.696 26.8643 902.693 172 172 157
191.031 511.305 1056.68 47 67 93
-344.88 187.23 1237.11 214 187 173
-21.9413 249.759 949.804 254 247 245
88.4806 243.609 913.769 254 254 238
-354.994 167.256 1258.55 160 125 114
-33.7969 -20.2493 950.203 110 83 57
-100.085 -6.43276 974.584 252 226 214
77.548 120.544 838.54 163 156 154
-319.844 37.8899 1234.54 193 152 137
61.7342 158.135 885.549 245 245 242
-406.872 92.3811 1037.78 135 100 89
-312.633 77.8506 1263.65 169 171 170
81.2367 127.04 867.157 169 167 163
-317.544 -18.9147 1152.01 141 171 172
-407.549 215.665 1184.55 229 219 205
90.3743 304.199 893.781 253 253 246
-97.5076 24.8084 907.219 161 155 148
32.225 -79.9002 1032.38 223 197 186
-122.148 203.428 979.46 251 249 249
39.7227 -51.0105 960.35 212 198 185
-310.104 309.383 1574.36 245 245 234
-434.44 149.411 1169.36 255 252 208
-43.4366 82.9807 819.363 106 87 71
-368.434 215.921 1298.22 184 162 157
-49.1634 227.753 960.374 231 217 210
-259.369 245.244 1438.83 111 95 75
-62.098 324.16 1126.7 137 129 117
-419.911 -8.87393 1107.67 140 125 109
-452.75 41.8728 1222.43 144 141 136
-334.77 162.397 1305.06 215 197 181
-477.952 98.7644 1217.12 225 188 172
-51.0986 21.4827 842.157 21 60 49
-66.9254 108.826 928.196 201 191 184
-359.626 219.681 1301.41 136 116 112
69.3625 195.885 830.219 254 251 240
-307.643 159.259 1386.96 77 46 28
-373.794 -43.7695 1131.31 134 121 104
-448.205 61.7934 1102.98 151 126 106
6.95249 -26.5576 972.05 143 87 83
77.87 58.7877 810.329 55 59 57
-15.2727 -39.4457 934.506 254 195 171
-136.065 137.462 973.775 159 146 143
-404.699 260.37 1223.01 158 134 125
82.7262 281.99 903.592 253 254 242
-432.549 53.8314 1058.23 212 193 172
-74.4249 29.0371 850.753 144 115 94
-314.821 46.6252 1302.23 64 40 26
75.221 200.334 888.116 205 211 201
63.2562 225.061 878.693 247 255 252
94.0431 266.777 904.719 225 228 216
86.2445 401.397 1033.26 247 244 229
-459.649 42.464 1097.48 255 246 209
46.1861 -23.7126 897.061 54 100 88
-1408.48 -24.9008 2515.86 74 74 63
81.4609 218.393 912.041 90 83 71
-7.54117 -26.5111 920.554 128 109 85
20.0564 121.178 830.821 249 250 244
-397.708 246.036 1190.55 250 238 221
-405.138 224.703 1186.17 170 140 121
-434.498 134.762 1203.92 55 43 31
-134.241 145.551 956.943 252 249 235
-95.8343 180.154 983.977 255 248 233
-288.81 358.947 1586.93 209 212 200
-147.249 32.7575 910.759 230 230 215
102.613 349.738 941.039 241 249 233
-339.002 225.133 1269.44 139 117 108
-45.9246 151.093 907.813 237 228 210
47.8637 -54.6818 1036.55 61 56 47
172.042 501.641 1053.25 145 171 184
-390.138 264.469 1194.7 249 234 223
-439.587 258.468 1310.54 151 123 95
126.827 168.927 920.308 175 173 161
-417.913 29.5115 1113.69 166 160 148
20.6042 106.338 857.392 253 255 240
-56.823 102.857 935.785 115 118 108
-78.084 118.664 841.573 254 250 244
-336.972 -49.2095 1287.3 38 37 21
-21.2034 -17.5204 918.777 255 237 234
108.101 540.788 1150.19 158 176 175
71.8143 203.025 850.557 193 192 174
-468.322 67.8603 1156.08 254 245 228
-1807.74 -55.6671 3208.55 191 193 188
-50.0017 234.129 943.81 230 211 194
72.5477 424.793 1049.81 155 164 162
17.9463 108.741 829.99 250 254 252
-386.942 155.537 1058.36 166 138 114
-114.988 193.961 980.59 243 242 243
-123.842 15.7295 901.861 59 58 45
-19.6853 -22.6174 952.475 174 136 130
-324.68 80.6282 1332.32 17 17 17
-340.008 -39.5503 1007.74 142 132 117
29.9981 113.476 870.495 248 254 242
-439.191 86.7454 1108.02 143 105 86
120.116 469.98 1083.4 97 133 133
-255.819 240.241 1234.52 34 32 24
-59.6436 143.741 952.944 134 114 101
23.5912 190.329 945.741 204 207 191
-303.235 77.252 1208.23 36 29 27
134.196 499.069 1087.63 139 163 171
-49.0623 79.6231 845.052 218 199 187
55.6434 146.94 837.078 149 146 138
125.277 171.522 904.684 79 62 48
-132.667 187.828 1011.64 122 94 83
-510.404 117.569 1196.95 185 163 141
-288.523 144.83 1291.32 41 20 10
77.4692 217.713 870.674 249 252 240
67.0857 97.9217 846.913 70 62 53
51.2504 216.505 866.73 234 242 224
-68.9078 131.464 869.239 143 124 101
-454.011 326.996 1418.43 255 234 217
-542.676 72.5322 1159.79 188 167 163
90.619 330.246 938.507 245 252 247
-57.6028 98.0402 885.646 234 229 224
-122.543 122.134 958.156 196 187 175
-25.644 143.563 924.85 255 250 232
75.1359 340.071 956.086 178 178 171
26.3404 137.794 832.435 253 254 238
117.043 550.095 1131.37 139 154 155
-8.33314 49.1921 808.042 153 155 150
-416.686 293.269 1288.16 190 147 131
-100.651 189.703 983.387 251 249 237
-9.19658 97.247 852.346 177 177 166
-437.833 119.083 1142.52 223 201 185
-385.608 256.958 1256.9 172 170 166
-239.733 226.366 1368.54 162 156 141
-45.0791 203.426 926.495 254 251 246
10.9329 170.607 899.662 246 245 224
-70.3809 139.077 902.736 221 216 184
-72.8411 307.627 1048.05 239 241 219
30.4715 129.689 832.717 235 239 226
-117.142 212.189 1020.27 224 227 227
-572.557 15.9463 1104.25 232 223 210
-511.894 389.533 1461.12 98 96 100
-487.251 117.216 1125.41 182 163 144
-293.75 -13.2542 1159.92 46 45 42
-128.261 31.2529 901.578 179 178 152
41.0303 -77.1892 995.184 172 167 157
-402.636 105.382 1040.24 185 156 144
-36.5813 -28.9257 1023.85 103 34 10
113.592 308.369 952.358 67 58 46
-13.8143 -76.8329 1024.97 182 174 170
29.7159 151.168 822.18 245 252 250
-293.581 154.2 1277.18 155 121 109
13.4937 -29.7312 957.5 220 175 165
-305.48 12.3429 1259.49 71 66 61
-79.1877 127.553 900.542 255 253 242
134.285 507.358 1088.17 127 155 172
-424.836 176.232 1175.12 236 216 189
-57.3439 210.155 955.875 184 161 147
-470.11 86.0237 1187.83 138 107 97
-512.198 88.9875 1135.15 247 235 221
-10.2117 -82.1485 1081.46 66 74 60
-116.582 202.895 944.813 161 161 160
-543.285 110.082 1226.15 252 250 232
-48.8456 6.62639 883.742 175 197 186
-97.7276 114.559 910.565 238 219 200
-66.7231 89.2222 894.679 117 105 99
-54.4257 346.549 983.599 146 147 137
110.312 299.286 908.311 127 126 117
-497.086 -8.9508 1132.53 140 128 114
16.3047 -62.3464 992.25 227 207 193
-1202.01 -54.7545 2096.63 156 159 150
73.6199 281.507 902.186 234 240 234
155.495 462.579 1048.44 148 178 182
-41.5992 9.35962 916.584 121 119 121
96.4987 355.31 974.676 247 249 245
-404.39 174.25 1126.65 188 176 157
-531.416 147.325 1234.13 164 163 150
59.8266 369.844 969.221 213 209 189
-447.744 -14.6884 1150.5 135 107 93
-1169.19 -180.574 1861.83 207 224 214
-299.373 326.103 1579.87 150 153 144
73.1512 -34.8275 900.197 54 113 106
-256.352 224.465 1408.92 96 81 71
-332.018 9.69976 1169.53 192 154 130
-41.7542 97.8262 932.419 218 214 194
55.2802 235.621 897.6 158 161 153
-66.899 205.898 990.832 255 246 240
92.5599 73.4173 849.403 134 132 129
112.072 229.589 905.753 156 141 132
-458.885 205.137 1300.42 226 213 194
-657.406 22.3856 1283.44 179 176 170
22.1437 125.296 831.304 246 247 246
-69.0475 193.047 953.033 163 148 144
28.187 117.827 815.374 254 255 243
34.9059 -55.7104 959.364 132 119 105
-571.539 -7.26786 1142.34 249 248 238
29.1272 194.668 922.873 149 150 140
-65.9928 166.2 904.813 231 213 190
-369.758 308.95 1267.25 185 172 157
-126.203 236.973 1079.95 244 246 245
-23.5293 206.197 899.524 193 168 155
-347.265 295.064 1211.2 197 187 173
-64.3167 138.835 951.87 249 236 216
-385.118 246.464 1228.38 83 78 70
77.5594 232.867 871.262 233 243 213
-115.7 232.144 1082.09 156 150 153
-552.917 40.761 1114.58 252 254 252
34.5067 163.151 872.758 250 254 250
39.9673 -9.25941 848.62 63 79 96
-110.075 178.764 923.395 230 228 224
-469.967 80.125 1187.45 93 62 39
-549.582 76.8056 1119.2 251 253 242
17.5817 167.939 859.55 110 107 94
-15.2905 133.588 864.045 243 233 213
81.4814 275.091 921.111 233 241 225
-66.1473 98.5157 854.418 151 141 133
-82.9169 128.836 947.912 186 164 149
-139.147 204.172 1075.92 250 246 242
8.07303 -4.1116 862.694 78 105 103
1.31297 44.0266 775.563 252 254 241
-574.84 176.521 1290.08 183 180 177
191.841 447.593 1093.27 65 102 132
-541.309 158.831 1301.97 232 225 205
-3.00094 47.8336 958.82 85 102 98
-122.873 188.92 961.731 239 238 233
-14.0867 224.831 929.564 174 155 147
59.6468 70.4221 808.56 75 62 52
-502.262 248.099 1213.85 237 238 223
-429.215 69.3043 1073.82 137 111 91
-376.548 10.3104 1368.36 97 83 76
-551.599 259.619 1332.25 227 228 213
-9.15136 -66.7303 1067.82 213 156 134
-16.0239 187.98 1039.71 251 250 221
-79.023 205.349 988.403 232 219 217
-391.948 65.3907 967.085 244 221 201
-475.043 250.648 1264.22 184 186 182
-237.392 217.808 1271.15 129 96 70
-587.803 107.561 1320.87 201 172 148
-446.233 97.9069 1030.66 252 234 215
