-465.077 63.6927 1498.87 237 228 221
-309.051 303.373 1234.59 8 6 3
2.30132 344.289 936.196 210 196 193
-10.7635 19.4191 1050.29 243 247 241
-369.16 82.2702 1198.73 36 21 11
-51.7505 40.5669 1025.08 243 246 244
-68.7636 214.433 761.543 25 22 24
-389.194 110.833 1538.43 25 27 29
-212.137 131.578 887.516 255 249 238
-25.589 293.57 918.231 228 230 220
13.7407 301.847 959.178 240 208 210
-17.1049 350.26 955.726 224 225 221
-81.7096 229.233 818.156 187 188 191
-15.8893 264.066 887.499 211 197 185
-501.263 13.8964 1320.3 180 167 156
-284.548 243.82 1090.09 31 31 30
-107.862 169.778 786.069 203 202 189
-31.4985 15.2759 1027.42 255 255 243
-307.285 120.036 1010.85 252 251 236
-512.749 15.4164 1311.67 238 216 194
-468.454 109.405 1491.53 230 221 212
-374.904 91.3538 1286.49 239 241 236
8.45225 280.897 892.336 220 211 212
-82.307 240.223 861.476 202 200 204
-476.837 92.3817 1546.03 226 207 198
-130.76 35.884 1070.94 249 233 224
-2.90348 251.509 848.661 29 5 0
-436.242 -19.101 1342.24 212 190 175
-500.759 -6.04779 1391.03 214 191 177
4.78395 28.7666 1012.2 236 255 255
-286.702 111 975.251 216 213 188
-131.781 34.426 1111.26 7 12 7
-252.362 131.127 946.9 204 205 193
-42.4332 34.2346 987.564 111 119 115
-443.051 81.9422 1429.02 149 128 124
107.813 224.141 970.461 38 41 43
-367.393 10.9843 1372.16 156 184 176
-139.944 149.04 779.468 237 243 232
-540.607 -2.94258 1508.86 169 142 129
-49.7243 26.9355 985.835 245 250 237
111.751 222.495 1006.9 45 38 18
-134.083 185.33 816.814 184 184 155
-174.331 64.4675 1041.83 241 236 243
-148.279 33.1842 1165.73 110 99 101
172.127 345.072 1105.02 197 150 142
13.4103 276.588 903.479 195 178 178
-404.273 34.4084 1602.93 193 195 189
-562.354 106.575 1381.75 233 225 214
-545.744 187.978 1486.28 21 18 3
-141.804 23.5728 1115.27 234 251 241
-128.895 24.5088 1094.33 244 226 233
69.1151 275.89 967.259 28 45 38
-500.759 69.7219 1328.12 162 159 151
-156.794 78.8858 966.796 85 79 75
40.7794 75.4433 912.008 236 228 208
-402.043 88.6856 1619.2 175 139 126
-524.904 62.6393 1391.43 210 196 180
-359.318 93.3571 1531.91 93 66 52
-454.765 290.207 1386.77 115 116 115
119.493 166.27 968.543 105 61 51
-95.5935 299.401 854.844 178 177 171
-154.048 54.1481 1066.55 193 169 153
-61.8522 46.3601 984.563 70 75 76
-208.188 134.591 900.858 198 206 200
-506.234 21.7889 1302.71 172 149 131
-179.655 117.821 945.41 31 35 34
-589.56 16.74 1438.53 158 139 125
-368.564 79.9464 1457.62 198 158 131
-300.562 384.255 1319.96 159 156 156
-552.681 213.14 1469.72 158 135 118
59.5138 371.553 1006.59 185 176 179
82.2839 360.324 1009.94 243 171 160
-529.266 213.754 1413.62 255 248 229
-217.302 104.427 870.668 204 184 174
-201.959 120.962 858.447 229 227 216
-129.352 173.311 771.886 38 35 13
-106.364 211.033 822.568 106 111 112
-134.64 105.526 871.579 69 96 95
-143.05 109.627 870.055 55 100 93
-418.435 256.659 1262.87 78 78 74
-158.874 104.303 898.02 52 94 93
-331.653 76.8894 1470.68 108 93 77
-95.0601 95.6234 889.754 234 239 227
-302.496 265.242 1173.4 219 212 201
-174.582 131.991 835.062 189 221 214
100.129 252.928 984.771 175 157 145
-564.877 99.586 1379.46 113 89 70
-493.984 321.97 1445.08 149 141 129
114.885 224.008 985.893 193 189 186
-86.764 17.8158 1016.91 121 71 51
-115.897 69.8241 990.884 146 105 93
-151.444 46.2662 1066.78 252 242 238
-258.074 346.081 1153.91 193 187 188
-406.692 80.8463 1509.56 121 117 106
53.8963 375.35 1044.93 191 211 205
-50.32 30.2141 1015.7 141 146 124
-521.072 269.673 1512.02 141 111 103
-108.491 221.744 868.731 68 74 75
-65.5395 315.133 868.429 206 179 165
-142.878 21.5066 1154.7 89 77 77
98.6768 229.571 1021.57 51 31 18
-252.263 273.422 1033.69 192 185 186
168.207 344.87 1062.11 193 150 141
-549.592 263.479 1575.96 125 107 89
-29.0282 314.255 887.081 63 35 23
-554.134 23.9799 1443.58 186 166 154
-61.7106 347.441 882.24 176 161 159
-314.711 290.734 1232.68 124 108 88
-171.831 111.37 875.369 110 122 118
-523.72 153.845 1332.64 160 116 99
-452.305 289.868 1315.06 226 214 204
128.183 348.344 1000.22 96 55 46
-199.834 66.9557 1056.39 254 249 247
-563.606 89.9924 1363.17 246 237 211
-329.115 25.3158 1322.68 19 19 13
-526.422 107.642 1467.03 153 144 141
-390.094 46.4888 1684.82 90 88 82
117.276 265.755 1010.46 123 124 122
-21.6098 343.808 977.608 46 33 17
-76.7996 15.3336 1018.76 67 47 38
180.853 364.179 1152.49 69 36 28
66.83 318.928 1005.28 17 44 47
90.1338 240.289 982.733 57 27 8
-403.175 54.8504 1510.35 195 169 153
-272.482 331.899 1168.45 167 170 170
-47.4244 322.635 933.772 160 130 113
83.9562 384.565 1024.76 57 10 5
-548.059 176.484 1466.87 233 198 189
93.587 239.577 1021.19 69 43 32
-51.4068 186.702 859.719 142 141 137
-308.11 291.153 1172.69 241 245 242
-108.32 13.242 1053.62 218 210 208
-24.6425 310.128 887.7 189 164 142
-547.275 235.724 1475.01 177 147 130
-124.283 214.238 819.383 91 83 76
-552.879 148.691 1392.86 247 224 211
-87.5624 165.994 814.894 50 69 65
-514.317 90.714 1400.55 145 142 137
-164.192 68.9415 943.161 240 212 211
85.1635 371.987 1035.55 250 201 187
-103.437 7.28547 1162.48 75 82 75
-362.083 -17.0588 1444.9 81 81 74
124.649 289.621 1051.92 141 160 166
-432.645 48.084 1597.79 132 116 113
-540.549 292.263 1584.13 71 52 36
-93.2482 179.254 797.798 68 68 66
-112.796 187.261 857.796 177 176 171
-128.21 203.942 818.372 75 70 59
-544.405 243.404 1477.22 255 248 241
-598.946 181.514 1541.04 232 202 193
-170.982 139.675 808.503 185 195 175
-499.566 306.072 1445.75 128 107 97
-108.017 270.738 851.979 109 105 95
90.1385 237.793 1002.96 166 134 117
-35.6431 311.931 896.052 216 173 157
-200.056 118.514 923.078 62 100 91
-118.156 219.129 800.207 76 66 47
-621.753 124.044 1536.07 189 168 155
-71.5077 48.7094 982.837 146 96 85
40.6562 181.44 924.273 154 105 91
-314.626 106.85 1051.82 163 166 160
-101.182 62.9703 941.622 248 233 223
-94.6703 332.391 885.956 241 241 227
-69.8603 174.227 845.35 62 77 77
-238.639 282.273 992.932 40 38 41
-57.0864 408.2 873.943 165 159 152
99.1488 258.168 1045.58 174 146 125
-392.254 80.2226 1430.37 227 215 220
30.7243 266.459 895.423 117 97 81
-121.45 49.0396 1070.53 240 194 173
-182.045 76.6776 999.438 235 184 168
-183.463 312.544 954.858 253 252 241
63.1137 270.864 979.557 146 142 139
-66.9798 21.1268 1062.66 239 213 199
-173.897 130.244 836.998 234 255 255
-128.91 49.5036 1051.31 229 193 174
-371.876 40.1685 1520.36 71 70 69
-78.155 163.204 826.308 58 68 64
-102.185 8.30858 1099.16 191 185 180
-133.795 79.8447 1010.41 149 132 124
-130.01 76.3779 950.455 250 238 230
-84.4071 60.4668 996.866 244 223 205
-81.3939 104.472 881.623 81 92 95
-102.327 192.896 822.815 44 44 38
35.9879 264.233 906.766 49 18 7
-120.347 226.635 820.426 205 201 178
-91.1627 305.751 822.848 207 206 200
94.721 315.374 1009.72 39 57 65
-88.8782 330.943 864.586 222 220 210
42.487 279.365 963.044 73 62 48
-186.443 115.327 872.495 181 211 203
-25.8503 286.742 866.618 125 93 80
-514.649 97.7057 1401.52 27 25 23
-189.317 163.349 940.703 87 101 85
-67.2573 21.1902 998.701 215 193 173
-109.222 95.2684 876.131 163 148 137
19.183 290.545 972.872 197 172 163
-120.685 62.483 989.635 161 151 134
-182.737 168.272 863.879 232 239 234
-69.4245 41.6641 881.116 109 71 47
-132.137 134.146 705.296 197 210 198
22.4782 308.213 945.901 196 172 157
-76.2229 -6.76862 1128.2 136 126 116
-84.2386 185.493 825.838 64 83 82
-398.045 58.8758 1683.16 25 14 10
20.6519 289.727 978.23 161 123 109
-625.046 143.491 1628.07 29 14 1
-140.075 209.137 816.387 250 255 251
-125.552 54.8157 1029 152 131 128
-85.601 76.169 933.953 108 114 110
-71.133 357.795 829.384 207 207 199
-81.9089 335.428 838.13 223 227 209
-82.7704 63.1989 945.188 250 235 222
-103.066 277.265 843.19 90 89 78
-157.499 366.165 982.088 189 186 180
14.1451 293.372 994.749 154 130 109
-183.97 394.768 1102.78 218 213 210
-520.876 70.1467 1404.48 177 176 165
-257.97 112.855 960.693 136 143 134
-541.438 79.1434 1294.25 209 185 155
-141.071 72.3032 1008.43 187 168 152
-160.709 138.506 819.279 103 122 129
