267.364 -22.1318 990.238 252 243 239
-540.988 407.032 1118.03 59 48 46
393.097 150.185 1114.88 11 23 15
-540.246 441.802 1122.46 23 21 17
305.566 -54.9362 955.894 236 243 232
231.494 144.884 1017.56 247 233 228
-521.148 68.4812 982.245 225 217 212
-387.996 214.887 992.492 52 33 23
-526.165 446.795 1128.27 249 249 244
-471.516 234.642 1057.61 84 68 46
-492.357 66.2584 950.427 248 243 229
231.279 10.375 1026.54 246 237 233
-375.727 264.293 1017.62 52 30 31
-469.447 239.677 1028.26 58 44 34
365.936 90.1355 1046.79 46 55 40
-473.567 226.577 1056.28 239 225 204
213.675 -118.05 1095.75 42 23 19
308.289 -7.68489 995.274 235 228 228
-164.199 -431.734 1779.78 230 233 218
-487.089 255.876 1104.75 67 49 40
-534.083 410.879 1121.09 238 225 213
-323.258 361.575 1135.8 238 232 220
231.173 5.31768 1026.13 241 227 210
334.183 83.2866 969.32 74 74 59
-485.672 252.189 1054.1 254 250 239
-291.374 432.454 1119.31 216 215 202
283.047 -17.8595 1029.66 21 21 13
223.381 50.7681 1046.39 231 226 213
186.609 -48.1154 979.669 222 214 196
331.463 -66.6112 1029.53 238 249 234
-381.048 134.46 1033.41 251 244 227
120.375 32.7468 959.118 232 224 224
82.8692 -28.936 933.622 195 197 195
275.629 -62.218 889.519 26 25 22
203.861 -53.7514 946.537 235 230 217
78.6201 -22.7134 967.591 39 36 33
176.19 168.69 1030.42 215 210 198
285.552 -66.0011 911.672 238 236 224
225.015 -55.9832 964.549 232 225 210
-517.239 75.8462 984.118 112 88 71
-447.603 251.774 1037.05 246 243 234
-358.596 163.727 1297.52 209 216 209
424.144 233.944 1083.77 240 248 231
208.15 180.801 1120.62 255 242 233
-275.515 374.616 1219.12 53 53 40
139.198 -99.4019 1046.14 251 245 242
257.945 9.18141 1044.87 50 47 44
294.393 -100.83 1005.56 242 253 252
-368.971 203.257 1088.88 249 238 218
-443.548 85.9641 967.833 111 36 25
-464.217 80.8402 960.746 94 64 46
-564.05 387.299 1089.08 108 97 95
-288.309 410.244 1100.35 249 244 223
-296.601 426.8 1262.08 135 133 135
-510.978 509.686 1198.06 248 250 247
390.655 -13.8727 1080.08 239 255 254
-331.091 313.137 1107.83 255 246 222
124.747 -54.3721 971.753 188 182 166
-499.531 639.592 1297.37 23 30 24
130.691 37.0025 978.596 194 189 188
309.786 -76.068 954.408 226 227 218
227.05 61.342 1029.98 250 243 223
122.816 36.027 1014.56 244 233 230
-386.776 145.215 1009.9 245 234 221
-395.422 302.343 1087.6 238 225 213
-345.417 267.753 1100.51 247 235 202
110.525 91.3531 1016.33 254 250 241
-333.841 256.606 1274.33 163 145 136
-369.749 150.33 1037.84 215 205 177
214.307 -55.2739 1019.27 144 135 119
-347.184 130.687 1172.33 179 166 159
156.811 165.924 1111.98 222 211 214
-17.4713 48.7202 -148.358 21 37 34
429.793 209.696 1103.71 227 232 231
460.659 236.312 1174.2 198 199 192
-504.944 287.921 1117.86 84 79 71
258.766 66.55 1034.05 249 239 217
-474.712 186.787 1052.88 134 87 69
-632.525 130.646 988.014 229 208 193
122.913 135.969 1040.6 255 244 236
-376.821 350.516 1096.8 237 220 208
-580.551 496.512 1231.35 111 112 109
288.851 403.902 1210.83 65 99 101
-307.776 366.36 1091.43 250 237 233
419.409 190.243 1078.79 220 228 221
229.526 172.936 1019.72 89 63 48
309.029 -111.488 1023.33 192 209 205
-582.639 346.363 1078.16 131 114 113
222.592 178.519 1099.08 102 89 87
90.8948 -116.066 1152.74 220 216 201
-363.12 171.355 1041.13 148 103 73
134.042 180.659 1045.87 231 230 232
-117.294 -439.045 1764.39 233 232 219
-395.226 154.43 1030.22 191 143 127
239.568 184.347 1101.79 244 224 212
371.86 492.546 1294.75 58 102 126
353.769 -3.1469 964.111 255 254 234
158.541 55.9018 1038.45 217 194 193
-353.331 181.478 1018.34 245 232 217
209.421 104.896 1030.88 240 228 218
-381.062 254.182 1169.59 122 99 77
261.756 -70.8153 967.593 22 16 14
193.647 14.6658 1040.54 172 160 150
138.816 71.1999 1035.7 254 248 253
225.176 52.025 956.28 239 233 221
-393.111 307.991 1088.73 110 105 98
-596.581 208.971 1021.87 105 99 85
-352.733 307.724 1000.85 148 141 127
-310.022 152.966 874.874 255 248 218
258.52 -89.2958 949.042 202 217 211
-450.311 248.441 992.016 244 238 222
433.496 358.945 1288.17 243 251 252
250.513 204.234 1176.08 255 250 245
-498.63 509.368 1160.06 85 89 84
412.553 119.635 1115.22 222 236 230
393.805 111.783 1068 233 248 236
131.667 164.122 1064.26 243 224 221
130.994 97.8616 1059.94 244 228 222
-318.297 373.68 1138.36 219 201 178
280.894 469.385 1257.13 202 229 241
-388.535 372.257 1147.36 65 32 21
-501.229 160.876 1009.46 150 140 135
-456.745 181.028 984.35 239 215 188
-302.22 297.095 1015.21 136 104 72
-476.471 203.873 1006.93 132 113 94
-327.026 253.561 1214.23 218 190 172
197.375 -2.13467 984.322 206 184 164
380.961 432.721 1384.71 39 65 93
-373.303 58.2585 948.571 230 219 179
383.15 348.451 1228.6 239 246 244
-352.444 125.672 1139.73 43 29 27
180.486 335.953 1106.09 54 44 35
-326.247 327.479 1110.19 255 236 201
136.155 79.4378 1059.45 112 77 78
390.194 20.011 1042.56 239 248 226
119.951 -122.345 1156.96 210 218 213
-446.014 210.709 1017.56 132 100 79
205.124 169.206 1034.39 169 167 171
-605.379 460.954 1197.61 113 111 105
-521.612 418.693 1087.28 171 166 161
-381.523 339.063 1094.56 238 231 223
353.358 -15.0919 963.057 155 161 161
-346.717 128.182 1232.51 177 163 153
-395.978 327.335 1113.91 156 148 143
282.212 463.643 1225.77 61 94 93
129.588 -44.0654 1009.85 176 172 152
260.542 -92.4685 983.664 31 58 45
-519.66 247.801 1123.23 127 108 90
128.688 -145.032 1298.36 126 127 121
-597.165 258.434 1027.34 237 226 204
-552.53 572.793 1297.73 219 222 215
375.492 103.505 991.086 244 250 237
-541.164 361.214 1112.42 128 121 116
-361.184 144.222 1295.11 61 55 44
154.285 -54.8223 975.389 152 149 141
-390.794 313.692 1089.85 199 200 193
297.986 -109.693 1044.71 154 172 169
286.609 421.345 1148.49 63 95 111
386.627 -3.20281 1040.06 231 234 211
103.379 -122.607 1174.62 186 180 172
-590.383 135.173 933.903 119 112 110
-470.495 206.079 1024.83 126 98 78
-409.639 148.561 1121.77 255 243 237
275.644 386.149 1188.68 194 234 241
154.352 -50.0902 975.738 163 164 151
122.477 102.225 1037.68 169 128 126
298.951 208.137 1182.88 93 60 49
188.848 -109.475 1093.66 162 131 114
121.901 114.37 1079 253 247 240
283.456 -96.0711 1022.6 248 254 252
-477.167 231.907 1203.05 177 124 105
321.459 -73.5305 935.139 108 120 109
290.375 339.987 1098.38 142 172 192
-383.008 435.681 1074.08 98 99 86
374.172 -18.0688 999.731 217 226 212
115.304 53.6106 1014.65 242 239 231
188.745 -114.826 1093.15 220 183 164
-481.567 123.241 957.256 145 102 94
111.472 97.6617 979.513 255 248 242
353.674 24.8629 982.266 220 235 223
178.09 112.314 1027.26 231 202 176
-351.612 229.387 1066.9 252 239 213
200.746 49.1405 988.349 217 218 197
-364.148 266.642 979.924 225 204 190
227.251 176.479 1078.8 103 61 49
-365.007 382.048 1102.56 168 151 144
387.031 7.09722 1041.09 233 242 221
214.178 191.468 1051.3 105 86 62
192.683 40.9637 1024.27 214 177 148
-545.931 363.417 1110.87 235 233 229
204.981 -152.625 1167.03 162 155 152
407.998 340.712 1196.89 85 102 103
106.329 -38.4713 936.16 155 127 110
321.279 463.876 1285.44 92 127 141
-596.31 203.828 1021.4 186 176 166
-613.574 164.486 964.59 235 234 230
-522.204 72.7865 940.279 212 208 198
355.122 39.4167 982.816 212 227 202
147.618 -95.6029 1089.69 191 182 161
245.497 175.574 1098.32 221 177 170
235.463 166.493 1058.38 34 9 14
-567.335 120.326 899.219 255 253 241
-292.457 -429.465 1235.84 75 89 81
345.192 368.451 1199.61 109 159 170
-384.503 159.686 1006.93 130 91 66
-553.593 364.294 1057.05 149 131 124
-456.928 213.378 970.911 252 238 211
166.621 121.366 1007.56 218 218 190
-484.505 642.208 1286.61 130 137 132
172.853 -123.549 1164.89 222 170 152
-596.042 198.687 1020.93 129 120 114
-469.276 91.4162 1002.04 99 65 55
131.538 150.811 1063.44 232 223 227
-317.118 332.399 1085.96 162 134 106
367.14 8.22843 1019.87 204 218 190
-443.507 104.581 1011.55 163 96 64
204.26 111.831 1071.3 127 118 100
-515.283 165.971 922.426 255 219 205
-123.362 -511.033 1571.74 56 63 60
-317.226 337.885 1086.37 255 248 219
351.802 66.7174 1043.53 198 192 177
316.754 248.607 1075.01 253 253 225
-514.032 390.074 1039.25 149 148 142
-420.989 122.7 977.053 123 74 67
284.113 39.2404 996.796 202 188 170
309.829 288.948 1190.18 239 236 216
237.246 -70.4804 948.601 181 155 155
-334.226 139.075 1262.78 49 47 40
460.265 262.097 1205.32 216 240 223
-492.099 588.586 1230.53 177 176 169
405.002 403.135 1256.44 122 152 162
270.368 396.188 1271.97 98 127 138
-394.897 431.412 1070.05 211 217 203
197.205 167.114 1094.64 221 198 195
-355.073 380.375 1078.56 228 221 211
-408.9 126.923 1002.51 229 203 192
217.619 158.02 997.24 115 67 68
-502.416 376.308 1077.23 204 209 188
-322.201 260.541 1278.49 53 19 4
379.816 474.531 1260.23 192 222 239
208.137 -67.7281 913.582 123 108 107
-635.457 152.686 988.761 254 246 235
376.356 41.5425 1005.25 237 248 235
234.872 138.895 1077.25 218 195 183
422 434.546 1210.52 116 135 132
209.537 271.153 1174.73 225 218 192
179.052 -2.0666 914.965 192 177 155
-418.315 208.419 1139.14 255 249 235
298.785 146.219 1103.91 227 202 185
-390.147 41.3171 962.353 236 218 199
-572.18 643.411 1397.78 160 164 156
-414.223 191.881 1026.62 159 114 101
-403.671 118.364 982.237 249 236 225
390.888 38.0854 1044.32 246 255 252
112.109 -134.221 1174.79 148 145 140
-308.148 301.16 1166.48 120 94 92
328.284 348.926 1145.66 111 150 155
158.008 106.077 1064.47 243 196 185
177.365 135.509 1069.24 243 240 248
393.848 506.319 1318.27 141 179 197
112.945 -145.229 1206.4 71 69 62
-505.177 150.258 924.961 217 213 200
217.402 115.5 1106.33 241 200 187
-73.7995 -362.302 1102.45 73 85 84
-624.594 134.537 1040.24 143 138 144
147.247 143.482 1040 213 209 214
185.493 81.6725 1026.22 221 200 168
-396.177 180.197 1054.98 255 245 218
-412.813 57.4173 1043.6 131 110 79
-384.665 47.5732 1051.76 152 146 137
320.264 28.1149 963.933 175 170 167
400.897 531.28 1361.04 74 104 130
326.817 417.766 1110.26 78 116 132
-615.661 148.813 996.581 162 158 154
-379.533 51.1396 946.439 245 232 197
225.771 -111.799 1112.76 124 99 96
244.5 -95.4025 1018.99 134 162 149
-248.06 -496.531 1801.07 182 172 166
-537.455 349.994 1061.54 252 241 235
328.986 439.835 1337.82 141 167 177
-344.471 197.23 1022.22 134 108 89
-321.164 230.071 990.117 242 229 210
-648.172 268.202 1105.11 255 251 229
-318.821 265.487 1180.63 83 55 37
-372.426 381.984 1122.39 146 125 113
-436.965 201.247 925.405 165 119 97
-326.972 267.855 1178.28 143 121 110
-622.016 151.571 1024.63 161 164 152
115.219 -28.0021 972.292 123 117 114
407.409 132.446 1095.45 240 252 239
313.642 33.6822 1014.7 177 166 141
-529.681 358.498 1029.23 244 227 210
291.856 435.035 1307.99 187 225 225
368.753 403.601 1156.12 217 233 237
326.187 453.156 1231.13 104 130 135
222.716 -150.531 1149.02 88 87 87
422.198 82.4917 1066.33 248 248 233
421.698 225.39 1087.58 109 124 109
-526.467 354.124 1066.06 104 94 89
371.435 -23.0108 999.071 199 209 190
-478.109 137.817 1099.6 138 93 85
110.147 -137.831 1234.3 123 107 99
160.51 -92.2885 1049.42 214 170 144
416.148 179.362 1077.34 190 201 192
-391.844 216.675 929.831 255 251 243
386.878 76.2965 988.947 248 255 232
199.906 97.4536 1045.58 173 168 136
-553.104 123.481 973.968 252 233 226
130.682 51.101 1016.69 158 152 159
-416.092 141.473 1066.89 252 239 203
-442.405 123.619 1188.33 141 106 74
264.83 272.406 1089.43 223 208 185
377.078 358.096 1256.72 237 241 232
201.383 94.5942 1029.16 223 202 177
-563.893 198.252 956.508 255 252 246
334.215 58.9093 1019.66 249 248 217
323.651 105.28 1104.78 147 146 121
293.258 -85.1057 964.955 188 220 215
-384.729 204.467 1059.67 191 158 138
330.674 74.5142 1042.19 249 246 218
207.547 146.639 1074.16 225 214 221
-403.191 107.679 1071.4 214 162 119
-447.585 78.7143 966.135 120 50 44
237.735 226 1105.45 243 230 181
246.967 -100.394 1018.79 198 215 207
-399.291 106.002 1154.32 150 140 135
-571.958 297.771 1042.23 142 104 87
260.981 -11.4417 891.987 195 187 176
229.511 236.926 1105.35 173 169 154
-346.296 314.533 1313.12 100 67 50
364.459 24.7527 981.798 221 239 215
188.567 105.429 1046.93 253 237 209
382.839 391.206 1205.49 146 158 156
-406.833 169.553 984.124 150 109 102
-373.935 44.4916 928.184 188 164 135
-521.627 302.409 1015.3 250 237 240
-480.401 381.334 1050.59 189 185 163
266.795 82.1251 1053.46 153 125 104
-562.495 182.365 1070.08 233 223 225
184.526 -143.425 1065.39 215 205 195
-316.457 280.536 1182.94 186 155 141
203.874 196.893 975.89 154 130 85
316.65 88.3933 1082.91 127 120 110
197.93 116.021 956.08 125 96 97
-142.676 -370.058 1198.74 133 139 134
-179.248 -480.077 1547.8 52 59 56
428.949 172.673 1145.78 229 234 230
341.818 -42.5795 908.593 228 236 209
-296.141 279.549 1087.81 124 99 96
172.17 237.067 1055.82 114 115 94
57.0908 -224.106 667.357 72 72 67
-561.634 80.5632 994.557 238 222 204
360.878 511.683 1417.2 116 150 160
-197.324 -356.847 1301.97 183 176 166
303.127 40.9017 1036.7 89 75 55
287.344 136.776 1083.52 245 202 183
296.339 398.242 1268.99 62 91 104
-451.616 265.403 1066.7 235 230 227
287.755 187.121 1080.33 173 152 130
260.703 168.263 1022.92 218 185 169
319.497 1.84767 961.776 148 150 145
193.33 81.7061 1027.24 197 166 134
-627.55 188.685 1006.13 241 231 218
-394.299 449.57 1239.39 204 134 92
-548.479 320.5 1104.67 240 194 189
-359.585 231.781 991.694 248 217 189
272.267 254.269 1235.1 135 129 103
-560.287 327.616 1100.86 193 149 150
411.901 181.894 1099.93 193 207 192
128.271 66.2092 1017.34 251 227 230
188.876 366.204 1229.66 90 85 75
-568.412 486.632 1153.14 157 151 134
268.819 178.665 1024.72 101 76 57
350.07 -18.804 975.971 181 199 186
-583.117 485.591 1178.38 186 184 181
-580.37 407.114 1102.91 228 227 224
-529.569 317.114 1069.92 176 124 120
-505.975 285.819 1019.41 234 227 223
147.191 47.2669 1017.74 255 253 253
-496.55 332.489 960.821 247 213 196
-364.964 33.9055 989.669 127 114 110
302.308 -146.623 1101.78 46 100 92
273.597 189.988 1059.02 197 179 158
391.264 86.8907 1026.43 236 248 226
246.602 -89.4788 964.871 204 233 229
-538.076 112.627 873.686 238 237 224
-550.51 345.68 1056.12 235 218 206
-173.463 -361.381 1261.55 147 155 151
-524.058 168.631 987.873 153 131 129
-407.174 225.966 975.445 197 181 162
398.079 -46.8687 1036.52 208 208 190
-599.213 155.168 1033.71 250 231 223
-497.682 311.894 1161.56 190 167 158
-523.286 721.263 1441.97 105 114 108
-502.258 316.022 1070.9 141 146 140
-490.356 463.739 1143.16 171 186 159
-375.167 63.5084 1159.41 35 32 34
103.242 -133.98 1173.47 187 174 167
144.719 177.186 1088.08 249 248 249
124.09 -84.3153 1066.92 149 138 132
188.295 138.322 1070.96 253 254 251
427.709 74.8024 1070 176 183 176
-327.749 304.953 1008.31 163 136 126
-591.237 140.015 1005.7 250 247 248
318.798 -150.946 1156.49 57 93 83
198.654 -69.9048 979.336 99 104 103
-314.086 312.805 1223.12 74 51 53
-410.804 222.968 1141.92 254 239 211
-91.9748 -277.634 862.362 149 164 156
78.9482 -33.3787 1003.54 98 101 86
-558.563 135.029 988.615 239 202 193
-609.398 141.668 998.514 241 240 234
418.946 226.149 1103.91 199 210 203
363.432 268.583 1097.61 182 181 164
377.864 -23.7319 1037.39 233 245 231
-499.545 155.101 927.358 236 216 212
236.868 98.6279 1074.56 215 198 167
84.2195 -78.1563 1040.25 106 103 103
400.08 56.6115 1008.37 206 207 192
-407.172 188.244 1086.73 253 231 211
246.054 67.8848 876.198 148 140 118
384.819 92.8158 1048.67 206 233 222
125.421 -110.912 1085.37 90 82 78
-327.345 543.535 1119.28 25 53 40
183.732 142.431 1102.01 160 153 152
243.42 211.719 1024.52 255 253 227
153.57 60.4278 1143.28 233 221 223
109.146 48.8938 971.69 167 140 132
328.757 260.025 1112.15 240 239 216
268.954 229.477 1109.7 159 159 149
