-97.8767 -48.3997 1523.44 230 207 191
114.801 12.5283 1011.66 255 253 253
163.304 -7.51087 1016.82 213 212 206
66.7036 -18.7938 1018.93 214 231 226
105.176 316.046 927.047 243 242 241
-79.3728 -11.1371 1327.93 84 59 48
-14.8254 -41.5198 1545.67 255 193 175
61.3209 -6.43668 1058.36 222 228 223
113.043 256.746 877.255 222 216 204
73.5155 263.85 901.491 188 178 167
223.904 21.1591 905.643 72 67 62
41.927 0.123327 1081.3 235 214 210
-175.692 -94.1017 1419.46 203 179 163
340.774 412.979 1047.37 54 45 31
-41.5335 -22.3848 1542.35 195 179 173
-14.7834 -22.4925 1548.9 154 119 117
166.972 335.717 937.072 166 159 157
-14.3243 16.0258 1072.38 255 244 240
77.1072 -22.1368 1059.31 190 188 186
23.2887 66.5741 884.312 222 208 200
117.841 -2.38801 974.245 218 213 197
-177.597 -50.3991 1421.09 185 167 152
266.68 165.796 952.365 48 17 10
-19.1548 173.119 815.557 198 204 206
109.167 -19.626 1064.1 56 14 10
-208.601 37.6578 1505.14 108 75 59
160.018 329.326 948.667 164 172 174
-61.99 -9.43915 1613.92 188 171 180
115.389 239.389 865.524 225 200 190
-22.5415 -90.5007 1535.47 179 208 203
80.5647 304.863 904.135 149 147 139
-155.866 -113.978 1496.64 157 129 115
-185.695 -43.8872 1499.24 153 143 133
262.699 228.763 990.43 126 125 122
117.965 9.64419 974.993 102 108 103
151.939 -13.964 1030.72 224 223 220
-34.3868 146.775 837.536 150 141 134
-191.83 -105.917 1487.44 150 129 126
-14.5236 72.9543 909.064 35 60 67
115.459 245.916 865.907 233 226 231
253.772 345.887 971.963 187 159 146
113.838 258.594 938.919 184 173 163
-155.77 -121.268 1495.48 155 133 119
4.27762 -64.4419 1546.26 56 46 36
-191.351 -7.22025 1219.53 248 229 214
-218.911 15.3072 1498.41 221 208 199
193.933 363.06 989.32 153 140 143
-215.485 22.735 1500.65 148 118 103
247.237 222.984 970.695 58 61 65
-199.064 -98.5094 1486.45 150 125 100
-222.326 7.90191 1496.17 141 116 103
98.2918 262.534 970.568 223 196 187
302.184 282.434 998.299 77 42 34
-192.074 -91.38 1489.7 151 133 109
-34.0931 -53.3172 1615.41 229 206 192
158.602 61.368 858.263 173 155 134
136.809 177.934 906.428 224 156 129
246.915 251.03 940.957 150 150 144
17.0136 -55.7526 1467.11 79 68 53
207.586 19.6102 886.595 139 144 141
31.2885 160.378 921.261 32 49 49
0.213349 -120.831 1535.56 59 54 37
106.024 266.256 925.206 115 117 114
87.0392 244.124 902.695 149 125 116
83.9301 310.544 970.645 141 118 110
146.571 250.821 898.708 57 34 24
47.6384 166.29 874.707 142 141 140
13.8886 138.355 830.461 58 71 66
26.2847 288.469 894.96 215 191 171
120.063 265.715 867.638 161 145 136
30.5753 74.8627 879.031 86 96 99
-12.6298 172.022 792.05 62 61 68
157.788 277.252 980.124 207 199 190
-37.7116 -64.0042 1536.3 136 121 107
7.99268 -90.9351 1542.53 70 78 71
249.704 213.524 987.911 172 148 144
190.698 261.562 949.614 23 19 21
71.984 7.23007 1148.31 216 170 164
166.732 -28.6169 1055.41 54 56 45
-244.755 -9.56863 1655.07 110 77 51
11.869 -83.4424 1544.72 65 58 51
-272.933 -107.388 1535.79 248 240 211
-1.66936 22.1552 1050.41 137 57 41
-191.203 -13.2252 1218.41 133 107 89
-102.852 -123.492 1434.97 152 133 113
-172.611 55.6012 1441.9 73 74 51
283.349 259.233 945.377 54 22 11
-43.4499 149.07 821.709 37 26 15
149.616 -26.5214 976.816 157 161 150
-232.206 -28.8363 1487.26 195 176 150
185.921 364.649 1039.07 72 77 79
227.752 198.497 918.607 161 149 141
31.1789 10.7923 1080.2 90 64 58
320.572 348.828 1041.6 148 127 127
-223.635 -105.214 1477.84 47 29 14
215.245 229.474 967.723 141 114 104
-13.3323 165.582 854.433 41 43 36
-182.53 61.0633 1582.23 156 162 141
297.477 316.112 984.039 171 130 120
209.373 221.009 917.797 72 38 19
16.4187 210.055 877.035 34 20 20
3.6308 144.796 856.304 51 71 68
204.064 363.579 990.721 54 28 30
-42.4499 165.654 900.443 126 122 119
253.323 359.035 1008.84 200 158 133
-4.85186 159.463 855.566 95 97 92
222.233 227.651 985.641 63 38 18
229.488 253.33 953.948 101 102 93
25.5436 59.9112 852.135 89 104 115
175.81 288.815 935.285 40 85 88
118.538 -21.9099 1114.38 60 31 26
41.5659 32.2178 1001.79 123 96 84
241.248 79.9968 926.34 79 42 32
137.807 -8.55312 992.582 143 147 118
61.0751 285.674 910.639 172 137 115
252.817 207.549 933.711 151 140 135
207.782 347.255 975.888 199 147 144
287.927 251.125 977.428 41 19 12
215.157 103.678 893.887 38 8 4
42.5551 23.0766 981.843 159 143 126
91.7197 262.403 904.163 79 82 80
156.808 -29.704 1096.6 210 176 167
-161.646 49.2174 1365.11 131 133 115
31.5157 30.3166 909.123 248 225 211
177.465 246.456 932.517 156 146 139
-164.498 -10.6862 1510.85 118 111 116
189.573 321.655 920.045 188 125 109
151.332 196.344 940.859 128 80 54
161.56 230.134 870.943 67 52 50
-62.5678 -7.44685 1249.28 156 126 121
264.005 351.629 998.51 94 57 42
-11.0739 -71.8385 1541.39 123 119 109
35.2338 284.465 896.273 184 156 136
50.8176 7.80241 1041.12 212 137 114
311.053 333.025 1024.69 72 39 38
136.84 183.009 877.178 144 100 71
4.01052 291.706 891.36 60 63 54
-42.0147 -55.3892 1369.04 190 152 134
67.252 11.275 1126.7 127 100 108
-211.52 -46.5739 1411.93 136 110 93
199.74 -2.45007 984.415 102 109 100
212.79 288.968 939.434 40 55 67
33.2954 336.536 949.236 68 49 45
252.476 273.283 1028.87 60 62 57
-1.63819 137.914 798.268 162 159 150
69.0594 279.428 901.425 117 75 54
226.001 78.316 881.86 130 81 68
232.572 170.041 983.495 147 115 99
181.695 19.7556 805.149 134 166 159
212.894 154.617 914.24 142 110 92
-67.9535 -48.6636 1531.26 144 109 94
217.881 291.259 954.56 26 52 66
132.563 192.498 838.42 183 140 107
91.8986 13.4513 988.299 185 157 129
90.514 254.777 929.196 198 194 186
-167.818 -22.4785 1428.96 94 74 65
18.7744 210.216 842.974 134 128 129
156.297 210.628 942.339 122 79 50
