-16.5091 -235.098 1437.91 200 177 157
-752.67 -121.44 1271.5 162 155 144
362.489 -165.599 1766.07 197 226 225
282.072 -161.765 1851.1 118 91 87
320.433 -120.693 1744.23 64 51 43
320.433 -120.693 1744.23 64 51 43
368.345 -82.7774 1825.49 177 173 160
184.787 99.053 1794.37 140 138 117
231.779 106.196 1794.34 165 136 116
231.779 106.196 1794.34 165 136 116
-80.1024 109.866 1152.05 197 171 160
133.241 226.763 2006.7 100 91 86
-260.938 120.589 1179.36 46 2 0
-7.69732 175.774 1295.32 255 228 206
-109.713 141.998 1081.31 247 250 240
372.473 454.848 1958.68 186 205 202
-229.112 247.963 1145.49 59 18 10
-157.32 203.416 977.388 64 37 18
-146.015 336.965 1185.5 128 104 98
-312.352 -88.109 551.028 139 136 136
281.7 -178.789 1900.7 185 192 199
449.548 -84.8073 2044.83 123 118 98
250.067 218.321 2226.95 129 132 116
-88.8719 95.4819 1134.88 252 252 246
-88.8719 95.4819 1134.88 252 252 246
-165.98 141.278 1131.87 171 152 147
-96.4525 199.974 1125.88 144 109 93
374.757 422.217 2016.77 165 188 193
397.925 431.601 2004.63 181 184 184
-150.995 339.981 1249.29 113 110 87
-20.6329 493.973 1340.34 138 121 100
-76.6221 474.587 1297.06 255 250 233
-76.6221 474.587 1297.06 255 250 233
117.814 45.2503 -378.184 128 103 79
354.957 -63.9995 1814.98 115 95 80
288.592 -25.572 1712.16 42 23 7
297.898 -10.2652 1700.29 255 253 245
-118.674 2.05606 1241.75 153 150 152
437.478 97.7705 1885.16 166 173 164
198.549 172.439 1829.31 132 132 117
377.916 252.274 1878.03 137 121 103
-85.4112 138.069 1139.88 216 143 144
2.37018 204.903 1286.01 255 254 238
-117.225 203.508 1119.04 39 13 11
-128.595 195.781 1077.99 185 148 132
367.011 451.586 2076.74 245 255 250
-1.41303 271.965 1310.11 255 248 239
-31.6738 291.675 1250.29 253 253 255
-77.5707 415.567 1206.56 245 239 237
342.554 -15.9865 1795.18 142 121 111
-73.3133 369.837 1143.65 255 251 255
-40.4168 489.082 1290.71 97 88 76
-72.2643 492.588 1228.83 33 22 20
-117.591 70.0221 1097.19 221 208 183
-206.993 113.587 1137.73 53 38 29
-109.239 134.291 1113.51 251 252 249
295.222 252.168 1664.39 47 36 23
326.189 311.224 1889.9 249 255 254
18.0759 233.536 1321.8 253 254 254
-76.4535 231.358 1159.67 242 207 180
-83.9483 382.937 1293.47 255 246 253
-78.4658 401.154 1279.66 255 251 255
-94.4064 417.32 1246.85 84 57 62
226.4 369.192 1985.41 79 91 114
226.4 369.192 1985.41 79 91 114
-155.103 202.963 1128.48 70 56 47
-64.053 466.384 1241.49 253 255 255
355.956 28.844 1666.98 236 240 235
-340.502 85.5343 1247.55 121 91 72
-212.757 222.919 1150.16 156 94 63
-65.2579 412.537 1225.6 255 253 253
-180.317 402.179 1269.28 160 107 79
110.011 -58.1058 2040.03 97 91 82
-151.923 225.718 1135.87 81 55 45
102.026 157.352 1510.66 95 84 81
289.951 213.915 1798.63 52 39 39
384.456 54.8606 1814.98 211 212 197
