-223.381 -656.225 2287.86 223 220 216
-223.381 -656.225 2287.86 223 220 216
-56.1515 -467.209 1761.55 70 71 65
-281.719 -559.485 2557.1 76 59 40
103.394 -131.894 1156.37 210 191 177
103.394 -131.894 1156.37 210 191 177
289.832 -107.076 986.017 38 39 40
277.902 -91.1746 980.672 215 240 231
347.246 -48.4551 946.605 140 156 123
139.094 -49.0871 952.287 182 183 167
-429.48 -56.585 1197.6 47 44 43
-429.48 -56.585 1197.6 47 44 43
363.892 -39.8037 954.305 231 238 227
-427.432 -7.4796 1068.14 50 60 60
245.877 -6.64646 946.14 222 201 193
-380.495 4.33637 1166.59 150 132 113
-535.726 40.6897 1022.68 90 79 66
-520.588 50.2127 1008.3 59 45 35
-516.137 68.1393 988.425 255 230 211
392.363 77.2364 1033.66 165 180 163
-541.095 107.356 991.136 238 181 157
-640.982 124.821 1088.47 123 122 121
-425.676 113.265 983.395 44 11 2
-620.836 118.851 1013.31 154 164 164
274.607 129.026 1044.76 255 249 237
-414.758 122.574 969.995 58 13 9
-305.24 164.826 1224.5 34 27 20
-343.454 115.15 806.239 42 3 3
-415.111 149.721 997.926 81 35 30
254.998 186.382 1073.73 251 239 228
-392.885 182.372 1001.56 255 236 218
-396.292 198.091 1024.11 255 234 214
390.722 300.673 1140.89 216 215 181
272.238 455.485 1352.9 182 205 200
-322.906 581.463 1324.8 114 150 134
-355.356 594.522 1291.54 144 189 170
-104.641 -473.507 1451.6 83 88 84
-262.68 -692.425 2152.64 98 99 96
-155.773 -604.794 2010.48 127 130 122
-288.14 -483.301 1967.16 64 49 35
332.711 -120.102 1009.84 47 75 91
273.707 -93.4857 999.232 55 74 77
-414.872 -27.8641 1085.32 44 59 59
-494.901 0.178082 1061.68 133 150 139
212.731 53.1957 1009.78 79 63 49
217.571 79.6522 1034.38 189 183 148
-452.145 81.6661 987.557 251 217 191
-349.827 101.194 1141.07 198 177 167
-433.873 89.8152 996.14 252 222 186
352.39 93.7055 1042.67 46 50 42
251.108 96.9027 1030.63 176 116 89
-376.337 104.857 999.881 250 248 212
-549.547 116.969 933.333 168 152 147
353.723 148.314 1031.54 10 15 15
-369.791 167.528 1048.78 247 236 209
-352.708 187.737 1120.2 52 45 35
-475.117 196.531 1056.48 252 242 215
-321.017 241.212 1275.47 37 10 1
-388.645 244.375 1078.44 198 139 111
135.957 245.893 1054.95 78 79 71
-358.786 258.962 1118.65 255 246 215
188.905 260.941 1110.55 218 219 193
188.905 260.941 1110.55 218 219 193
325.657 274.41 1154.03 255 254 235
275.219 267.255 1092.04 248 252 229
258.7 286.883 1123.78 226 214 185
244.346 288.466 1106.68 92 87 64
329.69 328.036 1187.31 162 144 124
-303.048 310.768 1099.6 177 167 159
375.224 349.498 1186.94 147 176 171
-500.109 340.977 1092.76 174 153 146
-258.984 454.234 1355.16 41 31 23
454.454 433.274 1280.88 130 143 142
-294.822 406.224 1204.11 40 37 37
-410.778 382.08 1111.6 240 250 231
-330.198 349.433 999.291 252 252 234
-323.798 451.644 1221.22 255 255 245
387.152 484.208 1290.56 105 116 120
394.386 515.616 1292.95 234 247 247
-471.148 613.769 1280.83 240 247 241
32.4049 -685.388 2397.16 149 155 153
268.786 -123.881 1054.15 210 184 180
162.901 -104.396 1088.34 69 32 22
162.901 -104.396 1088.34 69 32 22
-1426.5 -155.901 2104.7 45 45 40
232.048 -15.5015 950.452 72 47 37
359.875 9.11055 1004.34 251 254 244
359.875 9.11055 1004.34 251 254 244
350.31 40.4291 1003.81 133 152 121
-384.715 58.1716 1082.4 68 52 36
-362.884 68.0072 1209.31 187 164 149
367.869 65.6701 1014.44 253 254 241
370.706 75.1014 986.645 181 200 164
280.614 113.924 1126.79 213 138 108
376.063 115.522 1024.07 223 230 221
376.063 115.522 1024.07 223 230 221
-419.46 123.967 1022.15 167 120 107
-419.46 123.967 1022.15 167 120 107
225.841 156.039 1056.68 249 240 227
254.786 184.855 1036.98 80 43 38
-494.226 240.466 1145.7 252 241 226
-356.69 384.5 1369.15 68 51 33
261.597 394.348 1251.3 73 108 124
261.597 394.348 1251.3 73 108 124
409.622 436.641 1250.24 115 151 157
443.494 457.781 1276.61 85 100 116
-148.103 -730.42 2245.52 85 89 85
276.153 -133.551 1051.01 32 86 81
276.153 -133.551 1051.01 32 86 81
236.968 -89.7367 995.728 192 206 206
87.7128 -92.6082 1082.87 186 170 158
204.74 -81.5815 1010.79 154 158 160
77.1855 -69.3058 1028.17 46 46 25
-376.073 -27.4478 1196.5 51 46 36
-417.671 -22.6719 1072.21 54 81 87
-486.633 36.2765 969.277 44 50 48
110.312 39.1182 991.288 255 250 254
96.5722 48.9168 1037.06 97 73 80
-459.761 71.0964 985.547 89 53 40
254.422 76.3476 1019.67 121 95 79
263.506 107.167 1069.9 226 131 105
254.403 118.732 1039.38 223 213 208
179.848 122.23 1045.36 170 83 74
166.55 132.188 1043.88 249 255 253
-327.576 209.623 958.025 221 163 124
171.841 274.541 1138.54 147 148 123
395.147 402.594 1255.89 91 130 127
413.826 562.172 1298.07 253 255 248
-296.433 625.391 1299.47 113 150 142
207.371 -112.781 1047.61 206 181 169
165.198 -57.3374 963.991 30 28 30
356.972 -45.0014 948.686 224 234 219
-515.924 46.0682 983.401 100 92 91
-640.455 145.932 1030.85 251 255 250
-640.455 145.932 1030.85 251 255 250
140.981 150.047 1028.81 97 84 87
-581.538 159.134 1017.43 255 249 238
-581.538 159.134 1017.43 255 249 238
132.976 172.565 1055.44 233 231 235
237.201 175.023 1071.25 88 69 56
-334.382 288.065 1120.16 118 83 66
-596.076 294.561 1097.02 137 112 85
-596.076 294.561 1097.02 137 112 85
-555.144 358.814 1155.64 115 86 79
-139.66 -383.751 1275.56 147 156 149
-487.377 -272.149 1151.68 94 103 99
-370.716 60.7623 1161.65 60 50 48
-345.914 98.0833 1246.63 112 101 90
-568.605 150.543 1031.28 202 131 121
-402.07 194.461 1064.95 254 240 229
-457.079 194.216 993.849 129 92 71
-329.395 262.171 1172.87 74 59 49
284.489 266.539 1126.51 217 216 190
-290.119 376.137 1335.59 155 152 134
335.02 -90.3069 931.377 53 105 125
-372.236 37.1265 1117.32 151 146 131
-372.236 37.1265 1117.32 151 146 131
-366.574 46.1451 1217.11 71 69 70
178.322 66.8663 965.719 107 80 67
221.543 121.094 1025.3 224 191 179
-609.567 180.335 1022.78 251 255 249
-530.021 322.885 1117.89 250 254 254
369.741 339.657 1153.51 166 198 192
268.849 107.604 1020.67 217 212 204
-512.56 131.834 979.49 252 255 248
-301.056 294.54 1319.12 70 58 58
-364.057 283.077 1127.32 249 253 247
333.218 304.622 1125.4 88 72 56
-454.41 372.053 1059.26 179 198 158
-123.898 -377.462 1503.47 94 65 41
-384.406 -21.1262 1173.63 105 84 80
-404.625 45.0798 961.053 245 221 192
380.96 74.5576 1031.98 226 230 228
141.024 115.407 1066.94 148 101 76
141.024 115.407 1066.94 148 101 76
-383.101 204.701 1079.95 247 192 151
-433.261 -245.324 944.492 86 92 87
351.201 -49.8126 969.937 134 160 122
410.283 208.457 1078.88 86 93 92
339.262 417.925 1268.09 203 231 229
-642.782 -240.864 1268.16 23 22 19
327.194 191.144 1071.14 252 255 250
327.194 191.144 1071.14 252 255 250
262.526 -171.926 1166.74 94 101 102
-366.024 187.602 1241.27 72 66 52
-167.18 -328.847 1308.22 97 66 48
-409.033 342.69 1132.16 252 255 254
