-326.817 -435.169 1345.3 50 62 55
-326.817 -435.169 1345.3 50 62 55
-399.573 -480.639 1492.96 13 35 27
-399.573 -480.639 1492.96 13 35 27
-366.421 -434.786 1681.05 65 64 57
-405.994 -488.209 1931.04 246 252 238
-405.994 -488.209 1931.04 246 252 238
453.359 -255.893 1131.16 218 199 183
421.375 -265.015 1240.03 58 23 21
369.612 -178.058 1063.88 220 221 217
522.483 -172.253 1060.62 176 181 176
526.512 -167.965 1053.34 50 53 45
571.624 -187.511 1179.43 56 49 48
452.622 -137.337 1086.24 135 137 124
620.634 -132.02 1151.01 162 163 149
527.536 -117.022 1091.92 165 148 127
410.625 -105.104 1058.58 79 56 57
498.135 -99.2829 1123.87 87 73 64
419.442 -50.2179 1087.7 70 68 49
663.279 -15.2828 1216.88 103 117 111
-172.964 21.5314 1031.03 255 241 220
526.513 26.9585 1156.18 254 242 230
-188.034 42.7925 1004.1 175 118 102
-226.483 65.9313 1011.07 224 215 210
587.093 131.053 1252.37 189 184 156
-104.193 138.002 1057.64 241 223 205
632.412 186.118 1345.27 246 254 249
89.7777 58.0996 285.438 3 18 32
-81.5305 227.534 1123.47 153 109 79
663.514 300.794 1411.5 221 242 241
454.432 237.043 995.402 214 240 247
-329.448 237.515 1039.14 252 251 250
-198.572 243.82 1055.99 173 122 115
649.599 371.411 1360.46 243 251 247
-295.747 296.661 1071.04 89 34 33
-371.999 -572.371 1725.12 23 40 31
-395.183 -340.365 1080.09 52 55 41
596.424 -364.839 1346.18 75 92 83
-418.094 -565.018 2353.71 162 153 129
-418.094 -565.018 2353.71 162 153 129
632.049 -190.991 1119.62 86 114 89
507.195 -165.876 1077.05 159 150 140
-222.294 -121.094 1107.59 100 124 119
-222.294 -121.094 1107.59 100 124 119
498.813 -102.162 1111 90 70 51
498.813 -102.162 1111 90 70 51
597.102 -102.081 1130.24 123 123 98
381.863 -97.8735 1084.54 89 67 60
377.228 -71.8113 1139.76 144 118 112
-346.86 -57.7996 1080.66 70 67 53
652.673 -51.6232 1153.11 243 255 246
652.673 -51.6232 1153.11 243 255 246
370.385 -35.9158 1111.35 168 131 113
-267.918 -31.0047 989.811 35 27 20
-244.468 -27.3202 984.903 70 50 41
-194.15 11.5194 1021.65 255 243 232
-194.15 11.5194 1021.65 255 243 232
503.35 24.6037 1185.16 81 54 47
503.35 24.6037 1185.16 81 54 47
564.052 37.0182 1190.33 255 247 234
-140.01 50.7855 1040.02 172 77 50
-152.076 69.7001 1054.43 65 10 3
-145.995 85.363 1049.57 68 16 8
573.575 113.788 1239.72 255 255 236
567.032 247.06 1621.94 151 156 154
-208.011 162.822 1048.54 240 231 215
676.639 233.144 1394.22 95 117 119
-98.445 187.423 946.355 59 40 29
-110.956 238.409 1159.56 47 28 16
-180.485 246.035 1101.48 250 231 222
-269.322 297.561 1095.56 241 216 198
-264.595 320.281 1102.72 255 254 244
-264.595 320.281 1102.72 255 254 244
-318.154 321.742 1104.36 253 253 255
-31.6193 465.158 1310.48 166 161 152
-273.669 521.101 1286.84 185 185 173
98.8693 415.066 -1570.18 157 140 113
-251.925 -638.961 2421.79 162 144 115
443.951 -272.538 1213.82 200 168 160
401.883 -197.209 1081.17 134 129 106
559.988 -169.032 1067.13 66 60 58
1367.63 -311.454 2053.43 70 55 42
1367.63 -311.454 2053.43 70 55 42
486.257 -103.821 1116.58 232 236 228
486.257 -103.821 1116.58 232 236 228
653.412 -103.105 1147.85 246 255 237
653.412 -103.105 1147.85 246 255 237
422.475 -97.3921 1095.15 249 247 248
-212.004 -89.4744 1002.78 109 97 98
502.384 -74.3951 1130 163 169 138
496.365 -50.4157 1138.57 119 91 70
438.098 -34.6783 1115.85 133 58 48
-273.326 -8.54963 827.221 215 189 164
-273.326 -8.54963 827.221 215 189 164
-107.999 18.2824 1002.67 136 86 45
-107.999 18.2824 1002.67 136 86 45
510.454 31.7736 1180.94 255 250 240
-264.011 27.7704 981.368 181 98 66
-116.891 48.3413 1044.67 119 68 37
-320.858 49.2015 967.14 141 82 69
-320.858 49.2015 967.14 141 82 69
-207.8 51.6008 1023.71 255 242 229
628.466 84.4047 1233.35 253 254 240
440.174 87.5059 1193.27 93 81 71
-107.293 76.0902 1035.4 162 91 68
-107.293 76.0902 1035.4 162 91 68
460.718 119.904 1221.8 145 146 124
-135.117 115.841 1045.32 57 16 10
-135.117 115.841 1045.32 57 16 10
-114.399 133.556 1058.25 190 113 75
-123.311 185.294 1125.11 60 20 15
-109.448 165.439 976.847 60 20 15
531.087 247.234 1368.81 35 61 92
531.087 247.234 1368.81 35 61 92
-237.2 270.817 1094.65 197 139 141
-285.524 442.992 1227.93 47 46 46
-231.77 -370.656 1146.69 119 127 120
-231.77 -370.656 1146.69 119 127 120
-454.62 -406.624 1589.37 68 35 20
640.428 -197.333 1106.67 104 135 105
608.462 -91.824 1139.93 253 254 232
-244.622 -48.6788 998.19 14 11 9
605.47 -47.3463 1135.73 252 254 251
448.809 -17.5245 1175.54 121 109 91
454.891 -17.0644 1143.59 249 247 236
454.891 -17.0644 1143.59 249 247 236
-304.441 0.543707 831.042 198 175 150
-304.441 0.543707 831.042 198 175 150
-65.5498 176.251 1077.55 254 255 239
-248.184 204.607 1039.94 104 47 41
-248.184 204.607 1039.94 104 47 41
655.186 276.498 1368.19 150 176 176
-300.653 398.198 1154.93 67 57 42
556.635 -58.749 1139.89 254 253 249
-375.079 9.91444 932.868 186 163 136
-375.079 9.91444 932.868 186 163 136
424.242 27.8414 1168.01 251 253 249
-232.049 46.2126 996.587 237 226 217
-373.8 47.9732 957.755 78 52 45
-373.8 47.9732 957.755 78 52 45
-232.055 183.12 1083.96 255 254 245
-318.639 219.95 1038.84 134 58 43
567.554 314.955 1395.91 171 200 197
-254.042 264.017 1056.63 108 77 73
-294.172 328.083 1146.78 243 246 246
-294.172 328.083 1146.78 243 246 246
-123.27 351.35 1149.75 131 108 69
-254.74 367.812 1102.75 69 66 65
-540.947 -455.94 1444.95 131 147 138
-74.9513 -21.7701 76.8593 80 89 79
339.462 -237.365 1180.17 159 156 158
601.738 -72.8439 1165.82 156 155 117
601.738 -72.8439 1165.82 156 155 117
-368.412 72.229 972.707 240 218 207
-219.136 91.9673 1043.87 130 82 74
-253.046 113.99 995.014 223 191 170
-301.403 130.062 1024.7 223 176 139
-163.117 162.784 1066.73 245 230 217
-268.125 218.654 1045.35 183 135 123
-402.45 -429.77 1437.67 124 132 128
-325.027 -99.0232 471.285 72 81 72
493.852 -184 1051.38 74 62 60
655.437 -98.6742 1143.79 246 253 245
-200.103 57.094 993.45 221 186 168
-195.773 162.979 1067.39 101 75 72
-175.373 -85.1365 1046.7 43 82 88
-290.926 80.3231 1012.14 195 105 85
-349.236 110.033 990.894 254 253 254
-349.236 110.033 990.894 254 253 254
-434.163 -452.613 1816.94 81 59 37
680.813 103.392 1218.32 115 141 110
619.239 -214.767 1071.23 120 153 117
702.27 34.7821 1237.8 87 113 95
578.291 30.325 1134.88 255 254 253
578.291 30.325 1134.88 255 254 253
617.241 247.877 1383.81 196 226 222
14.5525 547.16 1463.92 183 183 173
-485.719 -162.252 689.365 68 75 71
-228.106 -95.6812 1114.78 76 86 85
-161.255 287.507 1219.09 233 231 220
