151.455 -311.84 970.48 134 135 133
-118.758 -299.599 958.514 75 80 74
102.273 -87.3071 1108.22 170 171 158
1206.05 -133.226 1866.44 47 50 42
102.703 -77.2701 1084.09 47 40 38
396.476 -67.7434 1014.5 133 159 124
1133.49 -113.202 1755.79 196 195 192
187.41 -63.4795 1017.93 136 144 133
187.41 -63.4795 1017.93 136 144 133
142.791 -21.2768 997.943 148 134 117
-386.996 -15.4817 1190.85 116 100 80
335.692 -7.24623 1026.41 101 95 90
-504.765 -1.3694 1103.96 129 142 138
-368.3 18.0121 1059.56 154 140 121
255.265 30.0552 1049.21 241 217 193
-499.484 66.0585 921.737 237 234 226
307.534 84.7412 1085.94 255 251 236
147.99 89.15 1012.37 142 93 97
-486.44 85.6036 842.246 92 48 33
185.091 130.384 1077.33 100 82 78
194.197 135.628 1084.7 178 158 152
-354.982 125.185 848.32 234 198 163
-412.941 153.703 1040.69 250 233 223
-421.274 158.267 1029.18 253 225 202
289.303 172.005 1090.14 224 197 185
-412.653 183.271 1053.24 95 40 11
-412.653 183.271 1053.24 95 40 11
-299.396 170.677 906.914 255 242 214
-465.818 216.267 1208.24 45 8 4
-465.818 216.267 1208.24 45 8 4
259.204 259.698 1175.42 139 135 93
245.967 265.391 1172.6 139 138 100
343.857 291.102 1201.71 225 210 188
-578.812 287.83 1026.37 186 161 141
-563.801 335.064 1053.72 253 250 250
403.795 413.002 1269.19 126 142 138
-331.851 372.372 1070.3 252 230 215
278.671 432.765 1229.52 81 104 117
-541.414 371.09 1050.13 249 237 207
-265.587 430.415 1106.7 31 33 28
-516.551 522.905 1191.96 26 29 24
-42.7674 -18.9594 49.9316 163 161 155
-355.931 -390.41 1186.47 73 82 77
-355.931 -390.41 1186.47 73 82 77
-377.415 -332.409 1458.21 143 112 91
-224.479 -364.281 1721.49 198 189 168
-490.823 -31.6835 1150.8 28 52 42
279.115 -25.5609 1053.37 175 163 149
404.218 -19.4571 1061.08 87 107 94
274.582 -14.9376 1034.37 78 66 62
274.582 -14.9376 1034.37 78 66 62
364.186 -10.7866 1046.9 144 134 133
-362.812 35.4389 956.588 125 100 66
239.222 39.1945 1039.19 254 255 247
239.222 39.1945 1039.19 254 255 247
-350.357 48.3849 1184.71 40 41 38
199.021 51.2762 1014.58 146 141 115
150.026 56.6337 976.955 252 249 249
-355.054 73.1188 1225.29 77 66 54
186.515 70.4173 1038.82 176 153 128
272.483 86.6503 1078.09 162 100 75
143.976 96.1021 1048.85 245 235 220
-460.287 102.537 1009.44 255 249 241
-509.541 137.123 919.802 236 175 150
243.009 162.539 1066.13 48 28 18
-293.69 115.166 714.957 38 5 1
-293.69 115.166 714.957 38 5 1
285.021 199.214 1125.28 255 253 236
-390.772 221.423 1039.07 40 2 1
-390.772 221.423 1039.07 40 2 1
217.35 252.144 1167.02 56 49 29
-319.632 235.139 1031.74 244 237 225
388.434 346.244 1268.6 241 244 239
408.394 360.031 1260.5 228 246 243
314.828 414.382 1287.33 25 68 102
410.084 412.563 1255.57 236 254 253
298.243 476.055 1364.79 82 102 115
411.562 487.093 1327.74 221 240 249
-361.385 -382.482 1307.26 129 132 127
-361.385 -382.482 1307.26 129 132 127
-361.385 -382.482 1307.26 129 132 127
-454.005 -440.079 1752.99 94 43 28
112.256 -121.07 1156.17 78 73 57
112.256 -121.07 1156.17 78 73 57
167.416 -110.929 1134.34 230 231 223
167.416 -110.929 1134.34 230 231 223
399.554 -66.3401 1000.54 205 215 193
399.554 -66.3401 1000.54 205 215 193
391.515 -29.8273 1028.44 251 254 245
-380.32 -19.1997 1203.08 68 55 37
405.11 12.8622 1063.34 196 200 182
180.41 40.9017 1046.28 254 250 246
418.885 60.951 1055.48 184 198 166
243.529 73.0745 1047.64 118 103 72
176.351 98.7632 1102.04 106 46 35
431.79 103.215 1111.04 239 253 243
431.79 103.215 1111.04 239 253 243
-422.902 87.5796 958.63 249 203 177
476.768 130.558 1162.11 207 209 179
226.039 128.833 1068.89 220 202 202
226.039 128.833 1068.89 220 202 202
253.158 127.094 1033.81 80 50 47
-386.673 128.443 980.168 153 106 89
-386.673 128.443 980.168 153 106 89
-610.402 127.846 963.509 232 244 243
265.883 145.261 1091.74 254 243 235
-603.653 136.095 998.795 252 254 249
-603.653 136.095 998.795 252 254 249
257.178 174.58 1090.03 255 254 233
176.682 169.549 1040.45 38 30 35
-496.938 158.395 884.174 254 238 221
-327.276 192.846 1004.35 248 244 209
300.425 256.518 1229.08 155 145 138
223.035 251.045 1124.8 203 208 167
-331.388 247.285 1047.31 200 137 102
438.815 299.76 1192.34 138 138 112
-268.878 369.831 1211.79 160 164 140
-509.273 315.04 1025.05 95 61 56
-282.135 398.04 1124.11 141 99 72
-256.609 412.159 1065.05 44 45 33
-279.251 435.608 1114.65 254 255 249
435.91 551.826 1332.53 252 255 252
-377.856 -416.804 1272.46 82 91 87
-377.856 -416.804 1272.46 82 91 87
-355.262 30.769 1031.4 60 51 37
150.828 29.5095 1012.45 253 254 253
150.828 29.5095 1012.45 253 254 253
-482.501 44.7379 970.871 36 24 28
-487.649 70.075 991.29 193 140 112
299.095 91.6192 1087.45 197 117 96
240.914 91.2017 1036.63 141 108 84
-617.696 92.1173 929.35 204 192 170
-617.696 92.1173 929.35 204 192 170
217.481 111.587 1061.67 137 60 38
208.16 124.1 1082.5 253 254 251
-601.43 210.405 988.06 249 254 254
-496.836 296.097 1026.93 142 105 100
-505.201 518.445 1170.17 64 66 61
38.962 -329.617 1016.25 104 105 97
-208.963 -188.87 640.347 151 161 154
241.011 -128.591 1123.51 207 189 173
240.856 -79.6022 1016.59 55 49 47
240.856 -79.6022 1016.59 55 49 47
400.501 -44.2912 1027.9 118 137 110
-523.918 41.9844 976.386 146 127 106
366.215 57.9404 1061.12 254 254 226
433.095 92.2512 1082.63 121 155 121
-334.037 110.923 1188.86 116 104 91
268.409 160.134 1075.19 100 74 76
170.246 166.26 1085.11 250 249 249
-569.437 172.066 992.422 253 248 250
-476.865 158.568 907.491 176 120 106
-456.384 315.232 1038.06 253 251 253
-489.506 344.9 1014.45 127 94 92
-248.034 -313.601 1001.28 163 169 165
366.296 -105.595 955.098 62 115 142
334.451 -111.034 1041.84 150 200 192
119.386 -25.3451 1005.69 68 54 47
132.444 41.0711 1065.06 110 93 92
-459.06 182.045 990.321 126 77 66
-447.665 211.645 993.751 122 79 51
317.678 252.267 1143.05 222 223 206
375.819 279.964 1110.67 117 110 91
375.819 279.964 1110.67 117 110 91
-512.8 423.066 1033.19 250 252 248
-494.751 453.441 1074.56 96 96 89
847.747 -499.816 1506.98 85 89 81
398.105 -651.569 2218.3 188 160 128
117.379 -75.9625 1111.33 76 66 50
117.379 -75.9625 1111.33 76 66 50
231.827 59.4877 1063.7 103 76 61
-345.793 219.18 1069.17 255 208 161
-443.132 255.604 1024.93 134 115 103
405.334 335.788 1211.36 178 210 204
-59.1087 -224.177 775.555 117 96 73
-376.707 35.966 1053.89 98 89 74
422.141 55.7277 1079.79 244 250 242
172.306 100.536 1030.54 180 131 108
172.306 100.536 1030.54 180 131 108
-317.505 276.587 1037.81 248 252 243
318.4 364.528 1237.87 167 192 187
-461.934 414.879 1086.38 171 193 155
-231.69 -278.809 1240.51 99 70 50
-456.468 80.2632 926.291 240 205 189
291.454 147.183 1081.81 136 110 104
-445.769 8.49654 1023.28 65 102 106
277.236 210.702 1119.53 188 174 122
317.532 4.00806 936.404 88 81 76
-296.592 321.958 1183.82 81 65 55
366.398 406.987 1298.42 205 233 231
293.471 -170.719 1232.56 125 149 153
-350.96 197.972 1226.33 85 66 51
359.62 177.961 1097 251 254 255
-280.066 -268.905 1196.23 96 63 44
