-150.974 -117.902 548.371 144 139 134
-174.19 -179.453 702.227 144 148 129
-561.774 -170.743 1073.54 112 114 99
240.997 -179.457 1149.3 151 204 189
-495.441 -123.207 975.62 51 50 33
-495.441 -123.207 975.62 51 50 33
-466.515 -84.4033 1340.08 180 167 162
-533.525 -82.4669 1417.49 124 145 147
-490.809 -55.7997 1303.02 184 178 173
240.607 0.809286 942.743 232 243 228
-430.734 20.7545 1332.71 18 16 12
-415.163 57.9211 1045.37 151 132 98
-512.186 80.7241 1319.38 135 118 92
-474.877 78.2422 1147.62 194 155 120
-491.003 106.477 1324.11 49 34 22
-500.219 107.634 1152.09 152 105 107
-485.834 130.482 1283.22 91 56 34
135.528 118.702 1060.91 196 140 112
-432.792 166.285 1279.74 104 100 88
-505.019 159.278 1212.86 255 232 208
-336.022 208.099 1470.81 165 121 98
70.5112 221.192 1311.66 254 249 254
-365.648 250.961 1395.42 64 30 12
100.361 211.489 1109.07 136 109 84
293.074 209.336 1043.87 249 255 241
-428.153 311.012 1362.33 255 246 231
-322.024 373.249 1470.27 10 18 17
-648.287 572.554 1765.51 42 48 47
-648.287 572.554 1765.51 42 48 47
423.219 486.174 1309.41 90 114 122
263.762 531.917 1415.78 184 193 192
378.806 535.287 1252.63 118 140 142
-431.142 -120.778 804.197 52 52 33
-655.872 -116.211 1100.36 90 92 70
159.73 -96.9014 983.778 74 79 74
134.235 -77.5018 996.837 56 65 72
-408.163 -55.1183 1356.37 96 89 71
-443.586 -37.6335 1298.39 128 104 87
-443.586 -37.6335 1298.39 128 104 87
164.53 -29.344 943.859 232 233 219
164.53 -29.344 943.859 232 233 219
-428.524 -28.9478 1319.92 139 122 102
-473.705 32.0106 1323.64 149 135 114
-495.492 72.7492 1212.54 241 207 165
-632.297 81.5635 1235.61 212 140 125
-662.373 102.897 1221.04 254 251 247
-478.681 104.184 1216.81 254 249 231
-478.681 104.184 1216.81 254 249 231
57.1624 98.8275 1047.79 219 207 182
140.763 111.75 1072.89 245 213 193
232.661 120.892 1033.4 80 85 62
279.71 126.491 980.803 200 216 196
-330.634 189.09 1451.89 30 17 13
159.278 158.173 1055.09 255 248 230
-456.196 221.403 1318.32 239 217 203
-456.196 221.403 1318.32 239 217 203
38.5831 217.628 1171.13 202 183 168
-291.43 288.831 1493.74 63 36 15
-314.74 321.189 1508.02 75 45 28
-399.012 301.674 1375.4 192 192 174
319.6 263.443 1095.42 251 252 247
319.6 263.443 1095.42 251 252 247
329.827 458.545 1259.4 225 243 243
-273.618 591.482 1590.85 195 196 181
-330.135 -55.9696 503.291 90 92 80
-531.985 -96.583 849.311 194 196 192
51.0445 -105.489 1109.66 202 202 196
-401.02 -1.12618 1467.41 27 24 24
-478.121 5.43208 1244.83 136 111 81
214.606 14.1258 950.194 248 254 253
214.606 14.1258 950.194 248 254 253
211.015 33.7388 916.838 249 250 250
-456.569 57.7445 1247.69 149 139 129
-456.569 57.7445 1247.69 149 139 129
-456.144 63.2287 1291.57 60 52 48
17.1628 64.9154 1045.14 254 247 248
-649.872 85.4079 1217.48 255 253 231
158.062 69.6339 989.334 111 96 76
276.695 110.892 1037.21 185 198 161
160.256 139.891 1175.65 231 166 143
119.844 166.064 1106.35 126 99 89
115.898 204.157 1109.43 255 250 239
-634.76 301.233 1332.66 255 251 251
-314.067 360.39 1544.8 24 17 16
90.8608 276.844 1163.11 226 229 200
-299.563 398.194 1524.08 91 79 73
427.673 443.405 1293.03 147 171 167
416.88 463.357 1296.78 86 110 124
100.712 -106.533 1105.37 229 196 177
-482.042 -12.337 1257.66 31 30 14
210.92 4.06806 972.656 115 136 110
-499.279 10.152 1168.26 109 86 52
-729.673 48.2131 1231.96 244 227 216
-362.627 99.8779 1504.33 19 17 14
-654.888 118.231 1257.48 188 142 139
133.172 94.785 1015.94 164 140 117
-604.899 125.713 1190.59 212 139 131
-492.777 170.78 1257.62 252 249 231
170.622 167.813 1017.83 254 252 249
295.508 166.247 1005.16 225 228 208
-584.352 231.13 1303.68 254 253 254
176.097 224.506 1114.65 255 253 249
124.857 225.499 1056.47 192 178 149
-321.116 370.659 1584.53 24 17 16
-369.393 421.451 1396.83 53 48 48
422.861 438.717 1280.05 145 179 177
408.723 496.965 1313.18 58 90 127
204.461 -139.138 1097.47 44 85 92
171.843 -96.6262 1004.06 90 82 83
225.82 -1.09723 952.398 117 146 104
-416.224 36.6943 1429.19 167 140 119
-377.131 60.0939 1477.9 59 34 29
-385.078 76.7089 1388.86 53 36 28
195.328 93.5782 976.607 253 254 247
36.8855 162.801 1081.39 134 99 98
30.0191 186.091 1118.87 255 252 251
-573.877 272.092 1272.08 249 254 252
184.13 241.205 1111.82 201 197 188
182.401 285.511 1140.71 248 251 241
-445.458 360.816 1309.68 252 253 254
-445.458 360.816 1309.68 252 253 254
-368.785 365.652 1325.7 126 77 45
-585.161 414.339 1416.45 103 103 89
-585.161 414.339 1416.45 103 103 89
326.611 438.83 1238.1 213 232 232
326.611 438.83 1238.1 213 232 232
379.943 458.133 1271.81 173 202 207
14.6605 114.517 -332.147 109 109 106
-562.208 -166.642 1062.31 55 55 40
162.677 -71.0807 960.839 149 197 184
-547.511 -71.7531 1385.81 66 106 104
74.2831 -48.7204 982.703 66 58 46
-427.621 28.7602 1336.5 52 42 40
64.801 82.0106 1012.42 136 115 101
64.801 82.0106 1012.42 136 115 101
-698.249 143.94 1287.63 255 253 254
-397.915 283.785 1230.36 247 217 195
230.472 287.599 979.253 136 125 107
230.472 287.599 979.253 136 125 107
233.384 396.491 1258.36 217 241 232
62.4628 32.7249 -192.502 143 151 147
-444.504 7.57778 1316.14 149 138 126
-510.293 77.7376 1223.76 217 198 161
109.861 139.216 1055.28 238 214 197
47.3402 215.566 1156.22 144 128 117
-419.065 242.505 1229.24 248 255 244
-411.204 60.8171 1373.98 163 140 120
-684.907 91.5825 1236.06 224 223 217
158.538 132.689 1050.8 250 243 242
-363.566 237.066 1431.3 174 137 121
382.092 524.71 1332.18 192 221 218
-152.066 -115.745 488.279 152 166 157
258.312 99.8737 993.194 250 255 238
145.175 179.286 1077.3 153 129 120
-481.107 24.2429 1224.35 46 31 21
261.95 424.565 1232.53 225 245 248
-342.788 -102.672 742.422 143 151 145
-342.788 -102.672 742.422 143 151 145
-447.629 504.841 1443.63 83 91 87
163.198 -199.424 1135 156 150 141
-414.856 149.209 1393.83 52 45 37
226.76 198.573 1110.73 252 255 250
