1005.09 17114.2 -66197.5 44 30 10
-726.522 -32.2005 1612.18 202 193 178
-455.241 -0.446223 1578.02 158 157 142
-138.188 15.2335 1107.31 89 91 87
-425.705 86.1546 1473.18 130 114 113
-179.875 80.4305 1041.57 23 33 34
-590.896 149.114 1573.23 19 15 1
17.4452 97.6296 966.511 206 205 193
-304.211 107.5 1023.46 95 82 66
-545.071 175.229 1516.62 154 150 144
-170.889 99.3926 857.774 221 243 241
-98.9512 115.818 829.705 133 178 192
-65.2874 142.269 848.221 24 14 1
40.1105 211.776 940.145 134 82 49
112.199 227.203 1001.44 181 183 180
-478.11 353.811 1522.41 58 36 35
-478.11 353.811 1522.41 58 36 35
30.7397 222.396 931.773 149 108 80
63.8795 238.326 985.738 143 123 114
-102.49 203.809 824.607 28 25 25
-120.137 211.575 827.116 23 25 20
-102.611 214.4 832.599 186 162 155
30.0939 280.596 990.448 179 146 131
-18.8219 268.333 906.103 252 238 225
-197.686 289.343 965.202 255 252 246
115.586 367.957 1086.8 140 174 174
48.7333 362.551 991.855 57 72 71
-79.0278 323.29 874.03 68 45 28
-72.4556 -446.615 1587.82 48 41 33
-1408.61 -200.808 2663.79 238 243 236
-1408.61 -200.808 2663.79 238 243 236
-1161.51 -85.8368 2316.57 135 140 135
-469.719 -39.1598 1422.1 52 32 23
-508.223 -21.8056 1422.53 55 33 20
-566.485 -2.46125 1460.96 27 20 9
-462.554 -3.97944 1485.48 136 112 93
-525.339 -0.522553 1337.88 36 28 14
-563.319 9.41748 1377.32 40 30 22
78.1845 31.4097 947.914 17 21 13
-587.367 60.4515 1406.36 143 98 46
-374.791 72.7879 1495.17 214 153 136
-576.613 69.6319 1360.52 252 231 208
-600.537 78.2328 1552.95 121 122 107
-573.364 76.5851 1390.92 153 113 68
-419.139 93.7626 1528.87 31 15 12
-704.75 96.9826 1620.3 255 248 244
-543.917 99.8413 1485.13 25 19 22
-565.064 133.155 1324.18 253 250 229
-191.596 96.6195 914.986 172 207 203
-191.596 96.6195 914.986 172 207 203
-179.203 105.142 928.977 243 255 255
-232.535 109.087 927.052 180 165 152
-77.3693 105.296 861.31 130 177 181
-263.878 123.078 941.188 81 79 72
-263.878 123.078 941.188 81 79 72
-104.601 181.996 819.832 66 65 61
-110.812 193.245 820.352 38 38 33
-97.8517 198.433 837.434 41 44 46
-69.8127 224.155 838.149 179 161 152
-30.7395 245.611 900.513 57 29 19
49.6984 288.415 965.728 30 53 60
49.6984 288.415 965.728 30 53 60
68.804 357.902 1007.31 74 51 42
-85.9838 320.115 863.685 121 117 106
112.513 384.539 1028.15 191 143 134
112.513 384.539 1028.15 191 143 134
-47.8756 -591.272 2031.24 173 175 166
-1371.72 -485.732 2161.29 136 157 147
-278.482 -577.465 2716.35 197 200 193
-1131.25 -339.71 2371.07 94 99 96
-1270.24 -257.75 2267.42 183 189 185
-433.061 -72.1152 1576.93 122 123 95
-427.149 -55.4163 1564.48 30 29 16
-581.27 -43.2203 1485.87 81 105 106
-76.3737 -5.08448 1190.01 105 98 89
-537.672 10.5572 1400.05 195 168 144
-537.672 10.5572 1400.05 195 168 144
-537.672 10.5572 1400.05 195 168 144
-136.868 24.9768 1077.67 240 252 246
-116.41 32.7334 1066.01 202 84 62
-72.862 39.1064 978.996 195 169 159
-576.605 56.0209 1285.05 255 251 241
-394.957 63.3175 1510.51 68 36 27
-533.378 72.3483 1492.37 60 47 42
-772.739 86.1509 1759.61 254 253 243
-76.2737 75.8807 1000.82 43 84 75
47.371 83.9633 914.061 151 115 82
47.371 83.9633 914.061 151 115 82
-91.4397 99.3738 841.543 65 71 70
-214.623 134.316 872.123 74 79 70
-98.1491 164.785 816.55 25 37 32
-71.0903 172.362 850.016 31 43 38
-30.8582 241.325 888.131 74 46 37
166.008 337.65 1059.05 58 37 23
116.204 490.049 1093.2 131 140 130
96.7889 477 1042.75 151 165 158
643.818 -806.573 2506.09 26 22 19
-537.662 -6.24915 1426.88 44 33 17
-256.899 115.069 967.102 71 69 67
-97.348 161.22 800.243 25 37 32
-71.1657 174.752 862.66 31 43 38
113.846 330.671 1009.67 107 146 134
-221.413 414.778 1147.77 199 199 182
-92.5566 306.03 847.661 48 42 34
-962.333 -363.939 2438.56 97 99 91
-112.313 79.474 932.151 243 219 211
-25.161 230.523 913.511 138 63 43
-132.684 247.088 849.998 186 191 176
160.164 324.415 1079.18 79 37 27
-36.7535 -617.253 2177.94 164 164 159
-464.137 -41.0455 1470.67 75 56 43
-1184.43 -25.072 2296.79 100 91 78
-365.507 69.1089 1564.66 58 45 44
-125.287 215.503 828.78 54 46 40
102.558 315.498 1004.26 71 61 61
102.558 315.498 1004.26 71 61 61
-10.5531 330.561 925.184 181 186 175
97.1129 -1024.92 4420.59 164 168 161
-526.808 142.07 1396.65 89 77 65
149.742 366.739 1059.88 185 140 125
177.438 405.078 1088.93 73 51 50
23.6391 -422.557 1801.93 161 163 155
-411.659 -55.855 1517.29 47 47 34
-113.502 26.7173 1052.79 157 56 51
20.4464 39.5844 939.579 127 194 185
-435.763 73.7459 1495.09 204 189 173
-435.763 73.7459 1495.09 204 189 173
-186.535 125.601 904.083 126 158 149
-576.545 269.547 1556.24 243 243 229
-57.1195 326.909 889.428 186 156 137
110.055 191.504 1003.27 72 50 42
37.0416 206.999 942.936 198 146 117
64.6092 254.807 987.262 49 33 25
64.6092 254.807 987.262 49 33 25
-543.305 29.1403 1368.63 67 54 38
-473.984 165.47 1183.85 255 252 241
-169.048 124.111 905.501 198 221 216
-126.422 295.769 840.745 234 237 222
53.7004 -514.796 1996.84 160 160 154
132.449 125.763 1004.43 185 177 157
-30.8462 182.936 876.809 49 42 33
-347.422 355.929 1254.18 88 96 92
-347.422 355.929 1254.18 88 96 92
-85.4815 278.188 862.968 61 53 51
-349.339 78.3105 1056.64 73 58 54
-15.7957 178.852 867.26 63 56 51
