99.0818 -363.784 1191.02 65 60 55
35.8815 -334.21 1557.3 43 31 21
35.8815 -334.21 1557.3 43 31 21
-401.345 -40.8624 1270.07 42 26 6
-569.95 -9.87515 1360.82 224 221 212
-414.865 -9.91057 1400.99 128 114 91
-386.941 -8.06737 1417.58 166 162 147
-367.571 -4.21449 1322.54 178 175 161
-516.163 0.397471 1310.28 31 27 10
-516.163 0.397471 1310.28 31 27 10
-478.645 53.49 1272.1 128 120 103
-389.274 74.668 1424.59 147 119 115
-368.239 79.7368 1423.38 23 12 12
-129.387 60.8614 957.483 255 226 209
-441.063 87.1121 1183.11 18 5 1
-117.456 67.7119 920.494 247 234 225
-568.672 106.981 1376.43 254 250 238
21.1861 96.1688 911.328 219 221 211
15.4776 86.0891 815.355 217 219 209
-167.094 100.938 857.328 236 250 249
-53.0066 98.3244 800.16 4 21 28
-201.282 126.33 804.991 69 65 62
-482.671 358.676 1602.56 58 30 24
-175.546 191.198 841.207 177 187 171
-111.849 194.105 799.858 42 42 35
-71.5347 233.011 871.692 37 26 22
-29.9962 267.9 868.357 29 15 3
47.0324 284.495 924.828 51 67 77
47.0324 284.495 924.828 51 67 77
100.736 327.384 988.2 22 26 20
103.236 346.157 990.734 195 213 212
112.329 347.569 991.774 39 52 53
-87.0699 309.915 823.478 123 124 110
-80.2872 314.713 833.786 70 49 35
-15.9941 -565.671 1976.13 58 41 30
146.785 -345.126 1390.42 172 168 166
-1330.14 -441.32 2348.9 99 117 104
-371.558 -69.5736 1433.52 126 129 107
-421.61 -57.3645 1436.48 59 37 18
-461.831 -27.3277 1354.1 35 25 17
-477.408 -17.2972 1378.73 194 178 157
-124.903 16.6788 1066.13 112 108 98
-124.489 26.668 1043.87 246 253 253
-351.288 53.3895 1425.63 47 16 11
77.4019 36.5026 891.567 26 27 17
-391.463 61.5303 1421.04 206 184 168
-391.463 61.5303 1421.04 206 184 168
-343.653 65.6164 1464.36 209 146 133
-66.7244 43.0803 973.91 200 175 161
-583.261 72.7359 1580.78 117 123 106
-243.594 110.435 908.356 52 54 51
-249.944 118.225 894.788 77 76 65
-249.944 118.225 894.788 77 76 65
-99.1849 169.66 812.086 32 55 54
112.11 228.979 967.733 164 170 168
112.11 228.979 967.733 164 170 168
-111.517 192.894 796.198 42 42 35
-97.4256 196.864 806.666 33 37 38
-534.404 433.845 1680.07 82 83 77
122.42 274.945 979.289 20 19 14
27.5735 271.604 903.548 77 21 7
118.026 347.258 970.876 68 36 22
63.3373 346.621 948.956 82 45 37
74.5169 354.059 957.176 246 178 163
-24.7424 318.656 855.038 235 236 233
61.5918 378.622 946.321 148 103 92
142.176 443.255 1032.12 208 201 185
110.921 510.41 1080.05 61 86 83
102.736 516.492 1058.39 60 86 83
82.5018 -130.503 411.06 153 154 139
-517.451 -45.9534 1371.12 69 93 98
-61.0104 -2.61587 1057.43 74 68 63
-533.804 3.05266 1277.7 117 103 77
-486.718 2.6495 1321.14 170 145 123
-486.718 2.6495 1321.14 170 145 123
-148.399 59.8046 981.288 11 18 21
48.1982 88.4964 879.688 144 115 84
48.1982 88.4964 879.688 144 115 84
-135.758 172.989 764.165 52 44 37
44.7351 230.046 909.781 56 28 22
-80.6262 235.647 835.656 39 25 26
-80.6262 235.647 835.656 39 25 26
125.751 281.568 998.821 22 15 16
5.54847 275.963 891.677 208 206 202
-158.704 311.933 891.494 183 185 183
97.3082 342.786 958.682 63 57 62
-93.6632 385.761 902.038 255 255 248
111.961 476.788 1044.19 141 147 140
-55.9844 408.818 867.383 123 111 106
-100.754 477.509 989.389 249 249 245
-100.754 477.509 989.389 249 249 245
-899.721 -210.142 1716.41 186 197 190
-484.913 -79.3589 1475.29 72 97 97
-317.762 -46.7501 1206.39 55 47 39
-107.236 58.7896 943.152 215 205 190
-85.5859 96.4221 774.913 80 82 82
-71.8439 177.239 842.473 27 33 31
-71.8439 177.239 842.473 27 33 31
-29.8097 299.245 871.523 180 156 134
-43.4913 299.44 864.651 43 42 37
-43.4913 299.44 864.651 43 42 37
67.1814 362.302 932.406 62 34 27
-110.561 439.905 962.434 252 251 250
-119.285 513.387 1107.98 251 250 250
-119.285 513.387 1107.98 251 250 250
-135.747 92.8229 869.573 141 206 196
-140.775 201.117 784.393 242 243 235
-26.0925 223.763 857.131 150 76 51
-114.996 192.979 719.793 49 39 37
135.756 285.339 915.684 73 22 15
-15.7747 -477.005 1668.46 65 47 36
-414.568 -44.2436 1382.86 72 52 37
-320.448 59.827 1462.98 58 43 35
-160.615 85.887 945.838 115 105 88
99.1559 313.09 966.315 68 61 58
-12.7223 324.083 887.656 183 182 178
-499.005 230.904 1396.62 255 253 247
-89.2105 177.347 812.844 187 196 194
-89.2105 177.347 812.844 187 196 194
76.1764 -410.593 1706.26 163 163 157
-373.999 -59.2338 1466.24 54 52 41
-388.255 62.6414 1400.62 211 193 178
-388.255 62.6414 1400.62 211 193 178
-225.249 110.968 896.522 66 78 72
-59.0743 319.538 852.858 196 161 144
-59.0743 319.538 852.858 196 161 144
108.266 191.285 957.217 80 63 58
35.7336 205.273 900.817 194 147 114
61.9277 251.5 940.278 48 36 29
61.9277 251.5 940.278 48 36 29
-127.679 300.961 845.358 232 236 231
-158.187 119.046 842.006 204 234 225
99.8178 -455.587 1723.19 158 157 154
99.8178 -455.587 1723.19 158 157 154
126.455 125.241 940.411 181 177 159
-30.4199 182.589 849.991 54 46 42
-332.016 341.175 1228.2 100 108 102
-332.016 341.175 1228.2 100 108 102
-86.3344 273.237 827.149 60 56 53
-40.7403 370.085 845.489 61 56 53
-41.4302 -365.498 1500.8 130 112 91
-311.362 65.2102 975.676 60 49 48
-17.5855 183.24 846.967 61 54 55
