-225.814 -451.828 1677.54 65 66 56
-405.836 -452.57 1806.72 50 35 23
-775.957 -448.106 2259.23 118 118 113
371.563 -216.953 1100.26 67 59 51
347.527 -171.09 997.546 22 24 19
522.946 -158.597 993.693 32 30 32
533.877 -152.084 1057.29 170 170 164
370.66 -124.656 1055.65 29 26 11
614.086 -74.1906 1085.93 167 166 143
489.611 -60.6895 1064.32 97 87 65
629.083 -57.8892 1066.32 200 222 201
497.408 -49.8085 1064.3 194 189 164
-249.31 -21.3247 966.164 25 12 7
-270.888 -16.8903 981.313 46 28 20
533.134 -11.3507 1142.7 233 216 203
533.828 34.502 1097.7 250 235 223
-227.796 35.0524 966.314 255 249 232
-163.344 41.2698 1049.46 249 194 182
419.377 86.1428 1104.61 158 154 141
-136.511 107.283 1042.92 255 229 213
571.558 119.27 1155.09 255 255 233
581.69 133.251 1158.51 207 192 176
503.474 136.887 1103.86 154 140 122
593.76 178.061 1147.06 127 147 141
-198.664 169.288 1067.13 143 109 92
-61.0735 174.955 1055.29 255 244 210
-103.111 181.947 1005.11 255 228 208
684.513 261.487 1293 213 244 243
-353.931 239.789 1091.22 148 140 130
-136.326 276.377 1139.17 252 247 248
-171.862 280.059 1074.67 80 66 44
-252.752 292.872 1057.39 255 248 238
-282.13 334.039 1093.7 236 230 219
598.786 -289.377 1174.11 32 44 51
330.677 -225.489 1111.91 163 143 151
618.475 -137.52 1032.18 70 100 85
685.72 -139.068 1083.73 172 194 170
651.279 -114.663 1075.04 210 231 214
565.424 -103.672 1048.21 85 77 60
381.221 -87.9521 1037.74 89 70 58
372.219 -60.8658 1072.36 147 126 123
462.074 -57.7037 1063.08 210 192 173
651.031 -53.4811 1072.75 121 152 131
651.031 -53.4811 1072.75 121 152 131
481.496 -35.4784 1078.98 250 219 193
464.61 -32.4722 1087.22 246 236 212
464.61 -32.4722 1087.22 246 236 212
-1222.21 -23.2159 1609.72 44 44 39
-240.313 3.6905 951.88 204 129 99
-179.718 4.48901 950.498 254 235 206
-114.551 5.49289 1000.1 203 158 118
-193.002 15.7404 940.7 255 246 241
-292.294 16.7692 958.208 144 71 49
405.258 36.6309 1127.72 122 114 106
538.674 40.1371 1091.79 108 71 61
-240.416 40.0109 977.433 60 20 16
-240.416 40.0109 977.433 60 20 16
-251.675 40.2617 975.066 254 229 214
-169.071 51.3555 1062.62 67 15 4
-346.489 55.91 963.261 127 108 110
-346.489 55.91 963.261 127 108 110
-219.777 62.0901 983.613 255 251 243
-161.105 64.2801 1043.46 49 14 3
-161.105 64.2801 1043.46 49 14 3
-118.743 82.2124 1010.22 253 240 210
-323.979 84.2163 943.475 171 95 94
587.638 149.211 1140.01 144 142 127
-102.996 145.851 1028.98 245 227 216
-205.432 154.864 1002.34 250 237 218
-205.432 154.864 1002.34 250 237 218
-106.908 187.112 994.78 48 29 21
695.74 283.511 1311.37 137 164 164
-84.622 311.275 1108.05 242 254 236
-245.464 384.237 1119.39 56 39 36
-60.6682 -713.63 2587.42 169 150 127
568.513 -165.381 1025.17 48 48 53
486.572 -143.226 987.538 71 60 53
467.943 -144.881 1032.45 145 131 118
620.59 -127.963 1023.7 226 249 237
401.616 -98.6223 1048.23 255 252 248
641.536 -94.2534 1049.25 247 254 241
641.536 -94.2534 1049.25 247 254 241
531.332 -72.0362 1052.81 135 100 83
481.394 -61.2907 1026.73 176 171 146
567.803 -63.8406 1092.13 142 138 121
-223.417 -13 943.585 175 121 93
502.45 -11.8468 1082.71 223 203 190
577.482 -9.13302 1098.83 249 242 239
465.292 -4.62727 1062.57 189 192 196
465.292 -4.62727 1062.57 189 192 196
512.336 -3.72979 1083.58 68 48 48
-308.333 0.39536 976.048 216 196 169
-334.942 10.6375 953.023 207 186 156
-334.942 10.6375 953.023 207 186 156
-254.42 23.2083 972.837 250 193 167
505.951 38.3217 1101.71 255 240 233
575.323 44.853 1135.35 255 252 245
-145.636 42.5174 1007.61 162 82 65
410.738 44.1131 1043.12 51 51 56
-339.125 48.7894 965.995 219 224 212
-339.125 48.7894 965.995 219 224 212
-330.722 50.2009 981.561 135 111 101
-139.853 59.7684 1011.15 183 103 65
-139.853 59.7684 1011.15 183 103 65
-318.256 59.4265 952.484 127 91 80
-307.16 68.6502 943.361 232 245 231
424.083 93.048 1090.91 60 54 49
-114.551 100.555 1035.42 241 240 234
-190.333 173.325 1007.56 89 62 52
-347.003 189.506 1042.82 251 255 238
-259.616 234.912 1046.32 86 60 54
578.768 329.675 1403.09 42 67 88
-315.46 270.684 1084.26 146 103 97
-245.499 311.751 1052.37 254 252 240
-379.158 -382.933 1284.12 74 74 63
-379.158 -382.933 1284.12 74 74 63
-261.882 -332.463 1254.16 76 39 27
467.04 -237.513 1046.58 74 39 36
477.842 -140.78 972.069 94 82 77
404.041 -126.063 1012.84 104 103 90
639.531 -93.485 1045.81 247 254 241
487.135 -61.5136 1038.21 176 171 146
380.094 -54.2529 1065.41 77 54 52
529.892 -46.8371 1060.59 197 120 103
529.892 -46.8371 1060.59 197 120 103
632.018 -40.6973 1102.75 254 255 249
-243.133 -33.6721 972.311 25 12 20
458.16 -19.2464 1062.39 119 66 50
-192.353 -6.387 969.481 82 39 30
-335.085 10.606 953.598 201 180 150
611.718 308.287 1227.18 49 76 123
619.872 391.328 1388.66 105 138 147
-275.687 384.293 1106.62 69 55 46
593.77 -81.6365 1042.14 250 251 235
666.333 -54.0543 1072.37 109 141 116
571.602 -50.6367 1098.11 252 251 254
665.577 9.70895 1066.85 98 110 94
-240.429 16.4673 956.395 247 192 170
521.716 25.7189 1102.93 81 64 52
-380.219 23.6942 943.974 194 173 144
-380.219 23.6942 943.974 194 173 144
557.921 61.1189 1093.03 179 183 175
-215.523 178.89 1003.99 251 251 238
654.965 268.073 1249.22 152 177 178
-312.125 226.351 1037.54 152 70 60
-305.241 279.952 1062.64 247 243 250
-305.241 279.952 1062.64 247 243 250
-247.498 378.985 1123.69 70 69 75
585.888 -65.0715 1066.23 146 138 108
585.888 -65.0715 1066.23 146 138 108
-313.916 47.3359 985.773 247 237 227
552.331 105.047 1114.31 212 219 192
-214.063 98.4466 996.017 103 50 47
656.796 143.717 1180.62 109 105 89
-203.452 128.597 1008.53 108 61 48
-203.452 128.597 1008.53 108 61 48
-264.816 202.429 1038.49 230 223 206
-265.37 305.375 1048.78 245 244 241
380.14 -89.8437 1089.92 64 51 49
470.058 -71.403 1049.14 107 85 79
-173.414 -66.8631 1008.9 53 83 102
-188.096 166.173 1018.4 132 102 87
537.896 251.172 1342.05 125 155 150
641.602 -87.7704 1045.36 207 222 203
-116.654 -17.9752 1101.96 171 155 135
-285.76 91.6472 992.242 204 118 98
-72.6813 193.217 1103.23 249 230 208
-201.763 324.54 1098.01 152 176 127
-252.823 -412.758 1597.77 86 63 42
543.359 9.90443 1101.83 132 114 111
587.777 -198.586 955.799 111 153 114
553.139 -184.578 995.624 63 60 62
-706.441 -143.356 1044.75 125 142 135
-809.793 -209.28 1322.69 19 18 17
584.379 35.0294 1067.47 253 254 251
584.379 35.0294 1067.47 253 254 251
610.917 239.905 1259.81 189 219 215
-135.392 268.484 1104.45 253 253 251
524.341 162.691 1397.88 68 57 47
