-531.103 -81.7429 843.45 149 159 154
361.303 -157.077 1778.82 151 144 136
199.34 -112.446 1733.49 186 190 172
388.478 -4.30224 1867.71 196 166 135
-131.471 34.7557 1207.95 97 80 71
-295.161 44.2053 1191.78 193 188 166
-25.7747 43.8228 1159.72 255 253 229
242.244 85.5958 1781.71 161 137 117
-62.9175 55.5012 973.63 252 243 219
205.253 166.578 1808.88 144 147 123
-211.167 107.784 1149.36 47 1 0
406.737 211.519 1892.48 171 155 133
398.058 250.165 1914.92 251 250 233
34.8578 171.432 1279.79 255 251 229
-195.968 278.609 1238.16 68 26 17
16.4006 376.531 1268.73 246 245 230
-31.215 419.013 1142.94 255 246 220
-31.215 419.013 1142.94 255 246 220
-251.744 493.771 1330.48 70 42 17
-174.306 490.849 1248.83 153 136 124
21.1423 609.664 1263.41 164 187 178
-9.2926 -177.705 1045.61 151 144 132
-233.125 -59.5886 360.861 15 13 10
-254.628 -60.8662 416.512 34 38 33
-274.331 -50.4337 468.202 40 42 40
-271.474 -47.4518 456.105 139 148 141
-271.474 -47.4518 456.105 139 148 141
-425.244 -66.0509 710.675 103 118 111
-365.49 -51.1498 480.649 118 119 108
314.297 -106.647 1696.99 124 105 91
316.685 -43.8027 1774.62 39 15 6
321.588 -3.42244 1737.25 240 220 202
40.669 31.1413 1263.38 153 66 38
335.871 78.4811 1765.82 254 249 241
343.88 87.3019 1745.91 128 115 106
-52.3124 107.135 1145.75 255 252 254
-85.2735 122.037 1078.8 75 21 10
394.09 236.341 1924.42 148 127 107
-115.461 138.407 1130.85 183 160 155
39.5123 219.648 1300.11 146 127 111
103.19 291.893 1451.19 255 252 239
-61.5169 233.885 1156.65 82 59 46
-61.5169 233.885 1156.65 82 59 46
-123.373 364.11 1243.77 171 146 132
-19.0116 352.68 1153.68 191 142 145
68.1189 448.327 1340.16 255 255 236
55.2896 440.468 1310.45 185 182 157
-117.908 408.008 1193.18 130 120 83
-154.615 -25.8706 198.909 157 158 143
182.203 -17.4936 1705.93 129 114 90
-82.3039 -8.86562 1300.5 184 172 175
-82.3039 -8.86562 1300.5 184 172 175
-310.703 57.6624 1254.97 94 69 48
-37.7816 61.6395 1072.13 200 142 128
-167.212 81.7451 1129.13 69 20 13
287.242 158.375 1992.31 135 113 80
276.73 313.004 1908.81 104 139 134
276.73 313.004 1908.81 104 139 134
-55.0137 193.758 1088.92 250 254 249
-83.0458 216.998 1143.73 212 178 165
-33.3793 308.086 1180.83 164 130 104
95.7837 382.431 1413.34 212 161 143
-59.337 333.353 1194.13 79 46 39
3.67197 360.409 1235.5 115 96 83
-31.7487 406.766 1247.26 255 253 254
-67.5838 380.348 1141.6 150 101 78
-34.4169 391.854 1131.2 254 251 246
-88.9302 446.027 1238.39 41 26 24
-0.439692 480.297 1254.49 101 88 73
-0.439692 480.297 1254.49 101 88 73
9.21481 484.334 1238.62 254 250 244
-18.9478 506.084 1214.58 254 254 243
-167.115 81.2434 1132.92 62 22 13
-19.4503 92.923 1179.98 255 249 255
14.249 304.907 1234.67 249 254 250
-32.7523 362.014 1180.56 246 254 252
60.4538 512.882 1365.63 88 86 81
-63.6368 63.4165 1083.68 228 211 188
-190.808 88.2027 1183.47 184 157 146
-57.2913 132.216 1106.65 247 250 252
94.858 163.067 1311.9 69 56 38
320.611 244.974 1758.06 49 36 27
12.8075 182.893 1262.88 244 226 201
330.932 290.101 1895.61 244 255 253
59.9963 235.459 1340.66 250 248 248
382.043 364.675 2013.83 245 255 251
-27.6817 242.767 1177.54 239 203 177
-132.138 316.732 1191.7 60 38 26
11.2384 323.083 1213.11 252 255 255
-50.1101 396.712 1183.31 64 29 18
2.1218 433.356 1249.34 93 88 85
-119.682 -67.5143 195.302 18 19 20
429.515 11.7354 1968.14 250 250 242
429.515 11.7354 1968.14 250 250 242
-155.847 103.456 1108.39 46 31 20
-22.7648 453.374 1199.32 251 252 250
379.601 -154.478 1816.41 121 115 105
-110.623 -10.2754 1338.59 50 98 105
-110.623 -10.2754 1338.59 50 98 105
-100.829 150.302 1121.73 175 127 100
247.812 192.029 1407.08 65 51 47
-158.084 291.387 1147.33 147 95 73
-22.8154 407.04 1205.37 219 214 214
-267.874 -63.4911 481.116 108 122 110
-177.692 36.2769 1159.96 171 144 115
253.615 46.0999 1694.89 74 51 45
-110.53 40.45 1134.81 174 136 116
413.694 130.998 1944.08 218 216 189
113.718 -88.4416 1915.8 63 49 32
-144.53 391.251 1241.48 169 106 78
-372.506 -80.2368 588.59 121 133 126
263.391 -83.6132 1687.21 71 53 51
263.391 -83.6132 1687.21 71 53 51
-105.442 99.771 1079.85 60 34 27
-264.548 139.257 1228.1 75 50 29
311.386 311.009 1755.54 136 166 170
-222.577 391.097 1259.11 80 62 53
368.826 32.144 1715.62 255 253 251
-304.394 -12.9785 1510.43 143 133 115
177.672 125.165 1353.24 73 44 26
177.672 125.165 1353.24 73 44 26
