411.583 -200.503 1766.9 188 211 215
296.793 -174.192 1680.95 120 98 100
394.417 -108.536 1717.8 172 164 144
318.825 -87.6758 1597.12 148 143 129
419.578 -53.1473 1702.48 238 232 206
265.133 92.449 1722.87 50 27 15
265.133 92.449 1722.87 50 27 15
21.0385 159.92 1246.6 253 240 214
-86.0543 204.05 1112.26 172 172 177
-59.5941 231.571 1144.62 253 229 196
-255.3 277.142 1188.69 105 65 57
-255.3 277.142 1188.69 105 65 57
-196.333 276.138 1168.25 49 15 3
-257.608 277.717 1162.88 55 30 17
18.6216 355.355 1209.18 253 251 234
67.0455 442.481 1468.9 255 254 235
-41.9943 442.883 1178.9 244 231 209
-41.9943 442.883 1178.9 244 231 209
65.4649 600.326 1337.5 39 39 32
-273.897 -79.0586 414.021 17 10 2
1465.18 477.692 -2597.25 11 7 6
7247.51 2291.3 -12647.1 105 105 100
-83.0205 -19.3469 108.356 16 11 8
426.875 -208.829 1745.67 114 122 121
426.875 -208.829 1745.67 114 122 121
291.276 -187.031 1706.4 212 212 211
358.192 -148.21 1701.48 74 66 52
203.492 -26.5714 1648.75 114 112 94
-142.702 -8.52841 1243.25 47 70 82
393.91 28.9047 1690.13 158 135 129
-69.8337 34.6348 1217.7 91 58 40
24.0819 39.6108 1245.62 97 28 12
-32.926 92.5948 1162.53 228 141 120
434.557 191.842 1782.74 173 152 122
437.057 228.57 1886.82 143 124 106
-109.095 136.763 1076.71 77 23 9
-138.912 153.521 1123.06 170 143 135
-138.912 153.521 1123.06 170 143 135
22.1645 178.469 1257.55 254 242 222
-38.3948 166.561 1119.18 182 130 128
34.2961 215.296 1286.5 251 247 234
277.869 326.75 1834.02 39 68 67
-68.9461 220.285 1131.32 161 121 119
-47.169 288.486 925.311 255 250 254
-14.6593 392.427 1212.51 248 219 201
197.979 -88.4858 411.837 90 95 90
377.18 -192.317 1714.1 190 217 217
-200.232 -39.3763 382.845 137 146 140
-200.232 -39.3763 382.845 137 146 140
-265.618 -41.1225 471.107 136 145 140
194.009 -126.378 1688.88 88 94 67
308.883 -46.9337 1585.5 49 24 11
-90.751 3.27325 1297.33 160 154 151
-90.751 3.27325 1297.33 160 154 151
-36.3925 5.38051 1277.49 136 129 128
-69.8645 67.9539 1098.36 237 219 198
-69.8645 67.9539 1098.36 237 219 198
-57.3685 147.127 1108.65 167 129 118
410.888 268.003 1952.75 44 28 14
17.8797 189.457 1248.51 166 113 94
17.8797 189.457 1248.51 166 113 94
307.888 290.102 1789.02 111 138 138
11.6317 215.525 1243.4 251 250 236
27.6929 226.045 1268.1 154 121 103
-78.6729 212.907 1119.52 254 253 252
31.7217 242.81 1261.84 146 116 111
-104.672 227.955 1129.6 190 163 144
394.298 388.031 1902 248 255 252
-81.6606 232.909 1087.68 84 57 49
397.823 459.992 1921.17 154 175 192
-127.142 306.849 1148.78 108 99 78
3.59149 484.454 1212.27 254 250 240
-25.9229 509.719 1199.67 246 239 228
60.5417 36.2582 -184.02 88 84 76
60.5417 36.2582 -184.02 88 84 76
-265.175 -61.631 448.959 156 153 137
-245.624 -37.7894 430.847 136 145 140
247.338 -136.125 1751.77 29 27 22
345.032 -59.0581 1670.46 255 249 245
-223.038 21.0276 1337.94 88 63 57
-223.038 21.0276 1337.94 88 63 57
-30.4755 109.044 1326.32 243 153 127
390.825 255.038 1866.24 55 38 22
95.1652 262.378 1376.77 250 253 245
-307.084 348.662 1436.67 43 20 4
-50.0964 312.71 1151.88 185 92 66
-32.6525 349.243 1190.51 219 165 149
-44.7582 366.331 1092.52 253 254 254
-45.7192 411.411 1155.88 245 248 243
-6.33208 476.087 1221.77 108 91 85
-6.33208 476.087 1221.77 108 91 85
243.32 83.534 1766.25 114 120 93
8.99389 159.049 1217.44 170 115 100
50.8692 239.312 1304.96 253 250 248
-46.1094 250.808 1151.75 239 203 175
-54.0917 337.032 1155.18 255 251 253
-47.4927 374.071 1178.73 249 252 255
-61.8967 399.673 1160.65 104 65 65
-140.586 -21.4923 243.071 67 73 72
-32.7789 27.5242 1200.51 89 68 64
-13.4199 134.032 1171.42 248 255 244
-82.6313 145.282 1086.22 248 249 251
263.776 319.406 1845.43 76 91 101
263.776 319.406 1845.43 76 91 101
-124.929 217.592 1102.92 77 58 36
1.87836 331.941 1211.07 253 254 255
78.9461 394.69 1397.05 252 255 253
-158.125 374.899 1173.56 149 93 66
397.568 -161.206 1726.02 96 94 81
433.523 -1.06936 1780.89 247 245 238
-300.169 85.8273 1194.57 98 77 55
-13.6991 123.256 1101.84 249 255 253
94.8681 197.166 1570.28 224 219 200
-75.2965 195.034 1109.35 253 250 248
-185.96 250.433 1189.15 159 97 62
-175.384 322.79 1214.75 146 97 83
-175.384 322.79 1214.75 146 97 83
-121.479 3.44357 1322.76 39 78 92
-73.0182 468.709 1218.87 58 48 40
-264.389 -82.8296 473.799 29 23 18
-287.789 163.532 1285.3 77 52 39
284.833 -88.741 1649.13 66 54 48
338.557 187.315 1775.32 58 46 40
-127.671 114.926 1063.33 61 35 24
398.524 26.4717 1662.38 255 252 245
-318.554 8.82938 1532.87 142 132 115
