-421.072 -175.46 864.977 113 113 104
152.679 -107.267 1006.54 1 7 11
-50.3876 -29.5367 931.243 97 70 78
-485.364 10.435 1363.94 118 94 84
89.5064 3.94591 893.506 155 158 146
-522.804 17.4519 1142.95 19 9 5
-511.882 25.5691 1149.9 101 99 85
-459.415 32.8513 1399.33 23 13 12
-519.393 60.7539 1185.28 14 17 7
-116.196 52.7285 955.66 111 106 83
77.9887 58.2866 866.606 152 128 108
30.1029 59.4416 853.723 255 253 253
-651.018 95.0163 1256.24 254 246 231
-497.852 102.577 1183.47 25 4 1
-512.336 121.941 1238.2 17 9 0
-402.205 158.13 1435.59 203 164 145
-70.0598 115.036 960.224 140 133 120
-458.138 185.766 1381.69 30 12 10
-454.915 193.903 1394.06 238 213 197
-480.37 188.797 1243.49 17 11 6
-480.37 188.797 1243.49 17 11 6
-453.67 193.579 1187.44 14 6 4
-436.267 230.843 1403.76 171 146 135
254.289 274.627 1170.54 47 33 23
-110.76 296.134 1126.03 89 91 72
91.836 267.384 980.475 247 254 248
118.392 278.856 963.31 88 84 73
62.2084 307.525 985.105 255 255 248
-362.902 510.687 1581.23 207 209 195
22.8078 340.883 1039.74 217 207 186
160.733 436.888 1120.24 141 173 169
160.733 436.888 1120.24 141 173 169
-27.2654 34.1644 -134.435 34 20 15
105.195 -121.503 1045.87 163 212 199
31.2063 -104.593 1048.61 46 54 49
-510.69 -91.7021 1389.16 111 88 72
-497.386 -62.8297 1341.26 166 140 119
-33.2019 -47.5089 919.121 128 76 73
-33.2019 -47.5089 919.121 128 76 73
-501.185 -49.529 1339.23 109 94 70
-501.185 -49.529 1339.23 109 94 70
35.0975 2.40476 835.422 248 254 235
-618.404 26.1314 1319.3 129 83 43
-659.392 49.7594 1179.34 169 139 133
-70.9751 54.0699 911.772 136 118 102
-727.22 120.492 1663.34 117 85 67
-175.804 77.9793 1014.48 144 125 124
-133.677 78.7716 915.899 251 250 247
-506.924 118.812 1245.66 119 115 100
-145.105 93.9731 1043.58 254 252 254
-26.7571 83.7347 924.019 130 113 97
-417.7 152.472 1510.09 25 7 4
-18.3328 106.398 913.445 127 111 89
8.85238 123.991 906.052 178 167 135
-70.4701 138.275 975.351 234 229 199
244.226 180.898 1150.12 68 40 28
-91.3171 180.783 1044.86 242 234 235
-91.3171 180.783 1044.86 242 234 235
-449.136 225.907 1234.77 226 233 226
-387.058 278.43 1441.76 173 166 152
-598.435 275.213 1423.65 254 251 246
-728.685 319.479 1517.41 253 252 246
-513.854 307.919 1400.36 145 105 83
-513.854 307.919 1400.36 145 105 83
75.7742 199.451 920.864 250 255 240
-73.0918 332.931 1123.21 112 103 92
-72.7071 349.682 1131.87 179 170 157
205.25 498.487 1195.18 190 218 240
-465.049 -211.935 997.801 97 95 85
98.5602 -131.14 1078.46 54 85 74
98.5602 -131.14 1078.46 54 85 74
-459.494 -111.17 1325.83 106 106 78
-71.876 -70.3002 1108.56 38 38 41
-196.571 2.43881 974.436 37 37 32
-527.548 25.1027 1280.57 38 33 27
-963.73 46.7496 1365.44 239 246 233
32.0152 73.2297 861.484 131 145 137
26.3536 77.4046 884.52 134 144 134
26.3536 77.4046 884.52 134 144 134
32.1121 94.7455 889.887 138 147 126
32.1121 94.7455 889.887 138 147 126
230.032 146.816 1122.8 37 45 41
230.032 146.816 1122.8 37 45 41
44.3574 115.185 864.82 252 254 250
-646.799 215.872 1463.02 209 169 144
-99.1957 154.322 1001.31 201 134 112
149.026 169.398 993.189 157 155 149
-58.9737 194.047 996.703 247 251 237
-58.9737 194.047 996.703 247 251 237
-44.7071 257.941 1050.92 193 189 153
-104.841 310.874 1138.28 117 113 95
108.564 268.618 966.234 123 119 106
-12.105 319.857 1071.98 161 145 118
45.7556 409.045 1174.13 254 254 255
108.893 475.859 1145.5 249 254 250
127.533 534.786 1191.59 248 254 251
-36.2316 -123.753 1128.03 63 67 60
219.426 4.24839 1113.07 56 36 28
-549.141 20.7672 1287.63 168 166 153
-449.963 55.9222 1589.51 29 24 22
-160.73 72.6408 984.444 255 253 252
-535.651 132.676 1378.47 42 27 23
229.691 145.914 1120.42 51 56 56
15.4157 135.577 926.457 255 255 244
-120.796 180.526 1039.96 146 128 130
83.4241 161.527 926.051 250 254 253
-68.6333 209.515 1006.81 138 106 85
-2.81528 308.538 1068.47 251 251 245
-44.4574 352.364 1106.56 126 112 95
13.7814 -45.389 931.945 92 88 94
-760.816 69.5341 1336.03 253 255 250
-171.522 58.4745 979.633 105 95 87
8.0907 150.169 928.507 204 198 159
-547.365 229.864 1257.47 247 249 255
-133.754 202.117 1082.54 252 253 255
-455.516 456.48 1486.66 97 100 97
-0.542574 334.517 1030.89 153 135 110
-346.339 -177.807 1022.81 78 63 52
-34.694 -19.5846 900 215 241 237
-459.886 40.4666 1414.36 49 34 28
81.9696 22.3471 889.408 157 161 149
81.9696 22.3471 889.408 157 161 149
-481.872 183.771 1165.53 243 245 233
119.161 169.815 947.804 165 132 107
-2.29135 192.373 954.092 255 253 252
-120.268 230.983 1114.28 139 117 110
-187.479 -158.111 713.96 75 70 57
167.728 -117.481 1007.83 66 61 54
21.4717 -68.0554 960.394 213 180 165
-529.157 -86.3875 1381.97 52 39 31
-531.16 -63.745 1313.61 48 49 42
-509.37 -26.9351 1305.28 158 155 138
-732.311 27.2333 1258.46 211 209 204
208.233 26.4824 1070.79 73 48 36
-59.4952 53.493 901.379 202 197 185
-649.088 208.563 1346.94 236 234 236
-482.992 23.6023 1379.24 185 159 147
-482.992 23.6023 1379.24 185 159 147
-450.418 192.505 1441.13 190 151 138
-450.418 192.505 1441.13 190 151 138
68.1465 146.781 917.827 245 254 242
-461.957 253.564 1427.09 74 56 47
240.521 484.551 1276.52 141 168 168
161.287 514.936 1177.52 214 242 241
-53.1301 -65.3217 202.412 163 167 164
124.319 -117.276 1060.44 114 178 177
-485.057 -104.575 1406.11 40 41 24
125.319 12.6143 949.493 54 48 37
48.5944 94.5854 887.021 152 180 142
-398.974 223.598 1551.6 53 47 45
-398.974 223.598 1551.6 53 47 45
-47.5655 251.27 1035.8 210 206 163
73.6947 422.263 1121.31 247 255 251
-583.002 -7.56259 1287.44 53 45 28
23.633 26.9515 818.364 148 184 131
-70.1239 342.948 1153.02 128 118 107
-70.1239 342.948 1153.02 128 118 107
-272.553 -188.063 854.277 148 156 150
-272.553 -188.063 854.277 148 156 150
-128.166 -55.7674 265.704 119 110 88
-645.363 32.5414 1230.53 251 244 229
-570.32 191.758 1270.57 223 206 183
-420.109 372.017 1476.63 59 58 55
