4.49033 -133.019 414.993 160 166 163
4.49033 -133.019 414.993 160 166 163
-1242.24 -586.878 2217.57 142 162 154
-582.165 -264.295 1284.61 58 71 64
-5.40516 28.8106 -152.708 182 166 141
633.947 -226.299 1326.86 100 126 106
-192.789 -84.2085 531.483 173 166 141
414.916 -165.567 1310.03 12 12 0
426.813 -122.525 1242.36 164 161 166
-267.366 -83.46 1143.2 87 74 58
467.746 -66.9017 1276.23 241 225 195
467.746 -66.9017 1276.23 241 225 195
413.338 -36.2061 1290.19 193 169 164
-162.051 -25.0506 1029.59 117 81 64
549.728 -0.762228 1333.31 129 102 91
-222.825 8.95411 1097.31 142 62 38
-173.975 15.4158 1008.59 253 208 183
-107.648 22.4158 1058.57 255 248 236
479.241 51.3631 1335.14 122 109 90
634.602 69.2883 1470.8 255 255 234
-148.851 55.7995 1086.96 255 250 241
-12.5931 118.23 1172.6 255 249 219
-267.871 150.809 1009.04 185 159 136
-267.871 150.809 1009.04 185 159 136
-131.029 166.337 1086.96 255 249 225
553.205 288.832 1549.72 189 221 214
-243.348 209.832 1037.52 146 116 75
-243.348 209.832 1037.52 146 116 75
-77.4136 290.884 1190.07 248 244 230
-109.718 292.691 1173 108 100 85
-129.445 300.453 1157.07 102 93 78
-129.445 300.453 1157.07 102 93 78
-216.831 349.173 1135.74 244 229 212
-230.911 338.793 1094.77 45 39 31
-196.091 376.776 1183.15 27 21 15
-196.091 376.776 1183.15 27 21 15
-162.172 381.536 1127.82 42 19 2
98.2462 122.785 -441.348 141 144 139
-235.442 -206.239 752.612 152 147 135
-901.762 -355.936 1623.44 46 49 40
-241.605 -139.039 729.534 68 78 75
614.051 -235.565 1248.51 235 242 218
-357.775 -196.11 1064.97 54 56 52
398.146 -202.802 1256.46 173 177 168
454.833 -91.1951 1222.2 171 150 128
450.895 -88.1003 1292.84 166 163 144
-139.28 -67.4549 1068.92 124 127 133
536.271 -70.9372 1297.97 254 247 245
447.818 -60.1512 1251.16 133 75 58
538.12 -31.2465 1364.55 251 238 228
-103.415 -9.58702 1048.46 254 214 188
-103.415 -9.58702 1048.46 254 214 188
424.147 5.13161 1338.14 119 111 103
589.969 26.8523 1362.45 254 254 247
-160.131 29.4535 1031.87 84 47 34
-160.131 29.4535 1031.87 84 47 34
-136.112 44.7939 1053.79 199 146 129
-67.2273 48.9765 1115.21 182 110 87
-236.186 48.5048 1028.47 255 250 238
479.085 72.3577 1345.5 98 95 74
490.056 78.9057 1349.11 201 194 170
-22.0455 66.338 1100.51 249 233 211
-49.4742 71.404 1131.58 255 248 223
509.048 96.5872 1401.46 122 122 92
623.839 139 1461.51 250 251 246
485.988 142.705 1348.99 145 138 121
-263.603 146.303 1028.8 75 45 33
-272.252 154.627 1026.6 200 168 148
-101.104 163.189 1075.61 100 75 54
633.753 242.064 1504.62 180 192 189
-112.782 191.988 1178.27 255 250 233
-208.252 234.648 1123.42 73 36 26
-113.857 278.531 1143.65 252 254 235
-230.375 357.518 1115.63 253 249 236
-230.375 357.518 1115.63 253 249 236
-191.958 362.002 1131.17 39 33 26
-191.958 362.002 1131.17 39 33 26
-193.841 407.321 1121.9 254 251 236
-325.798 -317.622 917.42 145 146 138
-881.484 -422.938 1634.65 54 70 61
-138.544 -152.537 609.581 157 158 151
-138.544 -152.537 609.581 157 158 151
-344.807 -189.779 992.203 124 138 131
-736.561 -239.374 1617.57 112 100 79
529.234 -178.337 1300.09 212 197 191
429.919 -119.328 1219.52 255 251 252
417.036 -79.5642 1266.9 254 252 245
423.892 -68.2996 1250.86 123 102 90
479.778 -56.0342 1292.95 161 108 94
486.191 -47.9015 1240.39 255 245 240
433.373 -28.332 1300.53 236 232 232
690.379 -3.40455 1401.99 65 68 60
-279.524 7.09737 1095.21 196 182 148
418.079 16.9703 1290.47 32 17 12
-186.075 31.4041 1044.79 188 104 80
-273.468 51.4593 982.158 221 240 228
-233.193 65.0071 1015.8 248 253 247
-18.284 87.808 1101.25 255 251 219
-220.384 83.5967 1043.26 180 89 68
-231.33 86.4547 1027.04 255 242 232
463.713 162.846 1386.09 41 30 26
468.374 215.247 1560.05 60 70 70
523.911 221.522 1506.62 41 80 89
-261.132 192.987 1078.92 122 92 49
-223.588 262.141 1106.58 144 112 105
-234.528 269.126 1074.96 122 94 105
-243.299 322.792 1145.42 252 251 248
-236.044 335.503 1118.62 252 250 249
-219.486 354.545 1119.03 110 80 60
-350.485 -343.397 995.556 153 156 148
-234.247 -181.476 685.089 145 147 140
349.21 -223.113 1310.89 14 14 9
454.7 -44.7303 1300.07 131 116 99
459.855 -43.1241 1267.7 254 250 249
-209.621 -28.3149 1041.76 86 67 52
-112.437 -21.2864 1051.65 89 42 18
-127.323 -11.4555 1027.16 249 234 225
520.265 -14.4094 1305.71 100 69 60
439.625 0.63581 1299.68 248 248 246
532.988 17.102 1314.03 255 252 240
571.099 68.5447 1380.98 253 254 239
672.075 78.9458 1461.61 237 237 218
-177.468 82.0504 990.436 190 109 87
-304.815 136.788 1066.47 142 137 132
-51.8317 355.974 1195.69 155 141 101
-110.027 405.593 1194.72 251 250 245
-215.701 404.6 1143.06 78 52 41
39.7917 -234.539 735.096 76 72 61
39.7917 -234.539 735.096 76 72 61
-73.8007 -211.869 740.952 119 120 109
-86.1649 -212.953 761.404 38 24 13
-260.627 -114.026 424.202 134 154 144
-219.331 -273.206 1036.67 82 84 76
-295.066 -91.0498 470.299 57 63 53
-295.066 -91.0498 470.299 57 63 53
393.699 -116.386 1240.91 35 19 11
610.898 -82.6239 1331.55 252 254 253
423.007 -24.8373 1569.95 82 81 68
-158.61 50.162 1068.47 248 242 239
520.187 187.625 1449.96 215 237 229
-167.573 192.931 1101.56 252 251 247
-237.723 231.652 1062.25 131 44 27
-206.657 239.642 1068.94 255 248 244
-206.657 239.642 1068.94 255 248 244
-145.749 355.998 1141.81 143 164 127
-180.836 388.944 1147.64 72 65 63
-288.234 -296.898 900.983 80 81 68
7.09606 -178.633 599.116 82 74 74
-263.896 -106.983 426.577 58 69 63
-263.896 -106.983 426.577 58 69 63
-350.182 -126.215 577.628 132 147 139
484.521 -202.9 1184.17 82 64 61
491.856 -111.582 1290.44 112 90 80
-203.378 36.7294 1035.79 213 137 107
-230.243 41.3891 1044.9 251 233 232
-288.559 83.0325 1016.55 244 226 219
-138.691 91.3526 1064.38 125 88 69
-138.691 91.3526 1064.38 125 88 69
-138.691 91.3526 1064.38 125 88 69
-50.1527 98.1977 1131.39 248 217 201
-185.154 125.47 1081.31 231 202 186
-131.031 124.607 1087.21 133 73 55
-131.031 124.607 1087.21 133 73 55
-131.031 124.607 1087.21 133 73 55
-216.648 136.054 1052.81 223 182 145
-81.7495 154.528 1059.72 244 241 225
-190.77 231.522 1094.46 173 102 97
-190.77 231.522 1094.46 173 102 97
-310.763 -284.941 939.296 140 147 141
340.841 -336.809 1093.49 49 44 32
422.736 -119.953 1244.99 255 255 252
686.303 67.3896 1422.69 141 157 119
-118.13 162.484 1097.53 135 107 86
4.86325 -106.834 303.94 118 120 116
-282.228 -227.832 981.597 97 79 62
383.969 -196.387 1075.65 63 58 54
619.757 -2.67627 1280.49 104 128 115
-101.542 97.3426 1091.59 234 186 148
-516.121 -224.822 920.304 75 78 72
-176.892 -107.563 568.288 149 128 104
-176.892 -107.563 568.288 149 128 104
548.607 -227.092 1239.1 80 81 77
-509.694 -180.881 1196.16 72 57 40
-70.4188 -53.8214 1085.71 237 191 148
-148.687 -8.05003 1080.44 223 175 156
423.785 44.1039 1332.5 48 42 34
450.281 174.335 1680.78 143 137 122
566.129 198.901 1442.55 218 239 238
461.043 283.267 1595.71 83 72 61
-180.065 -72.2777 1139.76 59 87 89
-147.515 27.6704 1071.41 200 162 150
-513.794 -150.035 1044.75 57 43 25
562.56 -34.247 1314.98 241 242 225
-99.6509 271.318 1238.87 212 216 201
