-24.6655 -50.8509 172.073 102 93 82
-83.9934 -514.098 1891.87 78 84 85
-196.12 -139.17 529.23 44 56 49
-120.259 -181.933 718.908 131 139 134
-471.545 -420.183 1955.25 49 54 46
517.437 -229.366 1086.07 185 211 198
-274.862 -212.891 1013.65 160 146 128
-145.89 -105.095 520.801 116 94 75
-327.94 -212.356 1190.14 186 178 159
-327.94 -212.356 1190.14 186 178 159
-164.59 -122.005 1213.95 47 50 46
421.188 -95.1344 1167.88 103 84 84
668.968 -90.3054 1220.13 175 186 173
530.899 -55.0388 1157.68 180 119 97
509.296 26.7013 1210.1 103 67 62
-64.198 89.6812 1092.69 218 212 185
495.134 109.814 1249.4 232 232 200
429.17 125.537 1413.42 91 90 75
554.964 125.805 1266.54 204 197 177
-320.329 105.757 1016.38 252 247 240
619.548 163.622 1304.76 250 253 250
-78.4345 187.258 1114 253 253 243
-140.024 181.653 1015.8 59 39 29
586.825 251.329 1376.96 171 198 198
504.163 288.503 1447.65 52 65 65
577.431 408.511 1642.8 84 102 99
-274.772 287.399 1082.8 249 252 254
-211.546 322.694 1102 249 241 225
8.52462 395.214 1281.5 47 35 23
-238.206 359.393 1111.21 255 254 240
-238.206 359.393 1111.21 255 254 240
-224.288 351.924 1072.59 7 6 2
-226.842 438.805 1126.15 20 17 15
663.198 -218.651 1210.49 132 157 118
398.784 -124.712 1120.96 144 141 124
690.175 -125.978 1271.53 204 234 207
-190.882 -96.9185 1157.44 95 119 111
-190.882 -96.9185 1157.44 95 119 111
519.66 -68.5591 1185.09 198 190 162
487.815 -31.9786 1237.58 114 61 43
538.357 -17.7468 1239.55 251 242 237
-122.515 20.8204 894.286 255 247 234
450.184 35.1439 1302.59 136 123 117
-46.9234 41.2898 1096.7 255 251 227
-102.261 43.1496 1019.11 63 25 9
-192.294 44.776 1007.54 253 229 201
-265.47 54.3724 981.664 149 90 95
-131.946 58.9371 1039.93 186 120 95
-246.911 56.4724 944.582 254 241 228
471.436 91.9352 1260.87 92 80 66
-224.932 72.2982 969.838 221 146 133
635.344 115.736 1272.19 242 243 226
-273.309 121.473 1007.74 253 253 254
462.094 208.35 1411.12 57 68 64
683.042 222.754 1453.51 139 161 157
-290.754 156.16 1018.29 65 43 45
546.773 247.606 1381.86 208 236 254
-130.716 205.121 1127.11 249 253 247
-210.413 259.815 1045.43 252 252 252
653.493 367.234 1395.76 248 252 252
-134.213 297.469 1127.75 252 253 228
-100.643 382.944 1239.91 140 165 116
-239.03 358.989 1081.92 30 13 5
-239.03 358.989 1081.92 30 13 5
-210.334 368.034 1094.08 27 24 22
-183.747 408.134 1088.57 32 31 25
-344.098 -280.395 1409.89 116 96 74
-114.804 -88.0664 442.795 174 159 134
425.996 -99.869 1147.43 249 252 249
460.555 -70.115 1197.71 76 66 64
544.189 -48.759 1261.75 135 113 84
-121.891 6.16688 1023.42 255 215 189
494.567 29.3077 1269.81 255 241 242
441.291 31.4131 1233.45 55 43 38
556.961 33.6315 1295.99 255 248 232
-183.048 44.8708 1026.62 71 30 25
-153.39 70.6788 1071.96 252 247 235
592.008 96.9033 1247.86 252 254 235
-304.949 74.822 978.325 88 42 32
-253.641 97.9785 999.09 255 246 239
733.13 222.4 1539.65 223 239 235
-122.246 184.125 1073.97 82 54 33
534.549 323.299 1447.07 38 62 81
567.836 390.747 1652.78 58 63 57
-196.404 269.467 1072.83 254 251 243
-78.4531 262.646 1028.02 167 151 140
-103.918 297.266 1137.35 127 119 105
-103.918 297.266 1137.35 127 119 105
-228.65 275.727 936.853 251 251 255
-264.162 333.974 1118.82 244 252 251
-196.333 405.612 1088.5 202 193 178
-275.078 -179.632 923.397 211 217 212
359.482 -195.129 1205.7 34 31 27
463.244 -136.575 1194.66 127 119 107
-129.986 -5.29944 1007.7 56 33 25
436.262 2.94336 1197.65 192 192 194
539.995 19.6844 1228.91 93 65 60
539.995 19.6844 1228.91 93 65 60
-254.29 53.6049 890.227 209 217 218
620.298 186.085 1364.83 231 242 239
583.706 193.144 1341.17 234 250 251
480.875 205.059 1407.35 121 139 135
630.871 311.874 1439.42 204 235 233
-7.37147 -211.781 679.424 126 129 119
-17.2242 -214.932 700.617 40 30 20
562.964 -66.8894 1135.37 165 157 136
562.964 -66.8894 1135.37 165 157 136
455.086 32.6811 1232.95 244 239 243
-321.136 69.0607 988.252 100 57 50
-275.651 113.038 1010.03 236 238 235
-165.469 193.319 1044.38 243 249 236
-260.467 241.631 1038.22 123 55 39
505.552 348.638 1484.51 61 66 60
-227.285 249.671 1039.61 244 243 235
-201.028 396.077 1114.55 33 25 26
579.347 -500.115 1571.88 91 85 73
48.0943 -198.159 636.487 68 74 69
48.0943 -198.159 636.487 68 74 69
-263.463 -166.303 606.845 138 146 140
486.954 -76.139 1157.53 109 89 70
-160.036 108.883 1054.63 101 56 47
-160.036 108.883 1054.63 101 56 47
-160.036 108.883 1054.63 101 56 47
-148.549 137.518 1039.39 90 56 44
-148.549 137.518 1039.39 90 56 44
-148.549 137.518 1039.39 90 56 44
-148.549 137.518 1039.39 90 56 44
-212.097 242.023 1059.34 182 124 110
-210.769 -295.596 879.845 141 145 142
369.445 -295.155 892.078 52 46 39
-130.667 -71.4774 257.577 138 146 140
431.032 -89.9666 1156.86 239 238 242
679.458 -98.7942 1243.16 245 252 243
662.499 -52.4256 1229.72 170 198 181
456.426 -31.1797 1189.52 120 80 66
-137.291 180.553 1075.01 116 89 83
-236.835 394.703 1130.94 223 206 193
-118.179 -62.4464 1014.52 47 84 97
561.963 3.66149 1238.97 136 116 109
709.46 104.989 1321.23 132 154 126
-218.775 93.6088 969.734 184 103 77
-292.873 132.266 1005.2 250 252 253
-158.847 348.2 1124.42 136 163 119
-190.921 375.178 1111.48 62 55 51
-381.893 -232.514 826.537 81 81 75
-381.893 -232.514 826.537 81 81 75
-99.7954 -89.549 409.237 155 132 107
-99.7954 -89.549 409.237 155 132 107
666.963 -225.107 1223.48 133 171 128
305.846 -180.177 1241.97 61 54 45
-88.8558 -35.0629 1053.42 206 169 130
393.905 81.1766 1439.07 66 55 45
-197.49 74.9821 1020.93 254 237 227
515.836 217.021 1688.81 134 127 115
1.96886 164.224 1215.1 149 136 121
-215.98 -141.281 511.813 136 148 141
-215.98 -141.281 511.813 136 148 141
571.795 357.618 1739.87 91 77 67
322.691 -106.212 1086.16 48 40 30
-104.061 285.944 1163.25 237 239 236
510.779 128.945 1543.86 84 69 56
