125.251 -56.9106 1335.79 237 219 199
55.0593 -7.29976 1127.93 252 229 226
-56.5356 103.913 1069.46 220 201 187
323.741 372.756 1881.32 16 40 47
-72.9961 61.4163 1084.11 218 203 186
54.3184 -19.2157 1175.77 223 204 205
362.465 204.723 1752.79 54 47 40
10.7809 287.556 1140.66 87 86 80
314.018 -23.2229 1665.75 210 191 170
93.0256 2.51793 1214.08 81 20 18
376.184 -111.91 1793.99 255 253 232
27.0767 411.382 1129.62 24 10 6
374.148 398.942 2094.36 203 235 250
56.4113 401.046 1185.79 255 254 251
49.0184 525.274 1332.8 172 174 172
-3.42917 69.991 1077.61 255 243 216
95.4455 -1.1607 1335.25 121 82 58
28.1359 391.72 1149.58 250 239 213
-11.938 181.479 1129.54 79 63 65
56.6077 435.746 1209.89 107 94 74
339.299 1.49738 1705.63 255 252 249
-127.358 238.131 1157.64 43 3 0
115.963 458.168 1327.78 29 28 26
2.65787 179.046 1104.66 101 61 56
-2.59093 87.3684 1012.88 189 95 81
306.683 -162.322 1581.94 35 28 17
107.749 -32.9026 1196.99 251 240 223
376.128 -192.259 1886.38 196 184 177
-8.37015 47.0363 1032.98 255 246 229
-14.3923 266.784 1154.37 211 193 192
-3.47297 82.1601 978.07 246 183 160
30.9828 388.417 1177.37 61 52 44
380.773 -9.89658 1814.45 152 135 126
56.4521 393.197 1207.34 238 233 228
-11.1473 40.0384 1095.31 121 105 88
-9.01652 304.393 1306.71 254 253 248
2.1298 196.334 1086.79 110 84 70
22.3456 365.511 1147.2 248 244 236
21.3128 365.523 1125.34 167 167 155
394.523 329.753 2131.37 88 110 114
334.345 -72.6011 1664.36 211 197 188
-115.63 52.9497 1098.69 189 155 144
42.5606 5.20434 1152.02 255 248 233
84.7323 -46.5675 1288.38 84 75 56
320.997 425.972 1891.65 127 136 132
52.9303 272.288 1199.26 250 225 220
36.9082 397.368 1179.2 108 88 66
-52.9862 355.813 1156.86 36 23 17
25.4196 152.893 1123.36 117 79 70
51.5831 377.259 1180.51 105 93 96
18.5902 396.588 1126.94 174 155 132
-23.8306 173.024 1018.04 241 217 198
-154.096 82.7701 1166.78 71 34 24
72.0408 339.082 1233.26 248 248 225
56.3087 356.876 1205.27 162 135 128
100.314 -48.3056 1158.88 188 163 145
-24.6848 134.547 1097.35 126 72 65
2.12443 193.283 1133.14 193 178 158
-20.1399 197.49 1150.24 191 169 149
-5.68747 58.9844 1097.34 249 161 142
-48.2062 262.277 1126.98 187 170 165
-3.48623 207.192 1132.94 219 182 164
348.214 5.80953 1707.78 127 111 105
38.5364 461.541 1207.31 67 41 33
-48.9981 107.218 1091.18 168 158 151
360.531 -86.5119 1773.75 140 127 123
23.3218 479.812 1235.37 185 165 144
303.461 46.2177 1925.36 162 129 111
58.1222 304.767 1170.04 138 130 128
82.7474 142.03 1249.67 142 115 88
-241.788 43.2074 1142.14 74 59 51
445.948 62.3132 2161.61 65 38 22
330.088 -8.15745 1608.44 63 38 25
-9.71889 210.432 1265.35 71 34 14
-127.543 267.354 1213.72 99 32 11
64.667 312.478 1321.05 154 151 153
32.7983 4.0721 1037.51 186 166 156
70.2529 322.291 1288.14 154 140 132
97.7986 164.793 1309.34 154 131 107
29.0293 289.32 1195.63 145 141 121
13.507 233.409 1137.96 253 244 236
93.2676 212.936 1278.6 149 138 128
131.209 13.6951 1303.54 91 81 49
34.0196 287.069 1127.7 255 251 253
304.828 -46.5974 1691.78 143 114 107
19.1957 185.089 1108.07 245 233 210
65.3495 390.092 1265.64 206 199 187
26.2778 373.111 1200.19 159 153 156
-14.4415 192.001 1151.14 215 186 172
-3.5689 145.226 1128.74 166 142 128
99.5579 200.364 1278.18 144 125 118
39.3837 293.584 1171.14 161 153 149
456.272 -259.738 1975.45 194 211 208
24.8374 222.493 1139.49 242 229 203
422.832 -85.2882 2045.41 187 175 171
101.974 182.728 1286.77 165 148 130
153.378 281.341 1300.9 76 72 69
56.7535 253.014 1170.81 107 85 83
70.2997 335.105 1288.74 136 128 117
259.851 233.821 1650.3 105 139 133
427.761 42.1241 1947.4 163 147 138
10.2882 452.751 1128.87 133 135 123
31.132 446.561 1152.64 120 95 77
77.5808 -27.1411 1209.12 152 125 97
134.599 20.2041 1304.88 39 28 4
389.715 -18.9378 1814.27 252 245 232
26.722 303.539 1121.85 165 163 162
287.084 -31.9439 1447.74 227 189 179
369.118 46.2512 1812.24 155 140 134
228.058 170.018 1724.01 149 155 128
370.657 -227.691 1769.62 218 234 231
406.578 -237.038 1773.1 192 211 211
312.203 45.83 1707.79 64 47 39
315.361 257.194 1755.95 147 175 177
333.357 257.589 1758.94 196 232 250
-57.7868 112.507 1117.93 111 79 69
32.484 452.031 1205.62 64 48 42
315.148 32.5073 1541.54 113 102 99
10.7974 296.072 1141.15 195 183 176
82.6464 129.66 1248.5 177 122 112
-96.9461 412.286 1202.62 162 129 110
90.8734 140.846 1222.92 189 152 118
363.511 288.786 1975.59 87 119 131
44.8692 663.184 1410.34 123 151 136
35.8012 106.732 1133.49 255 244 236
340.407 -25.8282 1701.38 224 191 166
51.5812 60.4306 1295.04 255 246 240
74.1063 583.297 1278.42 146 171 157
40.9512 277.791 1197.27 182 157 139
276.71 -204.864 1758.29 131 110 108
34.4668 144.864 1136.29 168 128 102
260.573 36.2947 1458.76 139 116 106
28.8469 135.887 1108.04 156 114 106
108.434 598.334 1383.74 95 94 86
-10.1656 -45.5031 1342.85 143 164 174
-44.6688 300.815 1180.73 128 114 102
367.345 255.62 1856.84 148 170 168
321.058 -31.9526 1603.52 160 109 85
444.183 336.471 2268.08 119 134 135
4.70247 118.203 1082.39 252 254 250
96.0297 220.673 1259.19 175 168 157
264.468 -27.7074 1789.83 51 35 19
-169.482 -14.2621 1212.91 81 61 54
138.92 109.209 1379.85 186 161 146
-3.57622 139.585 1128.34 202 118 103
389.481 -42.8908 1784.92 251 234 211
50.0655 305.286 1200.87 186 173 159
61.1099 429.849 1172.69 253 246 242
117.972 94.1688 1220.52 255 239 222
214.777 -154.174 1849.65 48 36 13
101.091 1.9697 1396.28 255 243 231
61.8407 108.291 1180.69 206 172 160
-76.8055 -47.5125 1399.81 130 152 152
-7.66862 140.587 1069.48 251 246 235
263.517 -58.4615 1784.01 59 34 23
26.1913 75.6441 1083.47 193 184 167
