56.3916 296.145 933.016 255 254 243
-151.607 89.1214 839.582 250 244 239
-370.512 208.369 1230.26 211 199 194
-393.911 94.3395 1248.14 40 30 26
-376.584 222.495 1323.11 45 20 10
108.687 -10.2524 921.664 4 3 0
-20.0691 9.09501 917.235 231 235 230
28.3839 247.428 910.793 217 209 200
-16.184 4.74489 949.328 46 49 47
-470.406 12.9748 1264.49 223 203 183
-55.2171 137.555 807.812 219 215 200
-452.176 473.013 1417.75 74 73 70
-349.526 104.633 1319.38 42 37 34
104.046 -10.2439 921.094 21 24 19
60.4202 244.269 915.796 227 204 194
-9.09306 -13.5739 1007.4 239 239 232
-105.725 5.38187 1053.61 230 244 240
-98.4577 12.0616 968.672 235 239 236
-127.33 111.619 793.569 255 252 233
33.2636 275.964 869.613 169 158 155
-401.674 219.465 1386.31 223 199 185
-352.361 97.9934 1317.66 173 155 145
-84.0917 117.055 777.753 253 254 245
-225.56 277.404 1106.11 243 238 239
34.0258 219.575 880.432 181 169 156
-344.461 93.1548 1390.73 75 63 57
-203.124 259.294 999.82 96 91 91
-155.714 101.521 839.316 250 227 213
12.7306 -10.3998 940.661 250 255 254
-428.803 239.253 1522.7 69 43 30
-486.561 81.6835 1265.95 187 185 173
-392.372 254.77 1321.09 175 163 157
-351.941 80.4037 1322.65 204 172 168
-160.756 91.94 865.946 247 236 229
-527.712 37.3252 1243.96 224 205 184
-259.691 215.719 1126.18 97 95 96
-430.743 -8.95925 1277.32 208 178 160
-24.9498 -2.48781 1069.2 255 253 244
-52.1406 63.3985 885.426 251 252 253
-118.175 5.62039 1095.36 252 255 251
-383.042 20.7565 1367.32 165 195 189
-50.9986 208.259 799.741 209 209 196
-394.646 95.3546 1372.82 67 52 48
-245.541 198.521 1050.25 195 193 194
-448.21 406.126 1404.49 232 232 223
-467.375 69.015 1208.58 190 181 170
-490.148 31.5474 1258.73 176 158 147
-495.202 22.1823 1255.62 167 152 138
-144.849 101.197 828.2 124 146 142
-248.064 255.968 1138.15 84 93 76
-87.7395 75.4944 861.511 15 34 31
-399.982 248.433 1330.87 213 179 158
-26.0634 197.37 841.563 180 175 171
-469.087 202.927 1234.19 253 248 235
156.359 125.449 1005.83 18 2 0
-447.188 322.376 1324.18 255 249 236
-202.725 106.654 918.706 221 212 207
-268.144 284.884 1259.45 82 78 59
-126.712 37.4956 918.627 240 233 227
-359.214 116.566 1325.61 176 170 161
-129.115 38.1896 964.326 138 144 146
-393.305 382.686 1420.42 193 201 196
-125.155 84.0595 872.921 80 93 87
-501.598 112.215 1208.35 225 210 185
-86.2299 126.053 823.685 108 106 96
123.902 328.862 1012.18 163 151 154
76.6943 35.2223 920.632 214 192 172
-407.842 269.099 1470.31 126 104 92
-365.853 68.5997 1379.87 230 165 166
-349.742 55.1362 1383.88 152 142 137
-117.035 23.3348 989.567 253 243 238
-142.699 52.7157 968.497 255 248 228
-404.191 254.463 1211.37 217 215 211
-126.525 33.1314 1067.94 134 102 91
-368.466 272.184 1342.73 158 128 121
-343.132 44.9234 1384.87 72 72 65
-69.8128 -5.25664 1104.97 108 54 43
-425.894 303.992 1329.55 209 208 203
-452.684 315.059 1320.93 143 129 118
-439.173 -8.93308 1274.13 176 154 136
110.132 319.44 994.554 160 146 146
-203.153 299.699 1068.84 249 250 251
-399.508 270.366 1215.63 147 149 147
-584.536 118.713 1407.67 125 100 77
-178.505 88.9572 923.302 157 153 149
-125.357 103.066 818.837 94 122 120
30.1673 -3.56069 978.017 192 225 213
-490.404 149.185 1218.13 255 241 222
-361.521 27.67 1376.06 15 17 16
-333.554 91.8527 1299.79 233 232 229
-589.88 601.498 1849.92 205 205 200
-135.799 310.654 982.575 253 246 246
22.1294 -5.77214 942.396 151 156 158
-566.09 -37.3535 1226.76 135 130 117
-136.339 52.5194 987.274 91 100 92
-17.7972 134.706 839.659 43 50 46
-462.416 172.244 1232.58 88 78 50
-121.022 130.504 807.29 227 234 225
-348.969 27.7557 1380.55 69 69 62
-261.463 100.854 960.168 179 166 160
-87.6531 180.219 829.656 251 254 249
-150.537 45.0524 983.724 255 250 241
-525.07 102.468 1252.71 237 220 197
-399.427 247.63 1390.72 226 206 188
-162.681 44.6802 1002.11 249 245 245
9.34928 257.194 864.36 158 141 127
42.6992 244.083 906.797 47 34 34
-440.594 233.192 1249.42 210 183 166
-179.265 305.879 1049.35 255 253 247
-467.333 162.687 1229.31 170 161 136
-50.9021 173.351 836.032 156 162 157
-122.832 103.784 832.569 211 239 235
67.1831 243.634 948.468 139 118 122
-114.483 334.706 989.035 160 162 155
-140.459 300.396 980.8 248 236 232
-198.823 98.5192 996.333 114 106 102
-95.4169 24.2317 976.881 242 193 177
-391.048 103.471 1304.64 200 187 185
102.322 313.198 1010.05 139 149 151
-110.273 317.871 953.292 243 237 230
-312.626 87.8987 1337.51 110 108 99
-115.853 83.44 844.898 224 235 230
-332.103 41.5946 1153.25 89 66 55
-145.454 85.5536 855.531 34 75 59
162.251 221.408 1030.19 127 126 112
-28.9862 -17.5931 1025.86 214 180 159
-421.765 231.542 1201.09 117 105 89
-97.7102 185.579 840.008 248 252 246
-346.718 -5.98575 1307.86 75 76 62
-460.822 33.2804 1158.89 166 153 132
-161.992 104.022 896.229 142 136 124
-140.531 310.299 981.46 251 246 244
-514.127 142.864 1268.53 220 192 172
-113.825 49.4846 890.052 78 80 87
-429.66 316.601 1268.48 196 176 158
133.924 195.694 954.687 179 170 156
-140.404 292.977 980.301 250 235 227
-318.463 77.7918 1333.96 108 102 90
-614.767 19.3626 1269.84 123 114 105
-27.2037 127.035 823.56 64 73 63
-81.611 194.994 831.489 252 255 245
-114.465 43.3912 973.951 133 110 90
-35.2723 130.058 810.813 44 51 44
-161.89 210.09 934.9 255 248 232
-353.165 54.7051 1257.47 174 152 136
-118.467 78.138 903.901 71 101 103
-42.6791 242.906 840.86 114 109 95
-339.356 58.9785 1317.72 82 31 20
-82.495 -10.263 1057.48 119 91 91
-45.5692 28.4007 884.361 246 228 224
90.4957 276.462 871.179 30 37 39
47.2794 220.108 882.554 203 190 179
-962.658 90.3987 1545.62 78 84 65
-77.5641 203.493 832.645 150 160 151
-42.3115 260.248 893.038 188 183 171
-8.63877 34.1255 920.885 63 132 128
-56.7465 -7.42236 1021.3 92 70 50
-532.808 21.2927 1128.03 221 213 203
101.531 208.423 902.734 36 35 29
-107.312 342.783 991.172 152 147 144
64.1294 230.851 930.049 191 172 170
-553.023 41.6146 1234.9 145 129 92
-525.456 47.1699 1183.55 253 245 210
-318.876 91.0887 1335.86 95 92 78
-43.2837 172.248 811.475 54 54 55
-153.814 112.919 854.899 70 60 52
-86.667 21.6854 971.712 208 179 169
143.69 168.695 997.159 158 136 127
146.199 205.661 957.144 150 151 145
-446.366 266.285 1252.83 154 135 118
-67.9782 32.177 897.739 252 243 237
-598.683 108.738 1290.05 159 152 149
-62.2011 166.858 759.844 72 68 60
-355.551 37.948 1379.55 114 117 111
-956.897 57.4181 1581.28 201 208 202
-117.833 125.348 875.271 238 243 223
-553.292 27.861 1231.97 158 146 127
-81.6218 199.148 831.682 251 253 252
0.808343 308.177 894.447 190 170 154
-38.5193 138.312 836.389 170 169 157
-31.4199 15.0619 935.088 106 116 106
-117.931 104.644 771.177 80 90 72
-381.848 81.9799 1375.8 82 64 59
-1101.3 107.497 1874.86 213 217 213
-40.5909 171.641 837.753 51 40 42
-365.336 349.689 1292.2 96 100 96
-17.9328 193.443 829.264 30 22 16
-16.2857 316.754 863.665 80 78 68
-406.462 255.199 1154.08 201 179 157
-41.9902 183.773 865.558 146 143 117
149.546 183.221 1009.2 65 64 59
-113.144 114.695 808.229 217 226 206
122.803 155.001 903.312 35 21 8
-1319.09 85.7459 2203.83 138 139 134
-84.8976 170.663 804.041 243 248 237
-175.123 195.39 930.875 255 251 233
-14.1348 321.272 864.326 154 155 140
-406.424 237.822 1132.54 163 143 121
-82.46 24.9881 960.456 145 138 126
-76.4896 41.5549 959.679 177 140 131
-74.4308 35.7267 850.86 246 231 212
25.4343 270.046 881.822 69 47 32
-1577.67 -201.714 3380.19 129 132 123
-559.79 144.289 1370.54 167 133 111
-695.253 154.89 1561.64 238 229 212
113.349 273.358 892.586 176 107 95
37.6829 291.146 962.113 62 40 33
-145.1 290.172 979.02 251 234 219
-162.849 300.272 1013.02 246 233 223
-578.13 99.3777 1357.4 185 156 118
29.8285 265.84 882.323 137 112 88
-654.687 -83.6877 1367.86 147 149 139
130.713 154.064 885.321 66 48 37
-461.919 98.4572 1222.65 53 50 43
-596.971 25.8047 1279.13 157 151 139
173.322 238.206 1089.27 106 120 122
-576.087 181.869 1454.49 161 127 104
-46.1216 31.7319 916.652 245 224 211
-483.471 222.172 1283.56 202 176 146
-451.564 104.914 1227.63 119 111 111
-47.2908 -2.32004 984.693 236 217 202
-495.2 280.797 1437.33 98 87 73
-72.102 56.8112 868.203 107 105 100
-32.2801 404.051 863.16 167 168 154
-49.669 -9.52243 1124.75 130 105 92
-40.8656 42.3046 856.714 98 144 133
-223.13 191.657 1014.16 249 246 239
