4.67654 360.275 1219.83 243 242 240
-34.6129 361.912 1240.9 238 247 245
18.8709 -34.4125 1168.44 255 249 222
-43.4177 42.3496 1068.5 39 36 38
-48.1384 143.874 1119.34 109 75 73
11.8253 383.852 1252.38 255 250 250
-28.4611 381.093 1243.43 255 246 227
450.54 -145.157 1682.83 255 249 247
51.6307 93.7287 1202.85 124 86 60
8.89619 349.828 1310.36 50 28 27
-16.3824 439.309 1221.57 253 250 241
30.3287 309.363 1251.59 252 254 239
-14.5868 337.185 1137.04 255 245 234
-58.7204 43.4106 1002.48 77 44 35
48.8631 84.9438 1183.92 246 231 207
11.733 349.203 1250.26 255 253 244
13.1133 -30.9657 1096.57 131 122 98
-54.9779 60.0355 1055.18 67 9 9
-72.2861 68.4595 1064.27 127 41 20
-72.2341 42.1301 1062.72 252 182 158
68.6967 -24.1054 1231.07 162 47 7
51.5586 178.697 1246.19 126 106 98
413.285 -59.5657 1615.13 243 230 212
-25.8472 333.638 1134.55 45 36 35
51.3664 147.603 1243.57 133 113 96
29.3117 22.4944 1203.62 115 54 68
414.525 -106.781 1605.4 214 202 198
0.424708 -24.5579 1180.3 155 131 124
18.8153 285.107 1274.43 140 119 114
353.778 5.33893 1398.38 179 177 173
365.895 178.829 2091.34 222 218 209
-74.7923 21.1144 1060.94 252 210 192
81.138 -23.2846 1364.56 255 244 222
76.8252 174.944 1310.1 140 145 133
57.435 122.938 1242.64 245 233 210
60.3899 135.78 1262.15 169 136 112
-41.6867 63.4393 1164.33 104 108 98
-28.535 259.581 1235.52 129 74 54
-52.8836 270.757 1230.83 156 155 145
438.531 -71.0394 1699.35 118 71 59
408.31 7.87364 1547.98 208 205 203
384.273 243.99 1859.99 25 47 49
59.1334 412.391 1263.86 156 164 164
473.635 -3.94308 1718.36 229 223 219
41.8925 122.639 1239.58 255 249 241
-18.7146 458.662 1297.59 255 234 215
9.48669 327.734 1184.08 250 230 225
-75.5782 148.665 1113.8 67 40 32
-35.8942 336.402 1183.65 217 197 197
423.452 -27.7892 1622.76 108 102 100
-32.9989 253.592 1179.42 251 253 249
449.584 240.855 1769.74 45 72 93
430.715 160.375 1640.58 28 21 13
-18.5319 357.886 1163.2 178 157 140
330.432 -91.503 1302.01 55 35 25
488.302 347.042 2003.45 211 238 252
428.806 -121.589 1566.05 253 251 249
766.635 -301.694 1130.39 68 72 67
63.6035 113.765 1243.02 148 109 83
2.16587 248.552 1241.41 242 215 201
-34.2189 186.154 1099.78 251 226 207
100.127 398.071 1314.59 130 129 128
-80.6824 13.8219 1104 188 169 145
7.46751 286.513 1213.9 99 71 69
-56.8906 137.297 1029 123 82 69
393.881 199.216 1578.99 72 97 106
448.528 222.875 1765.93 213 239 246
7.86132 407.011 1224.33 128 107 93
9.59828 319.895 1232.71 233 201 181
382.831 6.18896 1597.48 149 142 138
436.451 -37.6299 1706.97 246 243 235
25.014 35.0053 1175.39 133 117 101
-34.3944 128.67 1143.73 102 81 67
-87.3279 372.532 1076.97 153 157 146
-167.32 19.825 1132.66 159 132 122
474.309 -54.4989 1706.48 255 247 232
51.0894 104.286 1239.78 254 234 211
-22.6652 419.498 1186.99 92 72 52
-72.213 31.6206 1062.1 253 190 164
-22.4669 407.841 1217.81 167 146 136
-50.4043 211.632 1172.96 204 185 169
109.92 175.805 1316.57 133 111 107
432.962 -7.77674 1627.86 239 234 234
17.8204 209.042 1174.62 193 206 193
-59.234 89.8031 1068.19 248 235 230
-59.1779 171.421 1118.71 108 92 79
57.1098 76.6494 1238.46 136 93 71
-41.4739 268.87 1151.37 137 139 138
-60.2688 91.5738 1058.07 128 44 32
31.124 84.7067 1180.56 252 238 231
-66.401 89.9145 1085.41 251 249 233
499.854 -3.96079 1720.62 255 243 233
42.7169 108.583 1202.85 155 120 95
308.056 -209.347 1572.64 102 110 113
495.968 -54.5668 1708.23 247 236 222
-6.94999 92.9189 1173.72 255 246 229
404.599 -203.137 1584.16 184 184 179
70.865 414.034 1293.52 251 244 253
280.306 -262.906 1720.53 188 182 171
-2.08186 393.688 1188.78 245 243 239
46.5907 159.161 1170.83 235 216 207
-43.5136 443.231 1215.8 123 107 96
465.501 -114.536 1789.31 107 90 93
605.07 -235.274 910.974 71 74 72
-58.8333 187.525 1223.42 201 193 180
440.513 240.699 1768.59 125 154 172
-120.165 80.0019 1174.81 173 150 133
-1.42015 262.124 1159.25 154 147 144
458.163 -37.6866 1709.02 234 233 228
66.2812 152.13 1218.39 219 204 190
42.8533 -51.7728 1137.35 131 112 96
425.33 -101.036 1608.51 241 233 237
-28.7825 110.888 1121.21 109 100 90
30.7417 423.111 1258.6 207 215 220
445.208 390.246 1900.42 113 122 121
391.551 1.98791 1463.32 252 250 249
379.115 -83.0382 1606.64 144 119 106
57.3492 110.565 1241.54 250 237 213
-7.07693 308.655 1161.86 191 116 108
-82.7773 99.9536 1063.91 99 45 40
411.036 297.042 1875.63 102 122 119
-197.569 43.9148 1178.31 88 29 14
396.842 -59.4933 1613.42 247 191 176
29.0888 307.31 1195.6 202 199 170
-43.8816 46.631 1106.74 125 132 131
46.0678 153.847 1208.37 255 252 237
-68.0555 101.855 1056.65 103 27 8
62.105 -75.3663 1224.82 52 42 22
-30.0656 286.286 1182.05 179 162 155
390.8 248.168 1965.61 127 153 151
445.007 -74.2672 1587.77 242 220 208
475.539 -37.7296 1710.56 240 231 221
372.416 -240.489 1653.21 106 90 92
442.004 -2.00859 2062.93 155 131 114
52.0852 -66.1237 1280.52 220 197 184
-32.9706 330.64 1183.96 173 155 157
-14.9134 293.48 1224.22 249 230 199
-67.05 60.6119 1064.88 239 136 112
-79.0126 161.035 1163.23 180 142 129
-21.9312 249.133 1101.88 241 236 231
15.8326 381.906 1123.91 156 158 149
408.235 -75.3402 1611.34 206 156 148
-33.1263 403.667 1270.94 169 158 142
-14.1589 434.353 1277.99 97 77 67
513.91 -100.409 1698.43 255 255 230
-57.8941 97.9207 1181.48 58 34 25
87.8538 621.885 1533.48 134 157 144
487.585 -144.726 1701.98 230 203 187
-9.98112 29.0346 1168.13 255 246 235
-36.7746 212.221 1073.73 254 249 205
7.49656 -71.8958 1271.3 162 171 179
-19.553 324.885 1211.57 249 230 228
-70.0433 110.041 1112.58 192 142 135
340.977 291.056 1742.93 39 45 41
-28.8433 71.5452 1091.44 236 244 238
287.003 -187.619 1655.32 45 44 20
-64.7123 149.855 1165.65 206 202 200
330.37 -243.758 1647.96 211 182 174
422.481 -43.729 1619.36 100 78 75
-37.0759 225.494 1126.55 234 216 181
89.7086 142.515 1309.5 171 155 143
-49.7115 90.4268 1217.74 248 251 247
-57.5098 150.469 1106.78 221 191 170
38.7169 585.81 1385.6 98 127 109
67.1568 200.909 1310.56 179 154 139
66.9825 147.964 1246.63 161 131 110
-18.3472 286.904 1184.59 251 242 237
357.845 -82.3211 1452.83 205 171 168
-171.434 200.011 1216.68 70 11 1
112.65 51.6548 1343.09 255 245 222
-30.0974 224.216 1178.18 255 224 200
460.85 -120.711 1689.54 155 150 147
58.5395 298.181 1256.6 203 205 182
19.3412 81.6207 1178.05 212 164 154
383.643 -75.2048 1608.75 83 43 35
589.315 82.1692 1840.41 228 230 203
459.716 -33.1631 1590.52 221 194 187
488.418 -123.575 1792.03 226 216 221
-9.9532 41.9429 1092.48 255 253 249
523.398 73.3999 1740.74 253 253 230
426.147 -76.3627 1512.19 215 195 175
-4.52135 316.56 1214.09 252 221 194
-134.536 31.2293 1141.33 132 110 90
508.594 -3.9666 1721.32 207 182 173
379.701 249.261 1936.3 60 73 69
-73.4573 234.074 1169.29 194 171 163
416.401 298.942 1776.92 103 130 137
-16.2121 267.988 1023.5 255 221 188
-39.6392 153.036 1096.04 234 211 178
-18.9123 77.5015 1139.08 254 230 220
-34.3292 74.6671 1117.67 181 176 173
-84.7102 163.753 1162.13 153 130 116
-21.5288 46.301 1167.17 255 253 247
-28.7608 258.653 1090.6 165 123 120
38.4489 61.118 1233.47 172 151 142
-0.546531 427.123 1252.16 157 136 122
-27.5593 53.0793 1072.24 176 165 164
-75.73 258.327 1274.32 123 100 94
497.089 17.3427 1725.41 240 236 210
-109.687 440.737 1315.94 156 133 119
368.586 247.11 1491.44 130 152 155
-26.2949 28.8372 1057.48 255 255 243
-23.1349 220.436 1129.14 201 108 95
99.2468 187.632 1275.54 243 225 197
11.4808 75.9677 1203.33 255 232 225
-12.3165 -21.8417 1115.14 168 136 114
32.1759 61.0227 1173.32 205 192 175
576.767 -137.836 1804.18 255 255 236
449.567 244.827 1663.32 171 187 185
17.1545 194.565 1124.84 197 181 169
-27.5428 79.6698 1073.87 191 153 128
-5.96546 217.327 1085.87 245 213 203
-67.1318 110.86 1067.79 183 162 164
1.12755 61.453 1014.67 224 199 196
118.911 57.4151 1401.85 208 156 129
380.318 -248.493 1652.12 215 198 200
512.658 -269.77 1656.88 175 197 195
98.7678 63.0342 1212.64 255 240 211
108.693 71.1564 1305.79 255 237 215
