389.908 -173.092 1151.93 230 234 230
-207.402 326.38 1086.86 15 7 5
-272.309 135.742 1021.12 55 48 43
-159.756 131.669 1048.95 255 247 223
-149.835 163.219 1052.92 255 244 232
-134.474 142.8 1055.36 58 25 13
-176.166 317.857 1094.37 201 199 183
-134.939 160.11 1101.56 37 18 9
555.809 31.1448 1056.94 233 249 233
-218.294 373.605 1111.74 56 46 40
-126.992 171.301 1104.08 250 235 221
-201.59 345.88 1119.25 216 209 193
-161.322 148.344 1094.6 247 227 205
-153.509 162.2 1097.3 100 68 57
-240.104 287.832 1082.55 255 250 242
447.2 -4.8634 1282.23 27 23 22
-243.953 367.451 1109.37 117 110 100
-136.982 134.881 1054.36 217 196 179
-227.597 340.038 1051.05 244 238 226
-189.915 50.483 1105.22 255 232 215
-265.43 379.821 1154.44 255 253 239
-74.521 126.055 1025.23 47 6 5
393.3 -51.0003 1130.19 226 220 218
-124.308 156.202 1058.36 231 214 207
-116.32 182.736 1107.2 70 69 54
-177.165 -13.4766 974.992 65 33 21
-144.419 100.794 1050.81 255 233 209
-176.961 43.0902 1060.81 133 87 75
444.424 36.5087 1241.64 254 254 252
-177.062 44.0572 999.034 151 99 74
504.612 23.7756 1290.43 255 244 244
-46.041 31.3744 1067.54 255 246 220
-253.638 319.256 1103.14 76 64 53
-144.535 121.662 1051.93 75 25 7
-157.173 121.341 1049 77 52 35
-48.6629 20.8473 1066.35 255 249 232
-144.817 173.875 1054.62 233 217 202
-175.078 240.285 1096.51 88 73 76
-207.051 359.488 1118.78 204 201 199
517.379 17.5064 1290.41 255 248 241
-275.043 258.59 1071.66 79 84 75
-268.453 282.128 1096.14 113 86 88
-181.811 48.1212 1031.4 119 58 61
-271.383 52.9214 938.939 68 62 57
455.214 -52.8136 1291.07 103 100 98
803.19 55.345 1502.83 229 239 224
-301.782 59.5316 968.885 200 208 192
-194.406 316.609 1046.57 222 206 206
640.328 -166.895 1207.27 237 242 233
-67.6566 196.157 1168.62 73 34 14
-274.299 298.877 1123.13 148 130 124
-191.905 327.214 1169.52 193 196 180
-303.789 161.183 1080.84 54 14 8
-176.898 -18.9461 1014.83 226 212 190
528.654 -6.20988 1237.59 244 220 212
-195.56 229.35 962.73 98 89 81
-160.653 106.283 1005.8 246 224 210
-144.463 108.618 1051.23 111 59 37
-316.321 104.189 1007.48 240 226 218
-118.756 -5.31856 1009.21 117 28 8
-186.134 -19.7953 993.832 187 166 154
504.085 16.5722 1233.94 255 245 243
-61.7536 49.2505 1110.63 249 230 211
-151.665 302.156 1105.38 202 191 176
-133.333 314.659 1160.65 255 248 231
-142.533 310.387 1182.02 245 254 229
633.446 -231.215 1256.7 181 197 184
-174.446 79.5344 1042.69 83 82 76
-213.065 361.636 1088.5 99 94 92
-83.6317 33.1741 1081 255 238 251
756.767 67.7955 1419.1 221 236 218
460.759 -55.462 1276.34 241 236 227
-261.861 120.75 982.113 135 117 108
460.986 7.8219 1285.03 88 77 77
563.94 23.3192 1337.63 255 244 237
-125.886 128.513 1076.08 126 78 51
-204.633 312.863 1086.37 187 165 158
-210.373 292.104 1139.99 74 48 43
-35.381 73.4516 1048.59 248 236 207
458.215 17.3689 1286.09 195 179 178
492.934 5.0533 1346.73 53 50 52
595.854 -191.97 1262.32 196 187 176
-209.306 287.198 1090.45 65 48 44
-31.5524 99.5064 1120.26 252 243 216
-149.965 186.784 1054.09 105 88 78
-164.392 74.7208 1065.11 132 107 88
-211.903 418.739 1168.05 57 33 29
-259.38 494.666 1280.35 32 26 28
499.1 -116.048 1215.82 238 207 189
-48.6592 15.6017 1066.01 255 252 219
-206.757 282.514 1082.98 212 200 197
-172.06 77.2492 1063.44 198 186 165
-212.103 -9.87271 988.297 232 208 194
-162.528 68.7044 982.721 135 139 136
386.396 -220.655 1195.11 201 193 197
-260.998 193.939 1004.65 220 191 167
-217.658 268.807 1108.1 249 245 241
498.45 -23.8893 1283.36 255 252 238
-310.912 80.8677 967.388 236 212 197
-197.264 218.918 1065.14 249 240 231
-79.9921 23.3754 1060.22 255 244 224
-186.124 -11.6628 921.2 127 112 107
-34.3213 88.3314 1118.94 252 242 214
-144.564 319.728 1158.2 235 225 205
-121.159 -15.2455 1008.18 94 29 9
-130.745 -5.15779 968.52 204 186 178
573.569 290.867 1533.61 76 104 101
-174.185 -29.6789 996.035 196 167 160
610.927 113.925 1370.46 251 249 224
647.292 291.488 1609.36 111 148 153
598.679 -123.214 1389.1 206 191 174
575.6 16.0934 1295.24 227 203 186
-211.618 232.024 1019.92 246 230 218
600.761 -25.7303 1412.67 255 248 246
-279.112 267.672 1119.86 239 237 214
-319.47 59.26 964.089 68 40 30
-253.563 324.022 1057.37 241 237 238
-267.178 69.1931 940.645 86 92 87
-247.345 62.5477 945.274 134 87 77
532.471 -52.2817 1281.29 255 249 236
507.258 -39.6395 1281.67 236 202 183
-220.186 -8.70727 1005.26 135 117 106
-247.79 263.522 1054.9 251 235 231
-14.8039 164.147 1127.88 255 250 224
630.572 374.215 1631.85 111 146 150
-67.8838 194.906 1091.08 253 247 225
449.976 -112.96 1213.39 244 242 240
-138.267 291.963 1108.05 132 134 113
-110.471 26.4829 1031.07 229 179 163
-169.825 34.2753 1000.19 252 233 221
-252.894 269.48 1099.55 140 125 122
-167.144 269.01 1120.39 158 156 156
590.576 -1.3161 1374.67 232 213 206
642.039 -109.582 1269.55 183 181 159
-91.9243 156.077 1111.1 158 133 113
-242.418 305.002 1004.21 150 143 145
-320.258 204.701 1129.44 255 253 236
-297.199 147.652 991.776 220 216 218
645.367 333.244 1470.59 97 131 143
-196.811 293.051 1143.57 83 74 67
5.18515 261.019 1188.47 234 218 197
-67.0221 44.4182 1064.17 140 96 88
-64.4301 57.6362 1065.51 186 137 111
495.657 -46.6165 1403.01 233 234 232
476.852 -1.74673 1284.94 150 147 152
-143.626 294.391 1106.9 239 235 223
-107.415 22.8742 991.726 248 201 190
-136.767 93.1611 1052.12 130 74 43
-110.414 6.09467 1030.23 96 35 5
451.772 -80.2309 1217.83 222 223 230
-232.275 269.457 1083.62 236 223 220
519.434 10.5564 1234.1 197 178 165
-260.582 47.7603 997.59 140 130 123
508.249 -23.833 1283.99 241 235 227
549.194 9.68618 1293.61 76 56 49
-200.818 -8.95803 885.303 203 179 167
-218.867 83.7536 1032.17 243 225 216
-251.472 77.4463 1000.97 229 237 227
-243.174 89.5763 985.408 255 236 207
359.696 -214.671 1246.71 85 85 88
520.491 -216.718 1250.91 99 86 83
-299.942 71.6945 988.456 133 118 118
-224.343 79.9958 882.994 254 233 213
443.4 -102.851 1164.03 253 248 247
-164.748 236.013 1089.54 147 128 125
471.19 100.048 1307.17 176 165 142
627.086 225.422 1454.67 127 149 153
-215.5 270.975 1064.02 141 127 124
-113.255 228.857 1160.31 245 242 226
-277.956 243.041 1090.36 107 77 58
467.961 -99.2182 1270.64 242 245 247
-284.928 200.958 1021.09 222 220 207
-61.8151 90.6798 1113.41 250 234 213
-269.53 100.365 1020.03 172 132 112
-74.8991 70.7061 1064.16 254 233 229
575.016 273.639 1532.48 13 38 55
-34.5205 326.656 1209.1 143 62 38
-88.5775 298.883 1154.94 255 253 249
-216.902 270.428 1087.64 255 254 252
-22.0229 128.531 1097.8 252 248 227
541.936 241.465 1383.79 156 199 215
-72.5093 62.2572 977.951 255 221 193
365.215 -232.741 1244.73 199 162 165
-135.618 213.382 1153.98 143 118 110
-311.98 124.297 1009.73 221 217 215
-59.5321 71.5047 988.831 166 130 92
-53.6583 157.38 1119.44 243 223 213
-69.6991 81.3693 1065.86 252 239 221
371.285 -72.0004 1085.85 135 111 101
673.895 337.876 1549.32 80 120 139
455.049 -99.117 1269.79 245 239 240
-26.0046 107.94 1121.95 225 205 182
559.568 271.993 1502.88 183 225 222
622.693 260.472 1533.06 131 160 173
-251.857 43.4943 959.761 239 239 220
-239.497 52.729 1046.11 250 203 186
438.296 -236.2 1238.49 83 71 71
-45.334 52.175 1114.21 246 202 188
-259.571 228.522 1049.26 132 91 66
-301.023 61.4742 961.957 61 56 47
634.371 33.9558 1424.53 132 115 106
597.045 373.582 1628.78 50 69 84
397.769 -91.0259 1123.61 113 102 101
497.424 -142.675 1212.05 144 137 125
449.564 -94.5672 1083.62 217 201 179
489.785 -111.793 1270.19 176 159 155
512.186 -104.187 1218.13 203 196 183
503.03 223.649 1329.66 40 85 101
586.364 -192.128 1262.06 164 150 140
502.894 202.384 1384.94 62 51 43
524.856 116.594 1446.99 130 121 110
-142.327 184.466 1055.73 121 87 83
-9.15005 198.056 1131.12 253 250 240
-131.524 392.147 1140.24 95 73 64
569.783 257.864 1528.87 67 109 124
568.614 324.929 1474.54 87 121 133
568.81 345.561 1540.73 96 120 144
-64.2732 -2.84913 1020.25 254 228 194
-259.58 432.701 1214.35 140 126 116
-52.5281 146.825 1064.69 252 223 197
463.466 -271.865 1358.26 210 181 169
-190.676 -19.0787 955.095 45 28 19
-158.338 372.258 1103.86 172 184 155
420.411 -62.8612 1171.49 146 127 127
563.381 18.9667 1275.97 222 195 185
499.22 -11.2172 1285.19 212 205 208
-226.142 364.689 1109.52 208 202 199
639.612 -173.738 1259.41 129 116 116
-26.0005 113.522 1122.33 205 165 146
595.403 -32.8477 1341.21 144 114 109
570.857 30.5066 1295.4 166 142 137
553.967 24.0682 1293.55 148 114 109
-205.511 523.009 1203.34 50 50 46
-141.817 169.366 971.448 170 157 144
-89.5232 275.469 1118.38 177 177 177
-117.128 384.387 1194.47 191 203 170
603.354 -272.828 1307.01 87 98 101
-335.95 36.9472 998.5 220 193 172
-321.024 149.81 1075.52 252 254 254
623.763 -257.677 1241.33 112 142 160
-222.957 265.166 1061.66 231 231 228
-216.07 604.388 1369.46 79 79 74
535.987 45.0137 1299.98 250 227 207
-225.143 233.45 1031.52 191 114 96
666.949 -266.463 1358.41 118 126 136
-69.7085 86.6694 1066.18 248 226 223
-114.268 360.367 1116.84 133 140 108
-220.417 338.984 1084.46 203 199 191
605.429 -134.242 1194.94 77 69 56
483.708 -81.629 1319.08 139 130 142
-265.796 60.0761 978.328 248 227 220
-204.706 248.689 1001.82 237 246 245
-280.849 127.126 1085.49 93 66 67
491.974 -20.0468 1237.99 252 253 253
-294.736 70.2085 1055.32 191 198 199
-284.695 126.046 932.409 248 251 253
