-678.269 294.263 1466.8 52 55 44
52.61 -25.8059 957.105 239 244 239
-489.416 49.4287 1124.02 255 248 232
44.6755 -44.2375 977.246 247 244 226
-476.928 350.967 1447.66 245 245 235
-488.882 20.501 1480.3 182 173 171
-25.5162 -171.017 1260.76 39 39 34
-554.179 66.7668 1302.23 245 235 218
52.4658 20.5972 983.325 255 252 241
12.5218 -2.25583 987.211 255 252 245
-44.1745 -164.444 1257.97 244 242 239
-522.633 77.2275 1239.01 255 237 211
-503.077 14.6647 1451.01 71 48 36
253.774 -214.061 1190.54 25 20 14
153.91 59.8472 1012.77 214 214 204
-146.496 -39.7248 1058 232 223 214
124.737 10.4869 914.727 251 255 245
-401.34 7.097 1342.14 253 247 235
-505.348 24.4654 633.992 166 169 157
3.6181 19.5873 1051.31 252 244 238
265.173 476.481 1255.2 24 41 46
-451.186 -1.35591 1578.72 53 31 20
-509.529 -24.4981 1438.15 175 159 144
167.757 105.808 1019.39 241 241 234
-31.5723 68.95 1184.45 255 248 235
-592.051 136.253 1275.18 227 224 219
-35.9307 -144.606 1161.5 41 51 52
128.716 176.71 1044.24 114 120 117
-689.39 164.201 1500.35 92 89 86
200.695 201.838 1097.69 241 250 237
-400.602 122.266 1357.6 169 148 135
204.567 279.359 1149.59 246 243 238
-551.464 22.6031 1630.38 83 77 67
-683.584 76.9673 1396.96 149 121 101
-568.972 93.7199 1368.37 102 78 61
-20.9384 71.1513 1063.09 252 242 230
-432.908 215.862 1194.94 231 220 198
-504.865 20.3864 1473.22 225 217 202
-551.891 73.3199 1304.54 134 90 78
5.97425 178.538 1166.36 240 231 225
81.7728 -171.257 1176.93 62 72 57
-545.176 96.3076 1312.04 251 234 211
-682.904 285.89 1460.98 244 244 233
-445.999 157.987 1439.38 39 16 11
215.859 468.87 1389.34 117 126 127
107.691 -49.7897 961.69 102 107 84
-483.694 254.993 1355.68 125 102 88
-531.059 136.528 1326.09 146 120 102
108.829 -52.6406 929.63 231 239 227
-597.241 370.866 1467.71 96 101 98
34.4915 -88.395 1047.08 46 43 43
67.1913 10.9941 984.76 211 199 192
-480.824 204.565 1508.45 155 134 127
-423.395 129.795 1366.94 191 172 153
7.57855 -64.5523 1053.72 37 59 56
-528.67 143.337 1328.44 255 248 230
45.3807 -72.4059 941.244 110 118 108
185.299 249.286 1074.84 244 245 238
122.529 -30.7232 965.217 223 226 206
-36.2184 192.843 1249.63 255 245 238
75.981 -92.5983 1022.86 164 184 177
162.875 65.3363 1062.09 128 128 119
-46.5499 169.97 1110.04 248 238 233
-446.711 38.8808 1554.77 124 128 123
-419.778 36.3407 1384.06 181 178 179
186.056 165.715 1065.84 246 239 227
-123.88 30.797 1068.53 207 192 194
-759.259 619.274 2065.41 97 99 95
118.616 -25.0391 933.24 133 143 124
5.15945 -2.21629 986.054 235 222 209
-28.7189 -140.74 1201.6 220 191 189
-481.273 262.217 1358.46 255 248 237
-35.3245 61.0795 1047.53 255 246 235
-7.91301 7.91971 1058.83 120 107 94
180.741 116.724 1086.24 190 198 191
197.15 239.75 1170.17 243 247 241
-9.08908 -67.9575 1067.73 252 241 226
90.9201 64.3802 1041.86 194 190 174
-417.371 289.303 1723.42 45 49 39
224.345 274.412 1123.85 149 152 142
107.728 39.8326 1004.89 248 250 243
106.174 -43.1847 882.597 227 223 213
40.2484 190.384 1094.04 255 243 230
132.222 13.2409 958.95 129 127 126
-88.399 54.498 1122.81 249 242 232
-657.201 122.303 1607.6 133 95 73
-442.784 18.7503 1478.77 66 61 49
220.025 313.124 1203.32 238 244 237
-447.374 202.793 1522.24 72 55 51
265.569 481.473 1297.92 68 109 130
-22.643 193.944 1199.3 181 171 167
117.077 23.4772 992.655 252 254 252
-469.85 186.079 1465.66 195 162 151
161.367 158.26 1067.94 246 252 253
-455.761 334.957 1518.76 156 159 150
149.461 94.5484 931.13 105 100 91
-688.887 -5.62095 1153.1 251 246 240
-23.8167 15.3991 1028.85 255 249 226
-425.354 137.854 1592.5 185 147 127
34.2046 209.174 1130.23 158 142 130
192.343 245.399 1123.87 206 211 205
-488.778 315.622 1202.1 107 111 106
-508.382 29.4838 642.256 102 100 91
116.226 24.2782 1029.77 171 173 171
-417.718 130.107 1593.43 64 29 13
191.713 141.484 1135.39 133 137 117
144.905 35.7768 997.287 155 149 131
-370.376 294.536 1602.28 48 48 38
-79.0132 135.996 1099.44 243 240 241
-548.457 -66.2596 1280.17 168 152 139
-632.204 -44.268 1156.12 146 136 130
59.7872 10.9026 983.678 193 183 175
-111.896 134.732 1182.38 255 249 234
-481.788 331.388 1440.37 240 226 194
-20.9987 23.6544 1058.16 240 232 213
22.3438 7.78629 1036.51 127 124 110
-79.0613 146.964 1100.61 233 222 222
-533.438 129.734 1323.74 255 250 226
186.063 225.333 1113.12 241 243 229
-669.064 -47.2698 1232.74 255 249 239
-54.6284 114.54 1102.29 255 247 221
-498.753 -57.85 1175.31 120 106 94
180.028 167.516 1036.09 249 250 240
-37.919 110.624 1050.83 168 156 146
215.507 472.638 1296.63 106 126 136
-857.621 12.549 1448.44 255 252 243
225.677 63.782 1130.45 171 165 149
-460.04 190.463 1513.91 108 73 64
153.045 42.1724 1036.27 213 207 192
-110.476 93.1105 1121.35 142 118 108
-636.425 46.538 1415.53 249 239 240
-52.3606 81.2566 1058.1 227 204 187
-528.998 -79.177 1286.99 148 133 113
208.298 246.751 1052.99 203 192 188
137.634 148.736 1020.06 237 249 239
-115.956 98.6422 1120.57 255 250 234
-600.736 94.1397 1259.66 166 124 93
173.04 127.877 1046.54 244 250 242
-602.19 55.6982 1343.33 141 106 95
-0.340216 174.494 1046.77 222 203 186
234.558 512.852 1397.13 123 140 145
102.077 23.4346 990.637 239 251 247
-396.739 208.398 1168.89 162 158 156
54.7436 -56.0029 954.678 176 195 187
-370.738 246.298 1524.12 180 177 149
-627.35 90.7874 1300.72 255 243 219
-623.71 104.111 1306.84 243 221 188
-30.0303 259.678 1173.78 253 254 226
122.353 -0.936107 956.61 136 142 115
182.988 148.063 1070.41 231 234 212
91.3002 92.8892 1045.01 255 251 227
168.191 134.17 996.113 227 224 198
215.834 449.653 1342.3 135 159 166
58.6926 -56.2605 999.133 106 108 95
-530.802 -3.2951 1299.9 157 148 138
191.268 271.196 1077.89 119 117 113
-508.311 177.874 1568.09 145 137 131
22.5567 146.633 1120.92 146 141 139
-35.54 -102.926 1081.96 231 160 148
-641.007 261.998 1409.99 229 229 213
-636.254 239.386 1341.7 159 159 150
-731.438 80.4128 1457.02 238 232 220
-112.426 91.2571 1168.87 237 234 221
-30.1071 115.131 1107.29 254 250 238
166.057 225.044 1078.82 244 255 247
145.836 398.247 1269.02 119 142 143
115.294 -3.01886 912.311 227 233 229
-21.3418 -60.1479 1024.67 145 121 107
14.1947 149.236 1119.69 235 228 227
-550.561 233.561 1484.45 233 207 193
-569.681 4.21964 1252.47 238 190 147
-103.076 165.872 1231.06 243 236 230
-68.4843 -110.711 1148.68 234 228 230
-549.032 -56.8864 1281.58 168 148 124
-612.827 65.5174 1245.66 139 109 93
120.494 350.421 1116.28 100 129 138
122.651 132.347 1093.4 123 128 112
45.0744 67.2064 1086.67 237 218 202
-492.66 1.08923 1070.58 157 111 68
-46.4483 89.9837 1101.24 232 220 197
55.4529 8.15185 936.265 99 92 83
112.309 126.979 1037.91 149 151 123
-383.959 9.11535 1390.97 46 45 37
-470.487 181.582 1517.71 191 158 144
-619.901 87.1921 1247.63 243 231 216
-54.6169 109.028 1101.69 246 243 219
44.5431 214.927 1138.59 165 154 136
-88.488 -58.8236 1097.46 141 140 122
176.803 171.919 1001.85 240 239 228
-649.879 242.662 1398.62 251 248 232
63.6108 -92.8763 1012.33 165 198 200
-709.404 231.844 1483.47 160 153 157
-456.531 246.802 1365.1 77 70 68
-79.6494 158.594 1146.05 148 141 143
-592.266 -34.1656 1033 255 251 234
-611.684 162.011 1330.92 182 186 186
-366.934 123.249 1280.51 137 119 103
141.024 139.01 961.206 236 245 220
-161.41 -43.8273 1062.44 100 99 93
-14.1609 6.0081 926.151 212 202 186
-909.169 51.9071 1180.16 216 220 212
-546.148 200.444 1139 239 237 227
294.384 412.725 1330.79 97 123 118
-672.332 508.121 1775.61 198 199 194
112.966 -21.2594 965.082 245 255 230
-59.857 130.473 1147 250 236 221
-26.0041 178.096 1101.24 66 59 54
108.344 16.6496 1028.01 232 233 228
-659.966 389.693 1645.91 160 164 156
-520.881 107.134 1325.09 82 56 48
32.3001 166.574 1261.07 250 238 227
-594.387 -64.5379 1415.17 122 106 85
198.08 299.399 1167.26 246 255 251
-88.9065 55.1793 1080.84 208 205 205
171.627 201.308 1052.34 222 235 223
-892.742 351.555 1925.36 216 220 196
-671.541 330.958 1484.71 87 87 78
277.039 454.107 1252.96 157 188 204
-639.012 103.517 1298.23 248 229 207
-658.655 162.223 1305.76 125 119 114
-430.64 211.675 1454.61 144 127 114
-4.39871 197.902 1153.63 255 246 238
-678.127 314.063 1474.71 229 231 226
187.559 172.165 1106.95 252 255 236
118.512 79.887 1010.48 241 245 230
-812.677 78.0835 1441.26 254 255 250
-389.085 -8.00441 1384.26 114 104 92
-669.959 144.654 1401.06 238 240 235
-470.835 -97.7356 1243.86 127 108 93
-519.227 -112.454 1366.12 144 129 114
-414.601 277.78 1221.09 186 145 112
-379.111 151.852 1615.06 97 83 74
152.037 234.951 937.576 226 235 220
-530.924 414.598 1403.7 165 165 160
240.488 514.086 1409.96 207 233 244
130.135 -147.777 1099.52 34 89 84
-526.037 462.015 1476.87 146 154 147
-476.081 16.5301 1456.44 89 73 69
-99.2895 43.2765 1119.39 247 235 230
120.194 -8.13683 973.11 167 171 156
-574.042 119.702 1187.75 179 164 155
-106.89 72.9708 1129.74 173 162 159
-55.3732 106.197 1021.19 158 119 89
-55.2527 42.9957 1015.5 219 194 172
-50.7333 4.13457 1040.16 215 195 179
-530.708 215.25 1412.87 205 184 170
153.987 164.676 1111.02 212 224 219
-475.821 -11.2463 1597.23 101 80 64
76.5129 -43.7585 992.322 173 177 159
8.00959 93.9879 1102.02 245 238 210
-796.861 26.7322 1359.67 227 225 219
-10.9791 -111.09 1036.3 88 27 10
-444.378 157.051 1590.09 126 84 69
-101.347 67.3936 1130.34 227 232 234
-548.292 -111.42 1462.46 125 102 85
-352.915 299.586 1546.99 97 96 85
-371.036 107.39 1423.08 73 54 43
52.4374 173.634 1191.89 232 207 190
-15.9236 142.953 1146.27 255 243 231
-409.304 -71.266 1358.78 63 66 56
145.537 -183.666 1137.71 150 188 177
-438.913 301.822 1385.34 191 181 165
-8.0356 148.725 1115.42 241 216 211
-444.223 -44.7246 1531.36 66 61 49
-35.7353 105.686 1138.72 216 213 200
-676.748 130.181 1393.35 255 253 243
110.396 -140.371 1137.73 58 79 78
-646.743 147.333 1245.88 228 221 213
183.823 264.241 1145.22 215 223 211
-51.0884 274.42 1313.29 100 99 93
-71.6554 -108.761 1157.43 114 102 92
-89.9947 179.849 1182.85 204 202 201
132.726 365.552 1174.56 164 182 181
-790.826 75.2513 1420.35 241 239 229
-403.701 292.125 1362.88 211 205 189
177.419 149.313 1089.8 227 236 209
227.927 300.265 1127.23 227 231 212
-4.82892 173.491 1200.96 239 215 196
54.6881 281.782 1142.02 226 223 201
62.2063 190.943 1097.77 200 203 194
-848.229 32.5838 1556.2 165 146 145
-612.25 109.592 1257.68 255 252 228
-339.31 189.435 1517.56 55 41 34
-788.617 368.113 1707.05 136 136 131
-49.0542 21.8637 1093.14 206 192 172
-667.868 -28.6506 1288.64 149 97 75
1.20708 -141.043 1156.03 231 154 139
18.9744 -163.605 1325.69 115 96 95
65.3044 113.278 1043.24 246 245 220
-2.81205 256.64 1222.78 190 183 168
-126.155 83.8082 1126.57 223 222 215
-511.018 -13.6742 1224.99 125 110 91
-126.553 62.3332 1114.93 252 250 249
158.644 164.504 1024.44 222 239 213
-7.80375 236.19 1125.09 154 145 122
82.4051 -171.595 1199.37 171 147 145
288.869 397.209 1275.7 85 108 110
141.613 86.4497 1060.49 228 238 212
-535.215 219.135 1324.17 198 192 181
131.829 401.699 1321.21 160 182 186
-60.9341 258.338 1250.96 200 200 192
-103.351 146.649 1186.01 243 241 240
-10.7968 -116.382 1121.78 127 117 120
166.992 174.406 1069.71 248 255 233
2.42949 -41.2972 1055.34 104 100 98
-17.879 45.6497 993.41 145 111 83
104.224 79.9295 1156.24 205 197 179
-550.091 243.14 1385.61 187 167 150
-94.8113 -58.4593 1067.58 122 118 100
-588.316 333.453 1575.58 211 157 129
77.039 -65.8752 1141.35 76 98 76
-90.8754 164.132 1144.13 246 246 245
259.491 507.363 1400.64 138 165 177
-532.998 226.151 1326.94 255 252 246
188.638 209.895 1141 221 238 211
-491.45 -85.2772 1311.1 161 151 132
-773.835 20.2753 1372.84 252 240 232
-738.201 6.43715 1322.1 253 222 203
194.104 192.836 1140.16 251 255 235
-691.326 97.0914 1584.83 224 181 161
-473.686 146.9 1197.6 180 169 127
-537.419 212.137 1321.41 252 245 233
-799.613 -3.32642 1346.91 212 211 206
162.972 184.214 1147.93 227 237 217
-20.6043 131.646 1098.49 179 158 151
128.8 152.855 966.294 137 154 132
137.905 164.068 1021.63 179 193 175
-31.5822 369.203 1328.73 158 158 141
