312.4 -42.6324 894.01 245 254 251
-246.162 385.615 1214.83 237 237 232
-498.929 382.607 1313.72 32 26 31
387.738 157.022 996.463 33 42 36
269.976 -14.238 923.348 250 249 237
245.713 146.726 982.871 239 226 218
436.569 220.791 1005.71 212 215 211
-417.839 170.917 1137.59 95 72 50
-360.481 6.60874 1078.6 255 240 206
312.975 4.17381 928.334 230 225 219
-362.816 1.30525 1077.54 42 15 8
-329.826 84.5662 1093.01 235 223 211
357.004 365.084 1149.92 56 85 95
190.117 -149.805 1165.5 36 39 31
262.918 -14.2547 922.712 232 224 214
448.223 254.374 1025.22 231 238 230
-468.721 372.633 1264 221 220 208
-266.382 275.834 1145.38 98 63 49
445.079 236.26 1023.99 216 219 212
445.225 241.404 1024.29 232 231 227
203.214 173.085 1054.42 255 241 242
-310.664 142.311 1102.55 255 244 222
-456.786 149.156 1220.98 149 114 98
370.392 16.2342 933.547 253 251 251
512.782 483.942 1252.4 32 53 61
-201.621 328.019 1348.26 23 25 17
342.674 43.8934 933.534 188 181 170
-473.264 20.7497 1090.98 92 74 60
455.663 249.349 1046.75 95 98 96
307.716 -47.0343 893.34 26 20 16
305.051 -60.1663 892.167 213 212 196
406.004 183.19 947.577 242 254 234
199.945 -0.766871 917.4 225 201 188
459.371 354.909 1176.86 243 255 253
-477.801 15.3189 1088.93 239 223 207
-442.678 31.6798 1102.72 118 94 75
232.58 61.1431 957.513 255 252 233
302.91 -55.7699 892.336 27 19 11
-238.091 236.876 1001.87 243 228 208
-325.103 100.98 1095.51 239 225 198
-459.64 138.74 1159.53 255 247 233
251.777 -54.2714 832.79 159 164 163
244.757 15.352 923.003 226 221 215
-413.198 182.539 1140.49 108 91 80
-468.429 15.374 1092.34 207 196 178
-424.256 435.058 1292.16 91 90 92
236.581 16.0254 954.993 234 227 214
312.134 -51.4396 893.336 251 252 239
-263.813 281.831 1146.65 239 222 207
277.668 -91.8007 950.766 7 37 37
292.453 -86.9415 935.703 234 237 238
358.966 427.517 1257.21 78 112 120
208.555 166.746 1016.14 224 195 182
-461.429 342.967 1204.4 248 241 238
432.383 253.956 1023.91 235 245 237
-315.5 128.484 1100.2 253 248 226
96.437 -39.0886 949.5 199 204 198
-317.887 120.246 1098.94 148 119 101
363.572 35.2017 917.606 234 236 218
-300.119 89.1755 998.038 132 106 88
374.516 -28.9984 899.207 250 255 239
-371.062 236.877 1232.5 77 51 43
168.099 50.6445 984.316 251 248 241
-403.566 197.421 1145.48 255 254 243
147.479 133.896 1064.51 255 245 238
396.305 451.178 1140.38 237 255 255
-275.318 265.213 1154.14 136 103 77
-347.769 241.789 1169.07 112 87 77
301.497 369.963 1170.11 89 112 119
-309.017 186.669 1157.94 112 81 70
-499.822 349.467 1243.14 101 90 76
-288.003 343.406 1297.06 246 223 200
224.349 105.475 994.587 247 234 206
259.758 128.935 977.009 233 217 205
295.587 -90.289 987.158 28 31 31
351.105 72.0605 969.544 254 252 230
131.219 94.1081 981.974 255 250 246
291.423 177.699 1019.67 230 208 199
-381.342 177.193 1190.01 103 77 63
-433.981 130.943 1168.08 135 98 81
375.799 35.2761 917.039 243 255 237
222.606 49.1429 955.674 253 251 231
281.301 73.9178 1015.78 253 245 224
370.078 40.3593 904.1 239 253 245
-319.084 154.655 1152.46 100 80 73
354.758 -4.58835 899.809 213 215 205
-381.234 523.208 1322.54 73 75 74
-458.814 341.336 1257.83 248 244 227
203.014 -97.2439 1014.76 241 218 211
159.774 -50.1264 909.941 173 182 169
364.063 -6.72344 893.079 207 235 215
-377.928 115.824 1095.84 95 62 40
371.272 41.7699 935.531 246 254 253
162.168 -84.572 1011.1 201 184 171
279.549 188.827 1005.68 70 52 39
174.42 -101.911 962.922 230 219 220
368.683 119.18 908.296 218 232 213
-446.079 13.9356 1005.7 71 82 69
-467.427 399.11 1269.32 76 69 44
-289.269 80.7397 1271.45 184 170 152
-307.915 283.321 1285.36 227 212 186
412.665 493.189 1212.1 62 99 117
94.0906 -32.1295 949.478 69 71 66
-620.283 71.4507 1207.36 231 228 226
-429.871 169.142 1172.92 253 240 214
407.28 127.613 960.886 192 212 184
-292.097 74.3751 1269.93 73 50 29
-401.023 433.052 1241.04 214 216 212
-429.615 427.585 1288.86 118 119 114
-489.388 296.687 1239.81 104 85 81
-433.663 212.995 1175.53 119 116 106
145.459 33.4716 980.322 213 206 210
-239.904 269.581 1041.69 141 111 84
133.034 30.9734 978.524 248 243 238
300.064 -58.4499 848.22 222 230 214
-436.23 39.686 1138.03 151 66 39
278.127 -55.1687 797.058 132 135 118
224.074 -130.831 1077.44 254 205 201
-427.758 264.77 1102.72 104 77 83
-486.924 243.63 1174.42 255 252 242
-429.597 114.218 1234.76 129 62 42
439.075 344.899 1111.52 94 121 113
-353.253 -3.93905 1034.14 224 201 174
126.25 94.0361 981.276 255 250 243
300.26 91.6325 918.316 254 254 237
234.957 54.1894 940.75 89 69 45
-391.182 194.607 1188.52 145 136 118
250.73 51.4865 975.244 244 218 199
-368.959 272.766 1264.39 95 75 62
-265.129 63.2228 1132.28 189 163 146
-347.409 97.6401 1088.55 255 242 220
441.713 150.243 1033.6 249 255 232
231.585 174.281 1037.61 170 159 156
174.606 -1.1289 828.861 201 182 167
294.629 264.493 1033.54 232 218 201
200.03 -111.062 1052.73 20 5 1
195.297 -97.1218 1013.93 224 167 146
-342.048 73.4981 1088.59 255 250 233
-425.639 612.948 1532.73 69 73 70
-421.88 175.352 1121.03 191 189 174
180.186 117.722 966.954 251 246 234
298.518 -4.97758 926.471 56 51 49
284.675 -79.6945 903.469 201 234 228
418.167 394.305 1138.67 96 110 110
246.349 173.793 985.039 108 75 61
297.362 -61.0241 772.769 91 98 74
159.495 -91.8855 1010.22 82 76 79
254.91 181.804 1015.49 205 184 178
-271.258 239.71 1109.15 95 61 39
249.609 171.61 1014.54 193 157 143
183.849 12.8633 916.475 187 179 159
303.796 -97.9768 931.776 133 157 149
-379.966 256.12 1259.06 227 221 217
-355.769 533.177 1318.61 216 219 215
296.479 -8.56982 940.419 97 80 79
295.396 1.7068 895.84 99 91 87
-471.471 227.49 1123.97 126 117 101
-525.247 277.512 1222.6 129 104 103
-447.906 171.206 1166.7 245 238 219
-262.882 85.7194 1345.89 68 63 53
380.361 379.198 1180.15 190 220 233
-397.485 29.0883 1022.33 86 26 14
-253.409 75.1976 1281.87 139 129 112
-489.752 263.442 1220.49 143 137 139
144.296 -57.9501 974.142 198 193 167
-290.599 33.7082 1218.85 155 129 115
-337.811 268.843 1175.18 143 138 126
354.007 431.906 1062.49 237 255 255
-357.6 65.9362 978.45 212 172 163
-204.24 221.61 1453.44 63 46 35
-354.018 71.2153 1135.29 250 236 221
-232.195 65.0046 1298.14 87 73 56
438.364 215.534 970.717 35 30 18
-347.505 103.06 1088.88 224 175 146
232.078 -114.123 1055.93 112 84 62
364.306 356.741 1106.49 99 126 139
-374.492 107.535 1080.82 196 154 128
392.45 20.3524 904.106 221 227 205
-277.428 81.0617 1275.14 145 127 119
-433.604 152.496 1115.21 244 227 208
370.033 505.4 1313.65 127 155 151
-534.971 274.352 1269.85 161 153 159
413.281 231.829 984.413 184 200 191
273.888 68.3993 884.704 239 228 196
375.894 17.2966 868.695 243 245 223
154.723 39.1792 947.113 228 213 206
-288.468 195.115 1094.98 166 127 124
403.059 94.9678 921.696 242 255 237
-337.027 -9.44217 1134.61 170 144 138
-468.718 106.774 1153.32 139 137 138
286.231 -83.9183 889.005 95 101 110
201.62 114.294 1030.21 240 227 198
354.696 53.9529 889.215 219 247 219
161.805 137.031 1001.96 212 207 218
220.659 -52.151 948.568 171 162 150
366.861 13.3786 901.949 201 219 197
411.562 408.148 1111.34 229 254 255
-433.419 204.194 1174.82 228 213 208
-553.855 133.4 1181.68 128 119 115
-263.421 384.093 1267.9 234 219 180
-252.215 200.703 1362.17 175 151 134
193.675 239.253 1058.37 92 91 79
172.163 158.525 1069.6 203 202 199
-380.842 378.572 1229.45 241 248 218
-485.054 319.265 1244.7 251 229 205
-253.043 65.878 1346.67 50 26 10
220.398 -70.5229 961.038 34 35 30
398.371 221.592 951.334 176 196 185
267.801 -0.336612 992.014 98 91 89
-497.641 401.044 1342.67 162 161 155
385.367 15.8605 903.324 209 215 188
405.309 481.367 1212.58 80 123 140
-659.579 79.4837 1287.77 197 191 187
-266.789 261.498 1409.03 89 60 42
-319.921 -21.6439 1117.22 138 116 101
-311.182 344.965 1204.14 137 82 49
367.091 20.0965 902.455 237 245 226
275.998 -164.355 1126.28 158 142 134
-470.006 542.098 1503.11 182 182 175
339.043 83.9848 969.362 252 251 223
236.79 58.1843 1048.34 194 187 179
-543.702 25.7875 1188.66 134 117 102
362.73 -22.4385 854.309 132 140 130
349.54 46.1447 1033.94 232 220 197
128.381 82.6755 1018.28 254 249 242
184.185 126.887 990.88 255 252 254
202.086 238.144 1020.56 210 209 187
293.34 -159.304 1099.96 79 83 82
-377.69 141.906 1223.64 240 223 194
279.59 313.676 1324.42 237 238 213
-262.389 240.773 1333.69 172 137 118
232.428 190.263 1020.87 125 100 85
-255.666 216.14 1295 80 50 29
-345.234 0.373725 1164.97 136 120 103
-320.432 86.1463 991.701 173 144 124
267.157 218.613 1005.75 143 144 138
-267.515 -0.528058 1334.51 69 67 56
-535.947 125.149 1187.57 252 206 190
524.32 483.164 1279.03 44 75 98
-480.33 81.0602 1146.65 192 165 149
-530.418 370.993 1436.81 233 233 214
363.011 -148.935 1063.87 24 78 79
-387.923 214.214 1101.62 172 159 162
252.829 170.319 1021.6 73 50 44
313.429 -183.131 1246.69 190 181 167
-258.967 81.2197 1470.37 54 54 44
421.099 109.93 993.967 193 223 191
291.617 195.412 1020.23 200 173 143
-518.263 223.552 1159.37 156 134 113
208.644 333.263 1109.2 73 70 57
415.405 200.307 967.949 178 191 182
167.349 211.905 1071.95 91 77 60
-401.505 616.996 1519.17 151 168 159
-274.593 350.864 1260.87 221 179 146
230.585 -51.0258 886.706 174 159 155
-276.288 18.1153 1269.23 114 91 73
147.441 32.1335 945.786 173 155 151
302.975 383.341 1145.25 93 122 129
194.829 90.5422 933.565 157 142 112
228.282 94.4514 959.045 193 199 162
440.838 204.216 1054.32 218 228 203
-407.852 143.639 1213.82 206 164 134
-572.707 37.7747 1061.83 225 219 204
-492.726 260.016 1178.15 250 252 253
264.815 148.245 1099.25 211 167 160
-456.195 106.95 1157.96 188 178 177
220.917 259.072 1097.18 206 211 185
-455.686 72.2504 1101.17 159 130 121
143.399 69.8776 982.26 126 97 94
-320.576 279.304 1141.59 232 228 219
174.698 154.125 941.597 255 246 245
156.628 67.8018 1021.29 216 216 215
235.148 195.441 1021.6 206 188 165
140.856 65.0023 981.629 255 249 249
-425.519 212.256 1212.89 166 154 148
-273.652 233.92 1107.57 212 190 172
409.775 166.364 993.265 218 238 218
-425.741 31.7848 1108.62 192 121 97
-269.431 98.9515 1345.34 143 128 117
-564.705 121.695 1288.72 231 234 232
404.797 344.592 1133.46 222 230 216
-477.72 500.888 1485.59 73 71 75
-327.299 52.3695 1173.64 135 125 112
-597.271 85.3924 1157.34 251 230 221
138.856 51.8459 1076.99 241 229 223
-377.489 95.9552 1129.62 252 242 230
309.882 185.722 1022.01 190 171 158
312.855 174.511 1008.47 183 174 158
140.636 45.5807 980.432 172 167 169
249.134 189.042 1055.33 247 238 212
-447.028 226.2 1132.96 161 105 96
331.047 212.193 1127.33 192 171 158
435.561 154.485 965.135 197 198 173
212.711 164.248 972.446 113 97 99
-332.978 54.9304 1043.42 252 236 188
-302.462 5.457 1259.84 111 106 97
-297.324 27.103 1579.08 70 59 48
-477.966 270.929 1181.4 173 162 165
-557.263 333.555 1351.1 253 234 229
-248.13 52.5289 1234 144 118 103
224.893 -118.966 997.426 184 177 172
355.495 425.043 1342.7 104 128 137
222.109 -107.198 1026.21 99 110 94
300.969 47.418 963.445 199 175 152
412.43 303.355 1064.22 213 206 179
-648.217 172.624 1335.18 232 231 232
-402.844 176.792 1247.23 152 118 105
203.049 41.0655 987.977 202 161 136
-518.766 76.5277 1252.46 255 242 236
118.522 -33.5047 919.207 170 166 161
-261.952 204.239 1331.13 142 109 90
350.59 299.952 1169.92 225 226 206
348.756 401.652 1254.45 131 159 164
-342.737 156.459 1145.32 205 167 136
188.278 45.6536 875.156 188 179 145
-252.623 -11.2431 1225.15 78 90 83
284.346 -5.04523 925.261 237 219 216
298.057 73.5828 948.078 220 206 174
-222.04 350.836 1253.17 169 173 145
326.837 112.668 1023.66 155 151 119
-355.614 49.4595 941.27 249 214 203
-591.332 222.405 1309.97 246 232 204
-352.623 315.393 1273.92 130 121 114
155.558 45.6894 982.397 255 250 248
-538.542 192.941 1147.07 254 252 232
-394.652 165.358 1219.78 165 140 127
-382.186 79.102 1126.8 255 252 245
-643.225 115.734 1270.28 248 244 242
309.744 268.122 1052.58 249 251 223
275.963 279.813 1048.45 122 99 82
333.456 82.625 1042.72 114 108 80
217.447 354.471 1198.11 147 144 129
317.018 388.533 1173.52 164 208 217
388.24 116.037 926.701 174 195 162
215.761 -56.0302 1000.15 86 85 66
-564.117 227.945 1260.93 241 233 211
-510.935 224.02 1162.42 183 157 142
198.968 -110.248 932.095 181 164 161
-244.275 260.103 1323.53 73 52 51
-531.301 316.468 1276.49 165 148 148
220.916 137.038 927.35 233 180 165
231.657 239.612 908.371 95 89 57
-633.052 71.9264 1268.7 255 249 231
349.009 76.6138 952.211 139 135 106
-354.899 399.509 1252.34 192 189 170
-253.761 106.088 1351.05 121 115 112
-315.126 228.14 1233.98 199 169 139
-313 -30.5635 1090.52 137 122 101
144.54 143.949 1024.17 136 128 119
-506.156 227.268 1164.76 245 228 212
268.243 -126.272 1082.92 155 128 114
-584.743 123.325 1166.97 233 232 229
-324.438 144.391 1078.19 251 232 199
420.831 155.997 932.236 170 175 164
283.596 180.029 1018.85 219 206 194
-436.838 277.708 1197.65 188 185 185
207.211 129.744 1072.62 243 228 210
132.382 -44.7873 920.498 160 154 139
