32.3832 223.188 870.334 218 217 207
64.4443 274.663 894.643 238 235 236
43.8734 -16.5118 897.45 245 247 243
-208.52 -15.1313 1569.37 185 178 176
-241.928 -15.0863 1558.5 215 208 201
-121.076 43.5861 853.497 221 201 194
-3.1543 -45.3591 1048.82 233 221 224
152.04 -14.5959 863.449 220 234 231
-40.2837 -14.9622 1002.6 202 199 197
-90.5107 88.2833 770.725 225 227 222
-207.011 -22.1596 1350.19 50 29 19
-12.7271 -32.7495 953.452 196 204 200
128.005 306.181 951.14 201 188 189
-131.43 60.4826 851.892 225 212 209
-42.306 216.983 793.007 201 208 201
55.5707 -31.2106 979.883 251 249 237
-58.5273 111.163 782.805 172 167 165
-16.1394 -40.3656 1046.73 238 240 235
78.6365 217.509 878.022 238 218 210
50.5928 -20.7473 898.185 99 108 104
-54.4687 -9.18314 1085.08 181 174 183
41.5737 194.663 826.315 227 209 194
-338.618 27.8328 1443.52 239 230 211
-225.553 -54.9206 1437.7 165 137 129
-55.3563 -5.72993 962.357 28 17 17
-62.0609 40.0337 825.884 74 110 109
-335.454 34.9443 1445.41 113 88 64
72.4729 -42.4538 946.214 208 202 196
77.8159 232.992 898.422 186 160 157
-78.9284 7.67933 958.502 227 193 183
90.7023 -36.733 960.918 241 245 237
86.9886 244.523 899.82 232 218 216
-97.7258 49.698 908.573 65 70 72
-26.1699 37.3689 859.447 224 225 220
74.5592 234.901 909.133 190 193 194
-308.373 -102.19 1407.79 168 153 132
-82.0071 -4.47775 995.158 255 252 255
159.126 178.535 889.904 53 16 3
171.135 149.401 861.531 186 169 159
-10.806 235.087 817.367 166 148 127
87.8013 13.8578 846.715 142 170 178
-65.3872 10.5702 1012.56 80 86 85
-372.576 44.2225 1630.89 246 229 207
-200.1 -55.2467 1348.26 245 231 226
88.9755 -26.7794 903.039 112 121 121
67.6186 219.116 908.215 210 184 177
-330.371 5.88823 1365.42 125 105 87
-35.6137 -21.3027 1066.32 243 204 188
-87.8291 88.4737 747.607 151 154 144
162.373 171.003 905.455 54 28 13
-54.6847 133.061 751.079 123 131 128
-308.809 76.5565 1401.07 125 96 82
209.361 127.029 936.415 50 28 20
-166.237 -37.1128 1430.09 149 131 129
-19.1176 33.3365 832.529 210 194 196
-345.591 92.1778 1596.15 191 171 152
-42.3012 220.338 791.538 160 165 160
-301.948 -90.6597 1333.52 168 141 129
-16.4817 42.6712 806.952 29 45 44
111.272 273.816 887.845 162 156 161
-46.3123 143.737 802.401 27 25 24
-297.532 -96.2937 1296.13 156 131 116
162.999 -14.368 864.707 97 83 74
-44.8691 146.092 776.547 140 131 123
-333.242 -7.48222 1363.19 129 109 92
2.60947 17.2887 921.382 38 81 68
96.3528 15.0162 891.925 19 54 58
179.287 171.697 901.091 43 46 44
-269.093 181.146 1401.51 163 149 135
181.533 162.794 901.299 53 46 29
-2.25067 236.128 829.748 205 178 160
167.023 172.303 922.061 168 160 152
-336.236 -14.1426 1361.55 223 203 182
202.529 183.182 960.314 125 127 128
-13.9436 107.577 782.983 43 58 60
-21.1717 4.35146 933.403 123 100 83
-274.211 -114.885 1372 150 126 111
-5.8765 -18.5892 991.467 215 183 163
-11.9182 2.30576 934.874 243 216 216
154.139 179.035 897.867 144 114 100
140.983 -13.1266 820.929 158 186 177
49.5633 211.755 833.574 45 44 45
157.528 179.375 909.007 171 136 123
34.0469 241.048 844.672 149 117 110
-304.47 -134.223 1521.3 123 108 93
-276.795 -110.727 1339.95 155 132 110
-109.062 -39.0275 1596.48 173 154 138
-217.389 -123.615 1317.58 135 110 89
-73.0119 46.5301 862.109 90 125 127
59.6836 204.997 852.736 190 194 188
-283.266 -42.4791 1304.98 151 142 133
-111.519 77.2891 800.11 191 201 189
-213.122 -41.9553 1346.09 77 43 32
-274.311 -29.6949 1308.78 152 143 128
195.341 163.369 902.99 148 132 132
-243.462 155.947 1250.91 214 195 174
255.196 294.484 1006.63 128 110 105
-18.8798 -17.8763 933 255 158 137
-48.715 124.846 776.953 47 45 39
-9.18342 -15.3139 954.291 143 87 117
-41.6548 112.982 754.375 56 63 61
-164.057 -105.603 1484.3 111 149 140
-152.934 50.6308 877.987 174 174 158
-275.601 62.623 1226.27 205 178 156
-331.292 -28.4592 1310.74 222 202 180
25.0677 240.696 834.921 72 50 36
-146.778 43.5805 826.343 88 86 78
211.38 236.872 861.08 151 100 90
81.9233 -54.0789 947.07 87 86 78
84.6848 129.633 830.189 186 119 93
-324.401 -95.6259 1287.73 97 83 65
170.77 213.82 891.734 10 46 45
5.59674 119.98 785.762 109 106 105
80.0848 -52.9502 982.59 180 169 168
-153.073 -63.5563 1274.53 136 102 89
10.1578 -51.7401 938.017 159 158 147
-34.4271 111.067 812.709 78 90 86
-102.355 56.214 745.668 90 119 115
-134.864 -76.3722 1344.16 125 122 112
21.2265 -46.2433 950.002 192 149 128
102.37 124.26 838.274 123 66 42
173.939 219.797 905.898 14 31 32
225.133 260.812 907.106 81 49 49
-33.9616 12.3686 966.868 150 126 119
135.208 253.546 940.394 24 51 61
-135.442 38.0566 885.927 125 124 127
-282.267 -17.298 1378.91 114 113 112
79.6087 -42.3992 947.238 192 191 190
103.102 210.772 881.976 50 33 11
-82.129 38.3764 890.988 85 127 135
195.672 209.974 926.659 98 107 109
-49.6619 2.00733 864.942 161 131 124
-79.3945 1.57504 1017.81 169 110 85
162.933 117.931 898.378 140 110 98
22.9879 -15.0472 864.794 196 144 137
175.824 190.45 853.111 133 141 139
17.6787 221.326 795.249 155 122 104
-37.609 32.6945 829.63 145 145 139
46.1153 -39.9939 998.558 202 190 167
-67.8202 110.483 774.188 119 109 109
125.446 199.761 885.421 114 106 100
96.4237 214.529 880.88 82 54 35
174.363 127.615 945.994 127 96 85
-37.6871 4.98028 987.244 147 110 100
-146.738 -36.7518 1497.42 169 128 125
29.1672 -14.2652 927.19 196 169 161
240.535 231.567 976.886 58 24 18
48.4337 233.362 893.585 130 123 125
-127.81 -98.5663 1462.77 60 59 52
-32.5111 118.462 860.513 128 144 144
226.637 230.346 1012.89 161 116 109
184.951 278.499 891.913 98 59 35
-225.695 -40.8076 1438.74 93 60 47
-113.533 44.3917 874.032 53 85 67
-302.278 -56.4725 1385.56 163 144 128
-142.673 -137.76 1543.03 83 86 63
-112.042 -59.0795 1203.38 64 55 51
-139.491 -36.7866 1499.5 110 75 72
-20.7661 159.698 774.204 46 28 26
152.44 191.132 889.185 113 88 74
33.881 9.89714 867.437 8 60 56
221.627 197.705 929.561 38 23 10
-41.7472 240.772 829.164 191 191 178
203.746 303.194 962.837 174 142 123
-269.981 -115.843 1302.9 146 124 102
-23.6543 101.165 781.527 47 66 64
-236.14 139.998 1199.18 170 145 121
22.5222 -3.67506 477.048 84 130 137
28.8934 9.91761 828.136 59 109 101
