-220.226 119.6 932.401 254 251 240
-33.4749 284.198 895.423 220 216 205
-24.6579 322.419 887.744 229 220 216
-91.9769 240.116 862.311 178 177 168
-15.9765 16.7919 1049.11 252 254 249
-117.294 171.281 800.878 206 203 196
-449.168 54.2983 1456.43 243 232 219
-356.546 87.0806 1405.84 234 230 217
67.396 27.6867 898.182 186 198 194
-446.756 90.4741 1460.55 63 41 37
-21.0871 269.84 917.68 230 191 182
-535.901 7.38719 1417.53 204 189 180
-437.947 4.775 1659.61 215 247 243
80.0827 29.33 949.819 6 8 5
-293.56 241.537 1105.13 45 34 33
4.74656 285.707 910.357 250 241 237
51.0865 362.41 979.669 187 175 176
-317.191 117.109 1028.37 244 237 221
-140.067 33.6148 1140.23 41 3 2
-576.713 447.623 1702.42 102 102 101
-373.84 99.5872 1488.3 45 44 36
-36.7887 12.9777 1060.59 228 228 219
36.5769 75.6125 932.197 228 207 188
-2.62097 25.1609 972.378 231 255 252
-249.752 122.663 911.602 235 240 230
-82.3598 243.17 861.461 44 43 43
-143.774 105.598 901.102 42 57 64
-135.919 32.748 1069.55 248 254 254
-466.431 -27.9664 1442.27 189 180 163
-550.706 57.9634 1458.98 204 192 176
-114.392 207.117 820.915 195 201 196
-433.236 101.569 1518.29 208 200 198
-540.075 -14.3359 1507.45 198 175 165
-57.4824 27.1575 1103.38 254 254 245
-421.104 91.2374 1341.54 203 182 180
-2.46232 275.616 933.144 198 193 177
-297.116 284.54 1174.91 100 96 84
-57.6571 41.5863 1057.33 244 247 247
-497.813 415.843 1545.77 247 247 237
-224.1 132.418 918.027 254 244 228
-477.553 59.5184 1267.03 204 198 192
-568.996 159.898 1454.81 141 119 99
-157.809 72.6407 930.421 62 64 64
-0.0869021 353.969 970.809 168 152 161
41.2466 351.989 977.791 186 189 184
-551.049 7.35066 1411.2 182 150 129
-239.129 122.73 881.024 70 62 58
-383.108 77.3745 1520.34 176 138 124
-302.514 111.386 1011.55 206 195 176
-510.71 402.341 1538.2 118 117 112
-345.531 131.553 1140.07 55 57 39
9.46286 284.397 970.509 236 197 183
-310.159 261.279 1180.99 221 203 201
-192.781 135.207 871.612 100 122 123
-512.709 -96.0259 1362.38 250 249 241
-108.416 209.448 822.056 61 48 44
64.3361 356.607 954.379 184 183 181
-340.18 316.972 1294.17 230 235 230
-146.182 142.964 763.078 227 231 222
-134.164 21.3876 1092.82 196 192 204
-39.1833 6.05532 1212.26 89 87 79
-344.665 74.3299 1534.25 96 76 62
-401.466 80.3354 1616.7 171 140 130
-566.223 167.32 1457.02 251 248 239
-514.604 342.732 1526.57 243 231 221
-47.8166 34.8825 1016.21 108 116 112
-104.409 203.491 822.637 48 47 45
-322.559 76.2197 1337.64 194 187 181
-593.964 152.182 1502.24 255 248 222
129.716 361.401 1041.63 103 55 44
-584.916 105.12 1440.28 218 208 176
-153.99 43.1051 1065.95 224 204 208
-182.064 63.8484 1107.6 69 67 74
100.33 206.52 950.843 177 141 126
-78.7849 173.803 854.402 62 80 83
-51.6991 6.61467 1086.11 244 210 191
8.40236 268.758 891.498 238 234 226
-205.154 130.515 868.927 182 206 201
-94.1376 14.4915 1077.77 91 30 19
-553.038 2.19149 1440.67 161 145 129
-285.818 352.623 1225.13 223 224 223
128.529 478.687 1104.54 181 169 152
-212.116 123.474 887.177 118 113 98
-87.7169 170.01 861.804 91 110 99
-402.807 47.0103 1508.93 177 156 143
-37.6808 3.06336 1212.86 102 103 91
-202.663 145.618 937.073 208 227 227
82.2664 362.317 1009.32 229 164 152
58.4491 264.925 942.815 85 105 91
-539.968 9.89555 1302.8 69 59 51
-114.783 90.7637 855.32 178 163 160
-110.8 193.757 776.25 63 70 59
-371.05 90.6049 1586.54 138 127 118
83.2921 384.407 1077.97 245 179 167
33.7354 283.309 974.626 42 12 0
-76.765 246.093 856.687 108 100 104
-375.046 38.4498 1614.46 97 98 90
59.2785 313.68 990.15 16 47 51
-94.3322 167.285 823.506 74 88 81
-86.0627 15.3775 1050.9 145 96 80
19.2176 316.449 973.152 196 157 145
-478.449 55.0343 1578.6 217 194 174
-151.448 110.163 868.349 117 150 142
-575.986 559.718 1849.47 180 181 174
-582.212 112.401 1442.49 123 96 86
-578.131 14.2085 1400.34 173 170 156
-520.039 16.823 1340.6 149 122 106
-401.906 45.8285 1740.25 80 75 70
-430.384 79.723 1604.61 104 96 90
-555.817 105.496 1548.23 152 152 157
-53.3092 307.466 892.512 232 211 197
-279.843 133.065 995.803 142 143 129
-618.354 123.651 1536.95 191 168 157
-566.796 85.0645 1375.62 210 190 175
-70.5198 302.069 837.517 191 171 151
-169.931 58.1695 992.12 143 143 136
-1308.41 -500.97 3217.17 242 246 241
-334.074 301.283 1295.37 167 160 144
-107.581 303.486 882.65 97 93 91
-38.5757 345.867 982.113 60 32 22
-8.39268 247.805 839.774 167 156 146
-488.1 335.83 1448.67 202 186 170
-129.019 48.4482 1095.71 207 191 178
-528.484 124.081 1323.38 215 199 185
-612.89 7.222 1384.46 255 251 231
-607.717 93.4759 1538.94 74 67 56
-430.633 275.709 1323.69 70 79 79
-90.3124 165.433 824.164 146 167 158
-493.164 305.838 1442.18 209 194 181
-46.7117 307.884 893.682 210 186 170
-119.842 281.585 896.354 133 127 110
-165.332 100.6 896.481 89 122 115
-627.349 100.528 1530.87 181 163 148
-137.187 200.875 824.766 83 76 67
-60.16 195.101 898.118 119 116 114
-557.875 508.358 1744.3 83 81 75
96.2183 270.988 954.975 17 40 45
-120.701 66.6302 989.668 164 119 106
-114.332 178.545 820.222 144 146 141
-103.124 295.368 843.441 205 204 196
156.171 323.162 1038.45 142 100 85
-66.2939 337.502 860.283 177 159 145
-117.668 288.38 896.797 114 106 91
-542.036 69.0406 1465.07 223 216 211
-186.784 73.299 998.05 232 183 171
-42.3041 305.943 894.406 82 46 24
-267.078 348.176 1169.92 116 117 115
-66.3753 40.1571 913.447 217 201 195
87.0005 421.12 1126.1 62 36 29
-481.301 406.934 1623.76 241 239 230
-392.884 76.0254 1425.92 166 154 154
32.2935 186.726 936.051 114 53 27
190.847 415.268 1095.08 111 95 81
-109.203 59.5515 953.982 242 220 220
67.1869 416.967 1122.6 133 133 130
-102.369 181.18 822.437 96 93 91
-567.381 16.1706 1291.45 174 139 102
17.7689 217.685 902.17 118 36 13
-66.6898 43.3773 983.395 86 92 91
-367.294 21.2441 1525.22 144 137 125
-196.804 107.09 870.106 49 78 68
-111.655 62.1853 1014.08 158 132 133
-434.771 361.488 1443.41 215 214 203
55.6974 267.538 977.731 143 139 123
-76.3266 45.6495 981.661 162 112 102
-190.563 144.312 832.122 225 228 223
-435.271 263.1 1256.97 145 124 105
-108.377 189.007 821.564 72 70 65
-193.044 -359.532 2062.57 212 209 202
-224.096 218.32 957.325 255 252 243
-107.227 6.49435 1074.63 211 213 204
-135.982 48.5734 1070.23 238 199 177
-78.9708 -9.73162 1127.38 116 109 97
66.9567 321.481 934.603 145 145 143
-161.165 53.0867 1081.77 114 78 67
-316.921 28.1299 1326.87 200 196 186
-144.523 54.1762 984.271 123 58 39
75.5111 356.079 1122.99 43 78 75
-125.473 59.2921 988.429 163 147 138
-419.149 249.902 1260.01 57 63 54
-272.73 113.464 996.876 142 147 131
-136.166 203.968 816.828 215 211 200
112.356 290.647 1010.49 111 105 107
-88.5432 68.5067 890.18 251 232 226
-92.3605 86.8957 837.7 132 131 136
-399.532 36.8316 1473.55 169 142 124
-101.889 315.112 853.725 245 248 239
-88.2319 55.2046 957.911 237 214 197
-110.959 4.50222 1210.81 104 99 96
-138.665 76.5522 1009.04 164 151 141
-186.678 158.701 833.362 225 228 218
-199.601 120.082 902.216 206 237 232
