352.699 102.792 955.187 25 27 16
-326.54 93.0363 1121.43 255 244 227
407.798 234.841 964.072 246 254 252
-435.847 167.88 1230.54 85 57 36
413.347 244.829 965.726 220 221 220
286.287 -41.4543 876.85 239 241 237
242.044 -72.591 949.57 221 215 210
-445.286 349.732 1263.75 246 242 236
-476.487 359.997 1319.14 45 45 46
-411.014 113.97 1133.96 56 29 26
-261.038 408.39 1345.25 183 182 180
-465.844 6.10059 1092.68 253 249 237
-411.128 149.034 1177.57 88 61 48
-343.63 67.6434 1138.29 254 250 231
331.063 44.5203 948.302 189 183 176
339.69 102.11 937.234 102 103 88
288.296 3.86386 910.199 205 196 192
311.233 376.318 1103.1 56 92 93
-430.783 180.464 1233.64 105 107 97
289.561 -51.9709 892.086 248 246 233
-456.385 6.11506 1096.08 224 213 198
-455.785 335.63 1257.91 233 229 221
-473.314 485.239 1533.74 59 56 58
184.012 -116.213 1050.79 253 246 245
227.766 59.8857 956.973 255 246 240
-465.217 178.614 1285.97 81 58 36
-318.656 130.99 1150.72 96 53 27
-426.239 130.721 1170.71 91 62 45
146.549 145.722 1006.39 249 246 243
171.595 -144.232 1088.95 78 72 65
-413.313 24.2754 1062.81 123 113 100
328.236 13.6502 870.414 224 229 222
-449.581 264.424 1195.94 88 84 84
-382.812 179.913 1189.89 79 66 53
-421.849 304.025 1205.97 231 233 205
-438.681 308.818 1207.31 252 250 239
409.873 193.35 982.192 242 247 242
-321.14 122.267 1149.31 212 191 173
277.203 -60.3703 834.755 227 229 213
-343.164 478.165 1267.08 102 110 107
-288.237 25.9801 1266.45 211 185 161
206.671 104.941 992.391 255 249 235
251.901 -88.0378 916.87 68 68 64
-382.519 515.6 1385.01 38 38 33
296.842 -103.15 951.893 166 184 185
394.235 184.177 947.281 241 248 239
-264.57 266.832 1157.19 132 96 80
171.784 -133.724 1089.92 37 41 44
-238.485 87.3041 1287.57 164 163 160
358.186 1.87328 945.908 247 255 253
242.791 -13.7088 890.545 214 199 193
-325.055 77.0533 1070.77 255 254 211
333.904 71.3337 968.251 255 254 232
295.938 -99.5891 919.546 155 166 164
277.695 -88.0792 902.786 197 215 208
288.485 361.617 1059.29 56 88 90
353.945 34.4705 902.835 244 255 242
412.734 206.087 983.103 242 250 245
-176.901 295.152 1291.76 49 44 33
-436.178 23.2662 1157.96 142 70 49
-376.995 104.128 1221.19 75 28 13
215.071 -69.5615 914.776 177 164 156
357.159 115.916 879.315 234 247 227
-461.869 390.761 1329.27 54 43 29
233.312 149.205 981.654 233 214 205
184.047 168.381 1030.94 218 200 199
-428.192 141.06 1147.18 248 237 216
-425.792 190.722 1191.06 252 232 223
-370.761 163.047 1372.33 108 68 48
397.246 193.152 981.143 231 242 233
-597.476 55.1728 1215.97 249 220 213
-274.584 236.844 1150.51 153 109 83
-376.206 111.587 1015.31 215 192 174
-533.196 118.436 1188 150 136 124
270.618 -86.387 918.596 216 220 216
-294.916 399.204 1299.39 221 226 225
296.625 -43.3712 893.242 238 245 238
-249.95 242.005 1299.07 164 142 134
350.829 -6.23569 930.883 240 239 232
-323.669 116.528 1148.11 101 61 42
406.17 249.033 987.414 213 230 220
196.738 336.708 1153.07 68 67 56
356.469 -28.5308 898.624 248 255 239
366.129 23.9382 934.204 214 230 202
-317.781 106.271 1114.28 184 154 129
333.519 -5.80887 865.095 214 223 208
-379.417 555.018 1457.92 56 61 56
375.56 124.931 958.811 216 222 204
213.403 52.0767 990.031 238 224 205
131.333 130.97 1061.87 255 245 230
-597.908 64.2119 1216.89 212 217 220
120.174 29.2473 1013.83 248 242 240
-396.607 200.207 1186.99 108 110 99
-438.585 232.468 1302.23 130 131 132
452.313 353.554 1159.98 215 232 223
253.751 -9.7939 922.486 99 86 87
155.131 -95.5455 1049.01 52 52 42
404.025 80.7253 940.872 219 226 215
-290.277 300.906 1292.24 255 240 230
-242.981 183.78 1295.66 174 144 128
399.993 481.498 1210.42 114 138 175
145.65 -92.8633 995.378 227 223 222
-246.687 64.7077 1348.62 175 165 151
259.005 -83.9861 917.798 120 113 104
309.641 13.9876 898.12 173 180 169
233.842 160.26 997.359 222 215 206
101.535 -44.325 935.593 158 136 119
-226.311 87.5918 1291.16 148 148 144
182.525 -97.3052 1012.81 223 165 148
235.99 -13.7097 889.913 210 191 178
228.194 144.18 980.695 233 210 200
-395.257 125.868 1052.18 179 159 137
-506.332 7.79902 1168.93 153 140 130
-287.904 67.5153 1312.56 77 61 49
-301.652 267.536 1285.63 238 207 174
-366.226 154.656 1167.99 83 60 40
135.878 33.6474 1033.51 204 194 195
80.27 -45.4509 982.922 83 85 77
374.291 30.5203 888.59 187 205 176
-484.886 329.502 1369.02 226 229 213
418.824 482.302 1212.7 187 225 247
213.885 -108.297 1097.29 40 46 41
202.541 -124.66 1012.83 244 185 174
216.421 62.139 972.892 241 224 214
-343.952 84.5694 1139.44 250 237 226
197.325 -100.786 1034.55 169 174 159
355.151 54.5867 935.503 205 214 200
294.186 -179.035 1192.94 192 196 187
217.968 55.4244 920.637 198 175 165
438.416 -203.638 1092.44 36 35 24
-243.507 219.55 1298.89 182 148 133
-437.999 149.201 1227.89 255 247 221
-459.98 315.885 1200.2 121 119 104
-300.887 181.131 1159.78 253 239 222
-489.402 569.703 1675.37 170 172 168
216.463 169.891 1017.3 85 85 77
-456.078 237.311 1185.29 129 103 105
157.518 -58.7526 993.046 169 157 137
-205.621 39.8678 1193.66 50 50 35
-500.114 338.444 1364.18 132 122 112
-354.38 89.9562 1136.56 247 221 201
-436.037 112.683 1165.68 245 235 217
-375.278 -10.8793 1122.5 195 174 144
-242.852 359.386 1212.79 190 182 160
129.567 -60.3863 972.421 168 164 145
211.274 169.778 1016.65 169 177 170
197.337 331.698 1107.38 81 81 74
-325.089 -17.3145 1116.01 181 159 142
120.676 25.7827 976.619 123 116 107
236.705 16.428 955.251 208 190 188
115.685 94.9746 1017.14 255 249 244
209.859 -111.787 996.461 115 96 77
209.044 192.264 1056.72 220 207 202
224.234 118.32 1117.97 255 247 236
-283.22 73.3347 1272.68 160 152 142
-254.602 -21.7625 1336.2 62 59 51
228.653 57.1603 992.114 150 126 118
279.138 200.156 1059.36 147 121 104
-625.725 76.6018 1273.14 243 238 234
141.546 -83.7813 972.305 186 177 162
-242.755 353.18 1212.24 249 236 212
344.241 12.7605 885.282 203 212 190
384.899 14.688 934.831 217 226 203
-221.544 361.165 1347.84 201 205 197
399.79 469.959 1142.15 43 63 92
128.484 87.4758 1018.57 234 211 204
-386.795 584.27 1520.18 233 236 231
182.915 237.833 1056.64 91 91 76
-395.879 88.4268 1213.85 251 243 224
-303.638 191.248 1177.81 242 212 190
-206.017 48.1502 1176.52 43 22 9
-434.08 349.025 1206.9 255 252 239
-284.482 314.434 1295.25 154 114 98
430.365 137.216 997.736 229 239 218
-322.527 447.217 1461.7 83 79 66
-423.496 199.933 1193 148 142 129
384.17 451.704 1412.1 115 140 142
269.558 75.0602 1035.77 231 214 195
145.745 52.6636 981.565 255 252 255
-383.409 152.847 1222.51 152 129 113
113.023 84.6788 1016.16 246 244 235
367.04 54.6798 920.092 231 245 217
359.11 376.45 1177.75 97 129 137
-618.171 27.8456 1203.14 237 234 217
220.03 6.02833 968.475 207 183 166
225.728 -2.59565 920.193 81 66 54
-304.227 371.395 1441.42 170 113 88
-353.555 47.6133 1133.69 255 225 182
191.784 242.281 1019.3 223 226 195
-314.488 43.0398 1145.41 145 135 123
-451.514 563.273 1587.13 113 113 104
233.299 190.008 1059.6 217 198 185
150.185 -138.536 1131.84 166 164 150
109.717 88.7143 975.576 144 126 121
171.264 13.2019 947.661 169 164 151
-262.28 67.5698 1278.51 133 115 109
-507.451 14.6848 1130.6 253 242 226
-484.369 246.207 1178.99 141 131 128
487.314 456.862 1197.4 88 119 129
287.774 -162.588 1099.53 73 77 68
270.226 -10.1299 924.001 80 57 58
148.956 135.506 1005.96 197 196 196
258.559 -5.37712 923.234 156 141 134
181.401 -155.684 1134.2 150 149 138
279.033 280.495 1072.37 237 229 206
247.817 132.784 998.909 221 198 194
510.195 477.02 1222.27 99 126 125
402.726 387.368 1113.54 92 103 128
357.378 106.437 924.024 230 249 241
151.238 97.0256 984.796 243 219 201
-244.701 71.8162 1326.01 48 32 21
-498.247 105.377 1142.05 255 223 203
-465.224 540.927 1779.78 164 156 131
344.207 -42.5937 867.769 249 252 232
-207.282 61.5453 1246.93 70 67 61
175.202 39.2899 933.455 224 200 179
165.56 116.114 971.139 236 226 205
-369.729 89.589 1131.62 245 233 224
289.306 268.019 1049.45 234 232 209
284.034 92.5152 917.102 255 252 230
-243.269 203.29 1297.43 77 41 23
395.896 142.189 961.764 232 248 224
-227.894 72.628 1404.47 5 6 4
-265.254 216.272 1359.81 164 140 124
446.273 540.856 1326.7 50 80 95
287.031 1.02185 926.262 127 120 118
-365.256 237.669 1262.11 152 109 87
-441.626 130.182 1165.2 162 143 119
193.415 115.767 1069.85 252 235 204
293.521 204.34 1067.85 167 135 121
-293.503 -5.3315 1261.71 163 158 153
283.96 145.591 1003.72 243 221 201
-435.459 225.933 1120.18 174 162 159
226.667 268.831 1128.08 223 220 200
199.239 246.423 1059.52 217 216 194
426.42 412.846 1174.46 236 250 242
-316.395 213.49 1087.98 246 235 218
138.554 64.687 1018.64 238 238 239
-472.445 259.395 1186.01 255 247 239
-550.385 101.318 1292.68 254 250 241
293.514 361.073 1141.86 112 132 136
-306.248 57.3183 993.536 236 212 165
236.619 153.62 1036.97 243 216 200
-365.032 228.061 1261.27 175 136 120
-540.132 206.904 1259.34 238 225 202
-317.486 325.094 1244.15 155 141 131
112.353 47.1094 994.169 245 245 238
88.8663 -52.6266 1004.09 32 29 31
229.122 172.863 998.152 229 191 177
384.583 347.299 1131.92 216 211 207
207.979 175.541 1075.6 220 191 170
378.943 110.399 969.668 245 254 253
-359.332 557.408 1440.97 166 174 167
408.333 383.535 1110.27 95 115 142
-414.622 78.9265 1206.86 205 189 174
321.832 83.6347 967.974 252 252 230
214.786 14.4088 952.762 184 164 146
-467.96 200.026 1122.03 182 168 151
266.609 174.142 987.228 216 193 179
-396.157 107.774 1245.39 255 243 234
408.768 216.585 968.926 196 201 196
-353.283 13.6473 1081.3 210 187 155
308.72 -165.798 1110.13 129 130 131
148.807 125.227 1005.17 233 210 198
-550.397 339.011 1423.5 173 142 127
-228.469 243.309 1305.55 42 27 13
-221.006 190.716 1444.48 141 111 97
-449.627 267.661 1139.85 255 246 240
-598.958 187.792 1359.16 179 167 138
90.1991 -40.8742 984.595 50 43 40
-318.344 -7.43069 1090.47 143 124 106
174.513 74.4213 951.547 214 189 171
-351.232 135.834 1106.31 206 174 162
-372.477 390.6 1295.24 187 187 174
355.257 440.572 1157.18 116 146 149
237.164 99.2285 978.152 153 99 73
-471.124 231.087 1198.4 255 248 240
224.181 -78.3776 915.029 117 151 137
140.634 40.4678 980.169 250 243 238
216.115 188.924 1010.64 141 122 99
341.59 -147.465 1023.14 27 79 78
167.111 -99.3126 1010.86 192 185 170
131.972 -127.814 1025.67 99 103 94
246.295 113.305 1016.08 165 134 130
367.349 61.6946 936.917 218 225 216
-478.205 8.89858 1093.26 223 209 199
229.177 -127.521 1054.81 196 180 183
419.905 358.03 1154.19 158 174 169
-515.244 224.908 1247.26 231 197 186
-527.414 169.827 1205.89 224 221 191
110.273 64.5222 1014.56 245 240 236
-533.103 129.639 1141.2 244 248 247
392.169 294.333 1062.97 239 239 218
126.038 67.0341 979.713 160 141 138
236.652 15.6006 1027.77 196 176 159
174.184 124.966 1013.87 244 243 244
205.411 -110.211 1014.33 157 115 91
128.406 79.7401 1018.11 204 180 173
324.186 222.002 1159.48 255 246 230
263.615 -86.2438 918.02 181 174 168
194.731 -46.5879 928.691 120 113 111
384.754 -13.3566 926.93 115 123 114
-272.486 183.55 1054.69 253 243 211
144.635 180.558 1046.91 118 104 99
-615.319 18.9048 1203.38 231 224 202
-320.699 -32.523 1170.47 132 115 105
-397.048 182.952 1286.24 186 157 132
-343.405 293.68 1274.65 172 149 133
-363.893 61.6173 1081.05 245 229 213
-309.987 305.912 1198.78 207 175 159
246.081 148.99 1078.94 187 163 154
-477.986 84.3188 1105.93 154 131 117
-171.657 187.455 1332.42 116 97 78
198.824 -3.79998 830.984 184 181 161
260.788 -130.612 1100.22 146 120 107
-477.572 272.768 1240.87 251 249 249
195.756 13.7691 887.416 82 62 44
-260.772 -20.7342 1270.17 83 108 98
399.254 305.608 1084.17 100 95 60
-487.185 245.909 1285.2 225 192 184
-376.698 58.5115 1127.06 222 149 122
135.545 27.8805 1055.76 74 67 58
-547.765 271.942 1343.69 255 252 255
222.059 -0.275297 911.105 92 71 59
-611.029 292.346 1568.33 145 90 82
-219.831 194.521 1371.38 61 19 4
153.98 -74.7634 974.433 147 132 111
-578.91 126.417 1411.17 174 151 144
342.14 -38.194 867.937 174 183 156
193.778 -139.508 1092.04 87 21 6
288.583 92.7284 944.036 197 192 173
-338.534 -123.399 1364.57 99 91 73
373.57 378.165 1152.4 127 169 173
-555.656 262.647 1409.37 146 115 103
-593.573 114.785 1243.71 212 214 212
-514.06 216.203 1205.92 158 145 129
430.773 397.751 1159.8 139 177 175
293.595 -177.375 1144.05 124 140 133
192.833 -45.2251 898.003 175 172 169
-499.758 104.546 1199.93 240 232 231
-298.839 206.259 1188.75 183 152 127
186.225 -2.91549 931.402 122 104 85
335.288 266.236 1054.66 242 241 205
205.703 -82.3095 945.217 149 158 141
265.454 246.9 975.107 183 179 151
160.421 198.175 1132.9 144 115 104
-513.786 265.77 1251.43 254 249 248
422.71 460.464 1191.36 208 225 225
329.7 -5.9465 898.336 164 184 159
-571.746 222.964 1337.47 182 161 140
105.496 42.621 946.393 177 172 167
155.924 226.252 1051.94 129 121 109
-468.333 366.548 1262.72 148 145 133
416.094 367.763 1112.51 151 188 179
