-386.691 236.235 1395.15 11 0 0
-360.749 104.934 1387.18 245 229 216
-437.479 101.447 1415.88 210 198 187
147.736 -31.6931 992.359 7 6 1
-444.566 118.596 1434.4 255 237 233
9.9506 -8.32526 985.389 255 255 251
-118.817 78.3259 884.65 224 219 208
75.3203 200.079 899.104 191 160 152
-434.531 108.624 1417.81 26 5 1
87.4264 456.95 951.947 48 57 47
18.6444 -33.0081 1097.16 239 234 229
132.571 -28.8234 920.625 20 20 13
-415.838 245.159 1439.85 219 191 193
-87.0984 -4.31809 1095.96 8 12 12
8.17465 235.631 842.27 254 254 244
-465.713 75.57 1501.14 246 237 230
-462.313 14.646 1268.04 206 194 182
-401.438 110.574 1373.02 240 228 221
-50.7136 58.0892 871.731 4 29 28
137.704 -29.2541 991.13 214 228 222
71.0426 227.619 931.341 197 186 179
-560.742 467.512 1629.08 105 102 104
-405.896 109.465 1428.71 181 169 164
-16.5572 46.3763 922.102 252 253 250
-468.975 445.938 1533.04 231 235 221
-400.162 257.96 1638.21 211 189 174
95.3876 265.702 915.713 203 187 177
-470.571 14.5749 1264.79 170 163 143
-79.0533 -1.61591 1097.75 252 214 207
79.2367 265.022 913.302 175 169 162
17.7261 -12.5001 1076.05 81 84 86
-462.233 511.895 1496.15 33 41 34
-42.2486 99.8464 804.011 181 185 176
-384.113 108.928 1524.9 221 217 210
-442.544 -7.96599 1341.15 171 153 141
78.0709 512.387 1055.87 82 97 93
5.02391 -19.5724 1095.43 254 251 237
-80.8732 -10.7347 1079.1 250 246 243
-482.183 33.1539 1262.38 208 194 170
-368.078 247.042 1278.83 179 160 151
-482.096 338.175 1453.3 252 243 226
-461.987 5.26866 1267.07 156 147 135
40.0717 -30.0252 1015.14 192 199 192
11.2985 249.511 885.635 63 60 55
-90.2479 98.5027 822.084 222 217 212
61.7675 -24.6436 1033.53 236 253 252
-85.673 66.0177 879.182 70 77 74
-3.16298 -35.4589 1093.01 227 213 203
-383.621 388.825 1431.87 100 105 95
-217.749 190.905 1084.46 189 188 187
-397.473 236.02 1557.99 188 174 160
-507.7 132.713 1264.16 255 239 213
-88.0555 -11.3474 1041.5 58 51 45
146.77 492.623 1037.26 84 116 124
-407.852 263.188 1471.04 245 221 203
-506.774 38.7837 1304.15 181 165 139
-102.565 294.971 1027.53 249 239 233
-45.094 24.7624 1002.74 121 75 63
-82.0355 70.0816 891.199 236 232 233
-115.613 82.8794 874.241 80 70 67
-72.9793 10.4571 1081.81 241 215 207
-519.344 78.0785 1380.64 190 178 161
-421.387 273.249 1467.38 207 177 163
149.794 295.065 1004.09 154 142 134
-29.3885 132.345 782.051 255 254 249
-490.098 26.8181 1258.46 182 163 133
-561.974 158.837 1422.07 252 241 216
-92.8362 24.2204 955.749 41 30 22
-352.547 99.4122 1466.85 115 88 77
-109.932 38.7584 1075.48 73 74 59
-415.332 241.342 1529.65 123 79 65
-81.5988 111.447 797.795 222 228 225
-488.498 191.326 1350.21 47 47 25
-213.277 195.46 1073.96 101 99 100
98.8121 223.617 923.923 223 214 195
-294.374 376.119 1622.18 171 164 160
-373.928 22.5035 1371.27 162 192 187
164.267 307.807 1034.84 154 141 134
-349.059 50.1586 1442.68 54 54 50
-473.709 368.855 1461.18 158 123 105
-147.502 76.825 968.572 149 145 137
-452.14 339.602 1384.31 244 242 222
-520.2 37.0473 1184.83 108 88 65
202.779 109.981 1089 55 33 19
-188.833 141.251 909.9 241 235 229
-10.8866 194.12 828.925 194 199 184
-460.012 333.081 1393.15 146 126 108
34.936 365.606 942.398 241 244 231
-488.12 110.786 1339.13 22 11 10
14.9766 263.391 872.734 125 130 118
-40.9393 104.736 779.564 176 180 162
-338.192 210.341 1348.49 70 51 43
-463.414 313.9 1376.67 153 124 109
-101.391 301.478 1010.45 231 210 200
-75.6853 85.3129 780.72 131 147 149
-2.63121 -16.4164 970.434 195 189 172
-6.09555 155.965 852.263 120 122 117
-141.265 73.3999 889.348 142 117 117
-541.249 33.7342 1305.9 38 25 17
-187.671 190.816 1003.23 160 152 154
-79.8105 59.2642 911.562 126 162 159
-534.211 109.036 1300.39 240 230 201
-416.919 286.209 1559 128 99 86
107.701 222.508 970.297 181 171 160
1.49505 212.8 805.682 94 93 80
76.0148 240.329 955.215 145 132 117
-80.8964 156.329 871.147 203 200 185
23.4448 116.743 869.389 33 45 38
-83.5174 90.4635 812.474 38 51 49
-57.1388 8.9856 947.089 253 214 206
-573.72 210.593 1518.81 251 236 204
-545.899 32.0126 1235.96 153 139 126
-107.537 286.974 1026.14 241 233 224
-12.5836 122.565 844.215 152 142 131
-394.231 -5.94837 1169.86 167 154 138
-101.066 205.5 924.216 255 252 233
-520.407 91.148 1398.25 189 181 178
-69.9 27.8205 972.14 147 132 118
164.587 500.514 1094.37 182 211 228
-409.812 97.2348 1618.45 153 125 105
10.2898 250.402 842.933 254 255 250
4.2868 225.858 848.663 209 208 195
186.515 161.856 1030.86 52 51 49
-411.642 237.51 1206.81 205 181 158
-460.069 109.425 1280.13 141 142 137
-468.405 257.737 1376.15 113 99 69
-428.955 396.61 1482.41 237 232 221
-59.2733 33.4203 1022.98 127 100 90
-827.123 -102.238 1544.48 192 196 186
-522.248 106.161 1324.28 126 112 93
-490.217 175.024 1276.28 251 246 220
-475.472 151.987 1214.47 248 228 212
-373.306 287.267 1418.2 158 137 122
-54.8224 18.2296 947.959 215 194 190
-104.215 58.9631 906.973 195 217 221
-608.379 561.941 1838.23 122 121 115
93.8102 211.475 946.763 189 177 162
-59.5047 31.5661 947.763 213 191 184
-498.355 217.75 1349.91 139 107 87
-102.991 86.0652 828.425 155 184 176
-342.803 29.5163 1383.38 76 78 72
202.792 203.43 1076.58 150 138 131
-34.3226 128.069 806.093 226 226 210
-373.108 91.1352 1624.43 106 97 89
-86.4498 100.639 891.265 120 129 117
-438.979 204.893 1190.99 234 219 205
-2065.18 -188.292 4051.65 138 141 134
-117.707 196.822 943.692 255 252 238
-825.141 -108.938 1533.29 104 107 97
-123.429 190.888 919.566 239 233 216
-2027.14 -214.256 3956.39 156 159 153
-553.574 128.147 1372.3 203 183 158
-511.237 189.109 1396.98 183 166 144
-416.778 55.5793 1505.33 149 128 110
17.1686 274.402 873.333 252 254 233
-45.7502 162.682 831.752 245 250 249
-19.4597 -16.1592 967.574 227 195 187
-395.565 52.1785 1574.07 62 51 54
-408.05 271.821 1269.9 218 203 194
-493.212 235.234 1354.38 172 145 127
-589.381 123.982 1447.56 154 132 112
26.8768 336.562 907.16 231 242 221
-451.575 274.927 1303.11 255 254 243
-84.7883 94.4682 831.77 75 79 69
-175.408 298.561 1119.88 253 253 252
-127.408 288.612 1021.81 233 213 203
6.69494 13.2978 994.756 23 64 75
-454.214 268.192 1301.31 174 159 142
22.4705 333.879 928.539 249 255 244
-566.297 326.849 1503.59 167 171 165
-52.0172 -20.5542 1102.59 199 141 120
-459.24 103.076 1166.03 23 12 11
49.8812 408.597 953.49 252 255 238
-115.817 38.7028 989.519 245 173 169
161.636 312.837 1100.51 49 60 57
-675.184 36.4264 1393.45 204 207 195
-216.645 169.791 1026.46 70 37 37
-24.6559 40.7584 763.763 196 192 182
-5.19048 -4.32115 1065.75 204 175 152
-653.621 118.175 1410.95 151 145 147
-538.481 518.531 1648 198 203 194
14.3125 106.844 839.297 52 65 55
25.6602 15.3554 961.467 52 114 108
-90.2173 259.454 951.577 193 179 178
-116.885 86.4274 854.615 176 159 156
3.83598 285.487 891.842 248 255 248
-524.786 91.0673 1252.1 255 221 179
-119.879 385.026 1117.5 243 246 227
28.2913 431.298 967.378 250 249 227
-103.036 141.498 878.774 120 116 104
-138.49 30.9865 1068.81 249 247 246
-59.8785 313.848 959.194 183 177 168
-462.027 314.014 1464.03 247 231 230
-463.612 91.2796 1162.32 39 33 10
132.607 269.892 954.475 152 155 150
-2049.73 -223.902 3962.42 166 169 164
-612.019 351.878 1582.62 245 250 229
-400.319 377.14 1408.06 224 214 197
-34.273 -23.5536 1110.59 73 43 38
-37.6668 19.9067 1003.89 244 212 208
0.03546 -5.49402 1164.36 104 90 73
-583.558 175.181 1383.87 163 139 118
259.739 277.647 1172.1 85 58 49
-147.436 190.094 988.254 243 242 234
149.165 508.095 1090.71 108 149 167
-375.33 -12.2814 1440.69 104 106 88
22.1933 172.256 833.247 38 26 23
-349.313 36.3759 1382 139 141 139
-418.716 218.462 1201.07 184 169 147
203.158 573.299 1241.67 60 77 76
26.7446 186.304 887.628 144 135 142
-163.662 90.5476 947.394 138 142 141
-40.3023 149.827 805.808 239 246 228
-4.52459 273.26 869.854 254 254 251
-192.266 198.901 1032.71 254 249 249
-39.7403 159.216 847.15 170 172 154
-104.41 361.224 1073.18 183 183 176
-169.323 94.1333 907.714 191 178 158
15.0211 322.114 895.054 240 246 238
163.499 216.569 1044.44 35 35 22
-149.263 232.414 1014 252 248 225
-64.1993 94.5512 782.813 230 237 215
47.2471 -33.721 1079.47 72 75 67
184.623 188.823 1046.55 114 100 91
203.313 164.177 1091.52 126 122 114
-62.9595 -26.1102 1205.4 77 57 41
-38.8414 185.49 861.825 252 252 239
-690.248 105.871 1453.3 255 252 248
-458.998 197.031 1236.07 121 92 39
-71.5949 279.416 955.935 228 216 207
-39.6009 173.246 833.071 220 227 207
-34.3413 168.19 807.188 248 255 233
-88.9409 445.656 1106.59 222 222 216
56.3603 286.245 910.51 147 132 121
-46.9387 406.739 1043.63 207 204 187
-1254.86 135.631 1961.42 194 194 189
-124.348 146.05 906.497 135 128 113
24.9593 4.82827 1014.31 59 111 116
-35.483 163.075 833.451 243 249 233
-472.155 234.428 1302.04 239 227 209
-826.738 -115.574 1521.87 195 200 191
14.7972 385.506 984.726 223 233 225
-405.514 316.763 1567.65 168 150 130
53.851 368.997 945.58 73 74 62
33.5457 200.215 956.257 110 96 95
-47.7903 154.233 831.196 208 223 206
49.602 -29.072 1058.13 180 183 181
-28.1887 213.815 864.448 250 254 244
-18.9577 211.637 837.359 247 254 235
-41.7867 418.978 1044.36 228 222 198
1.58743 269.6 861.308 222 232 206
-51.9103 187.596 831.3 210 212 194
-546.513 330.888 1654.22 94 68 63
220.282 238.121 1022.77 148 113 98
-677.644 106.078 1406.35 255 250 246
-561.27 52.7655 1299.74 166 145 108
-631.507 102.106 1586.98 82 72 54
12.6357 133.564 868.38 50 67 67
-612.984 -32.3095 1188.2 121 122 114
-177.483 178.739 993.197 233 226 224
-428.576 182.394 1140.07 254 249 198
-34.5876 196.326 862.878 251 254 243
-676.593 92.2132 1404.03 239 232 224
-431.57 386.635 1343.74 225 222 217
-76.8285 284.775 992.49 170 156 149
-555.577 86.4535 1381.88 35 18 12
-2053.48 -140.107 4129.83 94 98 88
-499.431 93.6581 1199.07 197 167 126
141.705 193.221 939.473 36 32 25
51.539 534.54 1160.07 224 237 219
22.9778 2.57063 977.038 102 147 149
-598.001 225.688 1470.07 254 247 237
219.463 233.682 1014.16 89 53 37
