7.2545 -40.8399 1165.83 139 115 106
497.711 -225.361 1437.29 241 241 235
8.40105 18.9891 1116.25 12 0 0
551.925 -167.594 1528.05 255 247 244
-0.761779 405.679 1313.2 248 242 239
-53.8034 349.434 1130.18 226 210 195
589.426 292.212 1702.71 230 252 255
-3.32189 -34.3725 990.618 218 199 186
-81.8007 43.1445 1098.98 60 36 37
-9.09046 -35.6133 1140.2 154 132 125
-59.724 33.2655 1085.9 56 10 10
-52.9763 382.871 1238.96 255 246 232
107.913 119.019 1283.63 61 31 18
656.263 -59.6525 1631.8 255 244 238
15.6341 21.9127 1123.81 72 32 15
48.7159 124.783 1160.36 82 33 23
51.6066 -26.1342 1103.74 73 22 17
534.288 -161.145 1453.41 231 222 221
-1.06718 409.917 1171.54 58 58 49
520.428 -46.5755 1473.91 74 69 67
396.848 99.8587 1734.46 46 43 38
-44.6696 369.03 1184.33 93 75 68
652.908 -29.0218 1720.04 255 246 252
44.7006 94.2318 1211.39 167 122 98
-9.42587 356.441 1191.25 208 210 202
57.4772 -39.186 1126.32 108 47 20
-74.8686 60.2236 1063.49 99 100 91
49.0899 120.255 1187.24 245 231 200
65.5934 -30.8797 1230.06 144 53 34
50.1386 -34.6341 1203.93 66 35 31
37.278 131.849 1185.9 105 59 30
50.6859 76.3225 1211.46 56 12 10
109.495 163.505 1201.65 82 65 62
-6.59806 278.856 1187.34 250 243 243
28.3461 119.829 1183.24 255 247 228
-6.13726 326.801 1139.03 246 244 238
-80.0732 60.1723 1062.41 72 61 56
147.823 417.883 1437.82 66 70 69
622.135 -52.9047 1734.43 253 248 250
64.2299 156.28 1192.9 250 253 250
602.009 227.408 1691.42 16 55 62
-20.2092 360.207 1137.75 87 85 80
616.586 -24.0563 1555.93 242 228 224
-96.5245 42.8799 993.81 117 100 90
538.271 -133.906 1531.98 170 155 149
-950.106 -134.391 1714.25 224 234 224
594.008 -9.34587 1643.44 214 205 204
733.47 244.86 2029.52 229 255 255
-44.6736 401.81 1186.03 195 181 169
-82.8749 139.566 1066.51 106 85 76
-6.50251 335.651 1190.72 252 247 234
605.539 163.206 1678.79 26 29 24
-12.8258 323.484 1162.62 117 105 103
562.016 -58.8569 1606.55 196 183 183
575.949 -160.446 1531.37 223 210 217
-38.9415 440.925 1209.06 174 164 159
-114.616 23.1318 990.133 255 223 196
-120.353 32.828 1073.1 245 191 161
44.6755 88.2086 1211.02 254 242 217
602.591 60.2968 1655.1 206 193 172
-67.8225 124.856 1088.44 106 80 67
-59.2905 269.774 1124.95 135 108 116
603.378 -29.931 1556.53 255 250 253
-829.735 -99.0967 1402.9 167 175 169
-18.037 372.917 1211.41 124 121 112
560.711 151.649 1989.59 190 190 183
-13.1024 338.577 1245.14 103 82 67
-115.518 41.8273 1030.6 191 138 114
49.0203 108.474 1186.28 255 243 203
560.08 -29.9301 1554.17 242 237 233
-81.2731 251.813 1119.16 44 51 40
-53.9227 41.8938 1066.6 255 252 251
487.479 -47.018 1337.06 253 246 247
-6.66546 240.089 1184.86 119 75 66
15.0355 308.132 1215.99 221 218 204
690.403 -84.1585 1718.14 238 228 226
40.3043 143.802 1187.4 128 111 109
-62.1003 341.109 1178.95 230 219 219
-62.1065 347.035 1179.28 178 166 163
-8.8793 386.682 1141.28 109 80 61
541.328 -153.789 1387.59 245 233 216
-59.7406 52.1354 1086.81 154 105 91
67.2657 162.344 1193.94 137 127 115
558.658 -122.832 1535.67 134 122 121
712.94 -294.665 1601.94 231 247 234
54.4578 107.633 1160.54 100 56 18
-9.10034 235.4 1133.49 123 70 71
1.22877 219.181 1206.95 254 216 204
559.58 284.203 1631.94 49 64 90
16.7008 324.283 1220.16 240 233 216
-19.5663 66.3111 1074.85 255 242 243
591.969 -96.577 1542.79 255 246 230
-22.3945 288.03 1239.69 102 84 81
41.9631 169.636 1215.12 255 249 250
-77.4474 49.6534 1062.31 255 250 251
-44.3183 260.268 1150.79 126 110 101
492.286 -75.4592 1466.68 191 157 141
585.253 -77.5909 1545.08 231 211 195
460.173 -53.5661 1334.84 193 168 167
-107.234 66.9781 1005.52 202 133 121
-108.531 67.6795 1056.84 237 154 141
-112.222 95.6463 1125.72 253 241 230
565.838 -134.161 1534.59 237 233 235
651.598 69.3271 1783.26 88 77 63
-67.6723 202.02 1169.18 253 239 209
-96.8802 62.4279 1079.54 157 96 90
119.752 23.1083 1263.68 255 244 233
-27.5445 -25.8272 1089.26 231 209 187
-15.2923 388.967 1191.73 130 129 138
460.052 -276.226 1501.75 208 172 160
-34.4021 91.4622 1142.29 254 225 206
61.1602 144.31 1191.4 190 165 145
405.864 -222.967 1433.5 68 78 70
55.4367 185.866 1193.47 149 131 125
717.715 -287.067 1603.65 87 105 90
-37.4553 27.0898 1173.71 255 246 231
643.37 -22.0089 1559.86 134 118 98
555.866 -103.979 1538.28 249 254 243
544.006 -103.9 1537.13 201 196 189
586.213 -62.3436 1547.46 247 238 240
689.644 -213.326 1519.23 244 255 242
-95.8942 144.553 1064.01 119 96 88
-88.169 171.384 1067.15 255 244 227
-44.921 274.743 1201.99 124 89 80
723.635 297.806 1801.73 120 139 139
-93.3605 165.884 1065.74 84 73 58
592.073 210.055 1687.25 89 126 138
-59.7994 281.705 1145.26 173 165 168
-58.7587 312.874 1104.61 121 116 112
-114.732 158.72 1180.72 48 22 15
48.4669 181.669 1246.5 106 90 77
-61.9415 211.052 1171.06 251 224 189
-47.8646 296.734 1105.85 128 126 125
-100.009 145.02 1108.68 248 246 249
-62.0279 247.023 1123.12 247 239 218
36.6374 167.07 1125.88 148 138 121
-38.8298 288.997 1181.1 252 234 231
106.486 18.0969 1242.2 254 233 232
-56.1792 208.344 1172.15 148 139 115
-61.8779 108.136 1069.06 124 91 82
656.42 -152.288 1491.85 223 222 200
101.697 5.7824 1240.83 254 244 231
779.1 -221.533 1712.36 239 248 228
148.564 78.0092 1314.08 245 236 214
54.9031 386.827 1226.6 128 120 103
-120.586 102.189 1076.19 81 38 26
-48.6822 60.5697 1068.81 255 249 246
-25.7517 262.691 1167.62 254 254 246
522.124 -284.498 1589.32 63 39 44
-198.114 10.5423 1152.05 160 138 118
92.0533 139.14 1251.17 192 151 133
74.7748 366.227 1265.18 250 251 217
-86.8852 214.978 1209.68 227 236 221
103.756 -87.6722 1178.17 236 224 204
543.318 -141.421 1453.57 228 218 222
412.358 -236.756 1431.58 103 99 101
24.1587 317.778 1218.2 182 174 154
684.734 58.7023 1660.14 249 248 215
426.099 -241.525 1482.12 152 141 139
5.20234 273.464 1189.46 169 143 138
-1797.79 -251.7 3286.09 120 140 133
599.745 -267.581 1515.81 153 145 140
530.299 -182.25 1234.71 217 211 203
639.687 266.786 1701.88 141 169 171
2.0948 207.853 1184.48 166 154 149
-27.1805 233.214 1180.08 128 86 80
73.5044 544.853 1307.07 161 183 175
667.729 -27.4521 1639.69 218 190 178
126.735 7.36242 1220.74 253 249 225
521.783 -14.5492 1554.66 151 141 141
603.353 -104.214 1542.61 251 244 214
609.877 -282.021 1402.3 149 182 195
572.83 229.759 1845.72 61 88 88
-24.2382 263.115 1182.62 167 171 161
-31.4861 314.887 1152.31 229 183 159
-44.3961 415.441 1162.58 86 61 41
590.068 -69.9669 1633.19 114 89 87
13.0577 309.623 1340.34 236 217 209
-60.4275 242.461 1114.93 161 82 63
515.454 -10.1396 1480.15 142 136 133
479.229 -104.093 1460.53 129 103 95
-75.0087 185.283 1211.43 249 219 191
-33.059 11.0015 1162.29 168 109 86
591.81 199.013 1775.95 73 92 98
-28.5339 126.118 1281.06 188 139 109
111.252 44.0918 1191.84 255 238 216
163.151 153.835 1324.74 238 228 206
-65.6173 43.2635 1102.36 251 243 243
636.598 -66.0528 1638.19 230 212 217
35.5176 69.9073 1131.08 253 217 199
726.67 -189.277 1601.42 237 243 218
-51.6958 11.7381 1086.46 197 129 97
-101.54 93.2504 1050.01 119 53 39
49.5151 -35.3828 1058.16 164 109 95
127.038 71.2065 1310.97 201 141 116
-19.2255 35.4076 1111.47 255 242 227
724.527 298.483 1905.25 118 145 146
15.0129 409.694 1255.58 124 102 75
-26.3069 -0.23619 1062.25 213 144 120
-62.9634 202.429 1107.31 241 210 184
44.9785 269.367 1146.02 187 184 168
-19.962 111.911 1178.88 240 225 191
617.153 -165.013 1369.74 185 192 168
577.177 -11.8416 1474.37 118 94 80
111.452 61.984 1193.46 255 244 235
-105.297 117.274 1105.73 245 246 245
686.108 -130.229 1630.96 252 250 239
-3.43349 255.587 1135.79 250 242 242
-31.6078 117.42 1176.57 235 220 173
635.345 252.842 1600.24 146 161 163
80.2821 209.644 1275.5 172 151 131
100.79 32.9979 1164.6 239 171 158
-56.8052 -47.5041 1266.12 99 75 58
-18.5539 107.006 1172.86 253 226 208
651.909 21.2689 1650.45 250 247 222
-87.6005 84.7706 1009.87 146 70 57
-105.225 101.608 1146.36 147 65 49
-25.8783 302.797 1133.77 255 200 180
-61.974 234.535 1172.61 158 101 84
49.5966 580.165 1367.85 55 78 66
82.7743 2.63582 1088.35 243 195 184
-19.9311 -50.3448 1041.36 3 28 42
735.601 -182.011 1624.63 166 171 147
173.778 246.404 1512.37 255 246 212
-92.5964 159.884 1010.51 189 153 130
20.6198 18.3602 1283.76 255 246 232
-51.031 378.038 1132.09 56 35 27
-39.2634 21.7632 1045.05 209 142 134
35.3317 387.585 1229.52 94 88 61
-21.5664 -3.35435 1163.43 195 131 100
630.209 -79.4485 1547.23 203 178 179
517.414 -137.577 1451.69 174 146 142
-90.3022 12.8281 1057.37 225 191 188
501.939 -57.4073 1311.43 236 220 211
-73.3997 242 1029.42 141 135 129
-27.4791 -23.8875 1121.91 235 212 187
3.83705 418.396 1244.55 154 131 107
-37.5192 321.032 1208.18 245 180 153
894.281 352.928 2202.77 166 176 174
-8.89302 71.8523 1077.24 255 254 247
732.026 -3.68778 1844.32 245 227 203
