364.868 104.812 956.128 2 1 0
310.701 -57.8805 907.299 240 228 226
423.855 248.421 986.008 237 239 233
437.313 240.145 1023.51 247 250 250
447.546 248.066 1045.87 247 252 250
-483.011 379.543 1234.63 252 253 248
-426.801 173.249 1119.16 89 57 35
-481.691 361.372 1190.93 100 104 93
-363.548 170.481 1088.46 100 78 64
-549.764 142.606 1125.4 94 84 75
-439.575 591.384 1441.29 15 18 14
226.536 54.0629 970.377 245 249 247
371.816 1.71733 947.825 63 76 75
212.079 -0.699314 951.591 207 196 169
443.193 231.611 1036.41 238 246 242
203.164 -94.4468 1015.52 236 225 222
201.845 -111.391 1111.41 255 250 247
-257.372 387.161 1186.8 229 229 220
267.869 165.93 1056.76 200 178 172
189.778 166.218 993.572 239 225 219
-385.126 244.268 1228.3 66 50 33
278.464 144.743 1057.29 254 248 248
508.124 498.828 1278.03 18 41 45
-546.999 131.31 1125.44 84 58 60
236.678 16.2771 955.282 252 243 234
-517.308 380.545 1289.14 241 242 232
297.441 -82.9932 936.845 233 245 245
-428.137 128.119 1115.21 111 78 60
-438.042 133.416 1112.2 212 191 170
-317.147 112.119 1051.36 255 246 219
-434.454 184.264 1117.4 109 101 83
232.71 56.8316 936.799 254 237 232
-453.735 155.679 1139.66 71 45 28
-339.746 134.6 1144.58 223 204 174
-439.053 172.76 1114.91 114 75 58
194.351 -110.837 1075.52 255 246 244
245.89 151.364 983.262 207 182 172
-419.052 159.401 1120.72 96 60 35
-459.855 333.219 1195.64 252 251 228
-500.399 305.149 1236.34 87 74 73
-418.336 37.8143 1062.13 124 33 19
376.551 476.448 1156.25 54 99 121
-366.16 239.318 1162.58 67 59 45
-500.122 333.709 1223.68 112 94 69
-437.048 189.734 1116.94 243 233 216
433.563 201.378 1020.97 236 246 231
-443.473 144.465 1142.4 120 87 71
-346.972 70.4892 1086.99 244 229 206
342.883 47.266 933.964 157 161 148
-468.096 334.468 1174.22 246 241 225
-512.093 16.7734 1138.24 226 219 206
-258.097 195.069 1230.23 190 165 146
-461.487 16.9956 1046.1 230 223 207
-502.067 346.02 1291 249 255 236
274.481 191.438 1005.14 63 40 28
140.754 32.5147 1017.05 241 238 232
306.916 -87.4204 937.422 206 218 216
-433.302 596.298 1444.31 180 185 180
389.31 405.136 1222.97 78 106 110
334.874 425.159 1228.33 27 56 71
-452.631 135.802 1107.28 231 212 184
-464.967 463.704 1338.57 65 63 63
-339.716 75.4793 1066.59 253 248 233
256.69 64.5305 995.751 238 226 220
-225.257 350.928 1385.91 9 5 2
224.287 172.053 1018.44 253 247 245
152.462 -60.4929 992.42 177 176 164
391.092 6.88248 984.573 215 234 232
-279.153 81.3338 1214.38 173 160 157
376.644 125.977 939.499 216 233 207
171.321 53.2159 1000.15 255 254 252
221.936 109.23 994.559 255 249 225
-408.861 525.973 1299.22 89 93 85
313.172 7.11343 928.832 185 184 180
318.141 -99.8258 971.949 177 199 196
-342.312 157.531 1175.55 255 249 220
-448.401 158.244 1110.53 255 250 225
-355.463 88.247 1135.39 230 212 184
-437.598 442.764 1278.58 208 207 207
364.67 57.0903 920.02 227 236 219
301.597 149.884 1019.79 251 228 212
-283.789 298.165 1173.34 255 250 226
236.584 63.9579 971.941 231 207 202
255.997 -73.4529 981.402 204 180 168
-408.983 38.279 1019.32 149 93 86
234.645 197.769 1039.18 100 84 56
324.528 -62.2696 908.219 218 215 204
361.539 24.7228 915.537 220 234 221
440.304 356.101 1158.45 215 226 216
325.223 -2.06947 991.28 190 187 185
356.48 471.835 1258.85 67 97 96
-357.328 100.104 1085.71 244 228 206
-488.993 409.113 1255.14 62 48 45
138.682 92.6743 997.127 131 87 81
162.917 153.957 1027.27 216 210 211
-426.997 601.344 1447.32 71 76 71
153.715 37.7972 1019.14 227 224 225
310.225 -91.3543 921.284 71 95 92
-295.167 341.792 1262.17 227 205 194
-332.811 111.807 1093.95 121 91 67
221.791 181.211 1077.76 227 208 197
403.574 396.738 1137.25 29 45 57
430.184 259.81 1035.93 203 208 200
290.213 -85.1426 936.059 189 194 194
-268.489 79.9076 1277.86 157 152 147
416.637 168.847 981.169 240 255 235
302.516 392.311 1221.39 93 114 117
286.618 -66.6975 971.022 214 222 216
-439.054 216.304 1208.47 238 237 237
378.055 61.3627 951.186 212 225 220
283.396 -42.38 808.022 73 78 79
-591.124 87.7717 1103.14 253 248 241
240.564 58.8392 1063.01 237 235 224
104.633 -36.4752 917.547 100 93 90
-279.8 282.746 1141.77 121 89 64
260.311 18.2174 1030.6 228 226 214
404.737 169.508 992.846 234 245 223
324.394 96.1428 1020.2 245 243 224
-432.434 201.375 1119.43 253 250 233
187.272 124.107 1004.9 255 250 238
-359.676 94.5296 1084.63 115 94 79
-491.454 390.992 1232.76 220 222 216
284.62 -3.50716 939.738 55 49 42
421.636 244.928 1022.45 177 196 183
-349.978 260.772 1150.83 114 106 99
300.806 190.746 1061.6 216 186 181
429.372 152.126 1017.47 219 237 212
360.803 325.614 1059.82 182 178 172
-343.213 100.851 1043.1 199 152 130
297.015 344.836 1420.96 207 208 179
-362.534 253.615 1175.18 142 120 112
-425.87 204.075 1097.39 146 145 138
-588.116 68.955 1102.6 252 235 224
96.4116 -33.8421 940.737 53 55 51
-329.814 163.753 1149.83 242 225 201
-600.352 83.9872 1137.86 156 149 143
-331.329 334.11 1183.64 118 95 87
198.691 0.300194 930.73 181 171 147
185.844 -91.1332 977.048 196 153 124
-390.027 147.135 974.557 234 205 184
-349.082 507.254 1212.15 198 208 201
-385.001 173.001 1163.27 105 69 52
-301.878 180.94 1078.28 190 160 143
234.282 174.236 1037.86 166 149 146
308.301 2.48956 928.107 57 52 50
-290.412 80.8908 1210.96 156 143 135
-476.657 21.661 1070.1 120 103 87
246.068 182.977 1001.42 255 249 241
217.953 267.048 1107.84 215 219 188
165.589 159.204 1027.93 95 95 96
388.515 295.538 1021.82 232 231 200
-352.476 254.939 1149.61 253 253 247
216.998 53.4305 980.165 96 88 69
-467.027 230.159 1075.31 247 226 223
-329.49 287.007 1127.13 236 225 222
225.27 176.464 974.157 215 196 186
388.663 -5.27718 948.796 220 231 206
296.872 77.2739 965.204 219 211 186
-367.515 -3.49801 1054.85 232 200 184
-334.577 355.48 1220.14 125 97 82
-590.569 74.3259 1102.07 103 93 85
-533.05 59.6143 988.933 135 92 77
175.255 228.83 994.403 196 198 188
417.886 203.571 1019.83 183 205 181
-508.285 304.342 1233.07 102 81 83
168.396 144.614 1042.72 230 226 234
-256.692 100.295 1222.63 154 148 145
-287.448 267.666 1138.17 191 150 125
268.314 -84.6759 918.567 73 97 95
413.811 23.5211 952.221 217 234 209
160.545 41.0499 982.947 228 203 197
204.51 103.5 935.067 242 234 202
-541.716 301.103 1244.11 255 249 244
303.757 279.472 1074.98 252 255 233
-525.472 272.32 1162.69 150 128 130
226.225 -107.555 1037.74 105 64 45
-488.494 258.715 1159.9 137 128 120
196.451 15.1545 965.169 182 174 164
-258.437 199.032 1292.45 173 147 132
-510.864 117.68 1084.62 255 235 219
397.17 451.325 1157.87 254 253 255
-390.333 68.719 1041.7 154 100 68
-278.702 90.9285 1341.57 101 100 93
194.542 47.7144 900.111 193 180 155
-366.499 297.95 1237.87 215 207 200
-1269.93 313.195 1928.23 84 88 79
141.817 106.12 1061.96 242 225 218
401.581 477.039 1189.7 201 232 236
-265.88 377.77 1207.84 221 200 163
-416.341 200.804 1141.27 255 249 242
288.165 78.1919 1037.99 217 186 167
362.483 16.5579 902.112 250 254 235
351.25 73.3601 969.79 207 199 179
-271.206 240.4 1292.46 183 153 138
180.272 -56.0145 996.236 150 149 135
450.381 369.18 1176.02 99 132 124
414.849 431.737 1159.14 231 255 255
-265.605 220.607 1254.06 84 53 34
308.787 -55.8362 797.308 154 158 147
-256.932 105.836 1283.9 126 130 124
-330.751 66.7827 1022.63 243 233 207
-350.829 1.14413 1014.38 181 169 138
252.563 -115.298 1040.22 116 86 72
405.243 233.501 985.399 164 180 168
317.212 99.4475 968.521 247 238 216
149.413 83.8641 1037.72 211 187 177
204.351 118.338 1071.49 233 195 167
-306.647 317.325 1102.57 222 212 206
-531.515 269.122 1204.84 172 175 171
254.255 209.608 1105.28 208 193 174
195.175 248.695 1077.73 98 97 87
389.803 279.852 1006.76 248 238 202
-496.964 287.596 1128.4 173 140 135
313.219 -91.271 1025.35 118 115 112
260.81 18.0589 972.713 189 169 157
-343.023 -10.8767 1111.18 133 118 94
-404.625 201.375 1184.46 178 155 135
-494.701 385.675 1197.92 97 98 84
420.566 101.064 956.254 217 225 205
399.014 18.1291 918.116 232 241 224
208.77 92.7132 956.759 203 183 147
259.855 176.292 1056.12 58 30 25
330.763 354.388 1100.18 121 148 158
-315.961 -0.884349 1023.97 128 109 83
-462.254 13.3224 1000.12 113 107 100
-429.812 29.4964 1086.23 145 89 65
-422.867 112.105 1173.55 141 85 62
370.077 37.0763 904.048 226 247 222
323.001 9.7814 955.407 144 144 134
361.93 43.1519 916.376 206 223 200
353.391 -139.495 1048.56 39 85 88
-566.417 393.796 1344.47 143 140 127
153.888 -81.4237 974.116 171 172 161
339.83 367.545 1127.71 120 143 153
240.142 182.83 1021.15 241 207 190
394.462 412.937 1260.74 165 196 215
322.743 184.699 1048.7 185 171 155
224.563 -50.7944 1041.16 175 174 153
353.173 361.931 1105.82 103 137 138
-532.311 90.1023 1228.86 159 133 126
-271.806 98.9025 1278.71 144 135 129
251.416 146.811 1054.02 167 134 121
126.253 89.7659 981.091 144 127 118
-485.179 99.6242 1056.05 249 255 249
286.429 198.175 1019.54 201 182 150
377.473 332.601 1086.72 194 200 188
-319.296 49.8062 1093.95 167 157 142
-309.587 219.973 1160.12 213 187 160
-351.697 59.5406 1084.84 248 215 169
400.608 193.184 980.544 171 189 159
-246.927 233.565 1146.89 159 138 121
455.628 235.556 1024.7 153 150 133
-330.3 102.469 1070.54 237 207 188
-353.217 159.903 1142.24 168 144 128
141.635 52.6502 1077.57 226 218 212
-360.2 4.16358 1044.05 253 246 220
343.762 77.7861 936.044 140 135 114
268.364 225.86 1018.08 123 120 113
-299.472 258.663 1165.95 208 175 147
312.046 279.75 1075.92 254 254 239
130.424 94.9622 1007.18 243 225 213
363.772 36.3303 918.009 152 167 147
300.222 187.243 1007.75 164 140 122
-561.565 337.155 1312.07 235 206 190
385.05 304.444 1061.47 202 202 181
-301.978 37.6369 1215.92 158 137 125
285.178 -13.1877 973.755 183 173 163
220.633 45.9668 1045.79 233 188 159
341.185 170.343 1132.67 151 132 108
-249.142 253.916 1257.37 84 63 55
313.629 210.566 1010.39 253 253 240
-376.382 78.0931 1078.32 255 251 247
371.034 466.874 1161.07 143 183 192
207.433 251.399 1061 208 200 178
-302.913 41.7097 1206.76 97 80 66
-514.57 298.227 1214.5 251 248 240
155.645 208.669 1028.96 96 82 66
-285.263 23.6211 1244.22 162 144 122
-399.512 97.4831 1099.66 179 116 104
-235.034 355.992 1228.64 204 218 197
-487.572 112.542 1092.89 244 226 224
-311.124 274.283 1131.64 169 131 123
-363.737 133.485 1134.91 253 242 219
-280.906 387.799 1268.92 178 136 115
196.243 -45.7408 939.918 149 141 125
-256.85 265.418 1320.46 140 127 120
433.947 214.262 1021.77 160 166 161
-593.455 157.007 1167.05 254 249 249
408.798 18.7036 951.598 193 215 187
-459.312 68.3744 1062.99 171 129 110
360.239 335.798 1217.66 232 215 188
-531.272 67.0411 1106.14 233 215 207
269.643 74.7253 997.802 236 207 182
252.553 -10.7809 883.326 79 65 52
-463.772 104.943 1100.92 166 164 167
-422.147 184.743 1121.64 155 133 116
-294.502 372.462 1297.16 192 145 118
-410.147 139.15 1178.99 129 85 66
152.666 185.241 1048.46 117 105 99
-427.079 116.501 1064.39 239 196 183
-267.834 63.4577 1087.04 156 132 119
140.912 65.2714 981.779 253 246 241
-372.576 -23.1697 1277.85 133 112 98
488.609 471.332 1235.42 78 105 118
-271.912 220.747 1246.64 143 118 101
342.287 87.8078 984.12 237 235 212
-446.412 247.571 1234.69 181 161 152
-357.114 70.5194 1018.26 255 252 239
276.681 3.63262 973.426 112 101 91
-384.233 67.8471 1102.81 169 136 116
212.867 86.3745 1018.54 211 196 162
291.441 247.524 1125.11 227 225 222
231.916 253.161 941.433 182 171 149
412.293 394.256 1137.93 98 122 143
383.839 97.0644 894.865 223 240 205
248.461 -53.3653 1043.85 165 144 137
156.694 68.3931 1021.48 243 238 235
-233.117 183.659 1066.71 155 134 113
262.787 185.697 951.085 254 245 219
-561.765 209.526 1186.18 203 188 160
-359.389 383.283 1179.41 151 139 120
-557.327 221.861 1189.35 250 243 215
284.379 -1.84511 886.719 175 177 175
437.343 224.187 986.172 64 59 42
296.402 50.1349 953.527 186 162 146
147.584 -46.0468 992.509 146 139 113
248.286 264.404 991.351 107 87 64
-249.459 202.217 1409.3 69 44 29
-514.227 289.032 1213.65 191 174 174
194.941 137.512 1046.21 230 228 228
-451.823 104.943 1105.2 183 172 165
-273.095 4.05489 1268.96 51 41 35
-594.192 131.961 1320.5 165 163 155
148.919 65.1846 1013.2 152 134 137
291.84 -3.44151 940.444 166 159 158
320.707 85.6703 1031.68 221 214 193
301.281 200.39 974.154 171 168 163
531.81 428.303 1362.65 120 148 142
-594.746 123.864 1143.48 243 236 230
-587.474 37.1117 1047.79 208 197 181
360.417 -64.4326 943.249 140 151 136
-547.861 237.047 1171.24 157 153 130
283.596 79.818 1027.28 156 135 107
270.654 283.806 1047.77 134 114 96
-537.99 230.205 1152.09 162 147 122
-336.819 -23.2643 1133.89 148 123 102
212.028 -66.1511 929.218 117 112 105
