237.998 -73.3969 930.943 255 244 232
369.965 138.64 1049.98 10 22 14
255.917 -78.839 984.319 115 114 103
281.522 -85.2322 1063.34 226 243 230
193.713 179.315 1118.31 232 220 216
-380.985 264.367 1029.52 68 40 36
-291.445 428.868 1120.24 198 196 184
150.334 154.962 1066.46 255 250 245
-598.623 203.569 1021.3 45 33 23
303.785 -114.319 1022.49 196 210 209
-515.792 413.273 1058.92 108 108 103
-458.913 175.943 983.893 221 198 177
168.482 -96.3884 1049.91 255 242 241
373.262 -3.06569 1038.59 245 255 250
365.72 88.1748 1045.83 95 103 86
262.687 378.352 1165.73 227 255 255
451.314 226.166 1151.23 202 199 185
373.552 4.64571 1039.32 236 255 253
-569.828 560.723 1314.05 31 33 31
310.346 -57.9923 955.923 222 229 220
-450.096 217.232 1000.48 97 75 56
-513.004 63.2938 984.936 218 213 203
450.909 214.554 1150.25 224 221 220
299.098 492.814 1303.96 47 75 83
-462.297 217.218 1029.73 249 231 211
-449.911 246.748 1036.95 254 249 232
-414.508 123.514 1119.89 255 253 235
-516.662 310.38 1029.53 104 102 96
-509.018 423.637 1081.67 215 215 208
-482.077 218.227 1022.78 255 244 227
128.181 98.5277 1059.53 127 112 105
371.103 475.295 1232.5 46 61 80
-335.51 150.396 1218.18 198 203 198
-318.366 369.889 1139.19 242 229 207
250.113 376.466 1138 29 63 75
171.894 256.071 1143.07 255 255 232
267.911 385.654 1216.59 207 230 240
264.712 159.971 1147.01 249 240 234
-347.153 235.729 1069.89 252 249 225
-550.832 696.019 1416.71 83 88 83
463.761 249.621 1174.14 214 216 212
-438.71 536.567 1099.71 57 59 51
139.81 181.714 1066.42 232 220 220
-468.071 200.06 982.747 234 222 205
-438.505 174.644 950.532 89 71 43
-486.8 382.837 1006.02 202 202 194
-454.867 250.771 991.819 129 121 117
409.133 110.436 1069.63 247 255 250
80.9167 -27.1267 967.495 60 57 55
-392.199 129.033 1074.24 255 245 225
-521.21 63.1179 981.922 216 202 193
-435.888 110.047 986.751 81 41 25
386.33 -8.10909 1039.08 244 253 238
-472.484 348.391 1007.18 232 232 217
240.191 144.812 1056.41 210 182 175
-381.395 277.481 1030.71 242 228 205
302.249 -116.358 1062.11 181 199 203
210.17 163.522 1034.36 210 199 189
226.802 55.2173 1029.2 244 238 220
150.527 47.3223 981.755 255 252 251
335.013 455.604 1379.1 124 158 151
358.896 452.462 1204.14 240 254 255
400.654 -46.6122 1036.35 102 113 100
-544.928 387.266 1116.04 235 226 207
271.575 187.973 1084.71 81 58 45
298.88 -104.489 1023.05 222 247 245
240.897 174.195 1059.17 90 50 38
-592.485 442.668 1160.42 128 128 113
-363.934 130.822 1293.44 234 233 223
-414.23 448.079 1116.24 247 251 246
320.589 -93.7304 1186.77 171 170 168
143.525 35.11 1057.32 224 216 220
445.324 237.423 1171.75 243 254 244
131.386 149.294 1063.24 218 202 206
377.978 -50.016 996.665 246 254 230
-321.726 241.467 1186.57 222 197 181
229.926 181.398 1079.1 255 234 219
-364.446 129.406 995.308 255 249 232
128.31 155.535 1042.79 199 182 183
-289.006 267.795 1058.31 201 178 170
316.522 -69.8609 990.433 254 248 238
166.67 236.379 1054.48 233 240 223
237.759 172.348 1072.68 235 198 186
249.234 125.459 1036.74 254 247 246
164.159 -100.179 1091.3 246 184 167
334.001 81.7048 968.285 126 127 108
-489.358 65.1567 924.897 128 121 108
-483.601 200.217 1020.42 109 91 71
-417.461 122.577 1021.89 255 241 249
228.413 -78.623 981.683 141 131 115
130.806 93.2532 1059.57 254 243 238
317.386 461.308 1253.61 89 126 131
-375.604 322.799 1068.34 122 110 110
153.102 160.409 1067.2 88 87 85
122.976 29.3877 992.337 248 244 241
291.392 -74.2554 970.38 213 219 218
155.39 -54.5218 955.86 212 214 192
-497.445 291.491 991.412 110 84 76
217.863 134.25 978.582 255 225 214
-356.608 190.214 1045.18 250 246 219
-447.646 71.089 965.932 105 46 27
-598.825 120.268 928.32 228 227 213
182.439 8.32231 983.195 173 172 163
-347.35 125.527 1157.01 187 171 164
361.818 408.498 1342.37 95 124 147
147.542 -105.042 1088.66 236 217 221
-539.968 416.897 1132.33 224 210 196
119.147 -138.45 1207.83 130 123 118
100.791 -125.05 1080.44 229 223 208
-477.242 614.542 1241.2 181 191 184
227.904 172.23 1098.8 132 108 98
220.407 105.48 1072.73 251 235 214
281.287 262.22 1090.31 231 232 206
-307.825 362.591 1092.3 250 210 198
157.486 -58.842 992.67 206 209 181
-324.08 246.383 1233.64 156 135 113
-470.451 312.636 969.533 148 135 134
-372.565 380.903 1123.5 151 126 108
412.272 114.878 1114.29 218 238 225
-370.183 386.769 1124.91 86 55 39
145.436 37.4752 980.477 246 224 219
-398.951 42.7308 1001.94 226 199 166
-393.246 306.654 1089.65 138 122 120
-319.196 277.022 1182.29 215 186 173
-395.558 300.935 1088.52 249 246 233
-454.741 171.303 993.884 90 60 44
386.838 4.70547 1040.34 232 254 238
267.005 396.352 1270.74 103 124 138
360.259 24.4981 1001.86 226 248 222
303.759 -76.7191 971.395 166 163 169
377.349 35.7243 1042.44 234 244 228
-501.986 391.653 1092.76 215 213 193
-377.851 317.005 1067.2 231 214 205
-373.346 328.448 1069.54 204 201 197
300.401 423.207 1335.75 213 241 253
-360.989 171.701 1042.65 221 198 171
157.885 145.727 1087.05 167 164 170
87.5227 -86.0718 1081.92 76 73 71
-424.371 101.347 950.088 243 202 172
-401.317 218.568 1033.53 134 113 90
-319.458 317.111 1085.22 255 222 197
330.282 458.845 1255.28 92 131 138
122.643 30.553 1031.41 175 154 152
391.883 103.461 1027.23 212 228 208
287.487 -22.9423 991.811 61 49 39
211.594 -117.172 1170.79 123 128 123
378.334 331.651 1200.39 247 250 233
-317.535 345.572 1103.53 238 204 194
-417.746 157.898 996.657 109 85 70
-331.168 309.082 1108.69 251 220 198
128.117 111.5 1124.37 243 223 214
121.158 -127.833 1176.58 183 193 193
-387.497 52.9424 983.935 233 224 183
-598.083 193.201 1020.32 121 105 93
284.213 -96.413 1004.87 234 255 250
389.483 40.7597 1037.72 239 252 242
130.748 87.7755 1059.24 119 88 90
-392.577 90.7069 870.495 177 122 99
270.533 -95.5734 984.168 219 213 214
-347.327 243.745 1070.59 238 225 205
-501.819 285.732 992.685 215 172 162
279.255 -75.2428 1107.08 224 217 211
244.78 -12.9993 988.393 84 76 56
-403.191 332.102 1140.74 134 95 97
192.982 -108.091 1094.18 188 190 184
127.343 -58.4765 988.656 175 173 148
-478.186 344.313 970.912 130 119 99
263.795 60.7068 1033.79 245 230 216
-456.214 225.686 989.134 144 130 110
-304.797 328.551 1044.88 255 244 230
-445.754 80.6011 967.137 146 72 49
-397.615 149.135 1029.93 209 162 136
-461.429 233.956 998.243 221 201 182
-342.258 376.482 1054.15 168 123 112
187.29 343.816 1142.13 96 87 69
182.493 123.492 1069.01 255 247 234
-346.923 100.589 912.58 237 216 189
288.183 -18.4731 1029.8 93 68 66
199.529 169.714 1074.35 216 189 178
-293.686 414.31 1117.99 223 211 186
-359.084 288.316 997.743 223 216 219
-470.145 252.866 1030.45 240 230 205
-433.159 164.577 889.33 226 200 187
-336.884 65.3342 1089.42 219 189 170
103.305 -135.824 1173.04 233 221 200
413.124 169.638 1072.72 228 240 221
314.422 -9.23434 1013.38 171 171 157
266.185 63.1657 1074.94 246 220 204
273.223 171.531 1057.86 240 222 211
-451.87 175.025 1088.22 221 181 162
277.415 -28.8645 1027.91 170 151 148
-490.392 320.356 997.447 158 152 151
229.755 170.498 1078.41 98 64 52
120.12 95.7011 1058.14 170 146 159
-287.016 385.706 1261.64 57 56 51
-353.96 444.045 1084.9 182 194 192
-301.623 312.956 1027.48 166 138 117
259.964 -101.538 1019.82 84 120 123
374.289 380.421 1179.54 107 128 127
89.372 -41.3203 1064.17 62 56 49
114.991 -36.8836 988.127 165 165 157
-528.651 348.95 1066.41 117 95 93
350.658 58.7972 1057.75 233 231 214
-471.694 182.521 979.974 142 111 97
138.41 64.2023 1018.59 246 244 246
-419.724 150.264 995.417 157 126 114
-522.931 161.484 1047.75 157 153 151
292.81 139.376 1083.86 222 194 177
261.222 147.42 1172.8 241 220 216
354.585 -93.6544 1068.8 149 152 156
-439.767 141.476 1040.34 59 12 7
-470.559 201.122 1025.24 153 122 98
-523.411 150.121 958.264 245 237 228
-369.068 44.11 1241.81 53 50 42
200.506 -56.8891 998.208 197 194 178
-581.056 373.663 1100.28 163 141 138
117.687 48.8862 1014.63 239 235 228
198.117 78.2775 1067.86 217 196 172
-486.564 369.628 1010.48 167 151 136
278.947 281.578 1136.31 222 203 185
194.096 -114.794 1119.62 112 78 67
-404.016 133.469 999.348 238 226 213
419.493 182.27 1118.36 211 225 205
269.782 -22.7769 990.109 108 94 95
307.509 447.959 1251.64 124 154 159
-490.253 118.292 967.831 169 130 126
117.371 87.5946 1057.23 249 231 229
-376.807 134.357 978.05 239 212 183
-281.029 507.267 1463.46 31 27 18
251.662 99.4916 1064.88 159 143 130
137.677 -95.1495 1113.08 85 74 67
-612.618 132.326 1079.92 247 229 224
133.159 -119.434 1179.22 222 208 208
-376.104 175.401 1011.53 154 107 72
-470.46 225.981 1185.62 131 97 78
-370.697 133.572 1204.2 156 149 140
-458.481 235.684 1032.85 98 84 67
216.938 189.514 1057.65 123 94 75
-433.124 219.319 971.285 240 233 215
196.493 -126.558 1138.19 208 190 184
206.896 104.858 1026.39 151 99 68
-381.662 30.8736 1026.99 161 141 133
494.889 222.126 1205.83 213 208 194
-505.125 413.401 1010.54 213 209 199
333.256 -26.4278 909.126 195 210 186
413.56 445.984 1294.11 225 250 250
134.561 -49.1007 1010.22 151 154 131
-485.278 501.613 1221.65 99 99 92
-537.859 168.556 960.91 250 199 186
-317.754 287.314 1194.33 106 71 63
252.687 -26.6904 953.171 156 139 135
94 -35.6828 1005.47 137 134 132
-336.005 320.253 978.966 133 120 109
199.675 -8.80351 984.033 202 170 158
-482.673 313.552 965.052 255 252 251
-329.378 129.27 1217.68 62 64 58
368.319 490.331 1292.83 106 150 171
-580.863 484.557 1181.29 130 118 104
466.474 474.444 1332.78 112 125 129
-516.329 433.744 1080.16 176 177 177
337.712 -25.077 940.748 83 104 83
244.009 8.11698 1046.47 168 145 126
296.414 397.728 1275.02 114 148 146
117.002 50.7904 1054.6 145 130 121
-361.78 140.518 1013.38 190 164 150
219.639 -123.56 1122.34 126 102 85
-595.899 132.067 931.094 142 116 109
287.919 -144.031 1057.98 23 73 76
-346.625 322.896 1077.38 180 131 116
-405.539 106.057 996.711 182 134 109
316.905 148.158 1252.82 255 224 210
-410.082 113.302 995.786 238 212 196
-383.662 32.1304 944.384 210 193 167
-635.246 142.52 988.254 255 244 239
323.548 -86.6323 989.406 59 61 70
235.883 -125.147 1097.36 231 192 176
367.143 346.115 1225.38 246 248 238
334.805 29.4866 1000.13 163 163 149
-349.177 287.281 1272.94 48 20 8
298.682 281.346 1117.08 218 197 178
-468.711 401.844 981.96 107 101 99
323.388 99.5093 1104.05 153 154 136
187.845 247.577 1075.22 199 192 171
188.158 -164.543 1234.25 81 68 57
-375.446 74.6379 1242.77 177 145 123
109.37 -121.953 1175.41 94 82 74
136.605 133.267 1063.08 108 82 78
-563.257 295.9 1000.15 161 174 165
183.147 106.527 1046.08 232 206 179
-413.922 88.4545 924.69 128 59 37
346.57 72.3065 1083.95 254 254 235
236.779 -94.1855 946.545 190 237 227
292.553 76.6303 999.783 204 204 179
-507.853 64.863 906.007 182 177 169
82.1072 -77.9271 1081.76 66 64 59
-617.321 159.112 962.737 225 228 221
237.421 -158.544 1188.47 54 46 38
273.144 -12.3707 1048.6 161 167 152
94.9231 -126.458 1204.79 180 165 146
262.236 68.836 912.49 244 232 209
209.964 119.818 1163.58 242 225 198
367.339 34.89 982.272 240 250 229
410.982 337.792 1229.26 239 245 236
-576.109 293.361 1048.27 182 149 133
-547.96 304.236 1104.43 225 210 204
374.479 -96.3479 1002.89 183 196 186
-597.439 140.882 969.344 144 152 146
124.02 63.0914 982.149 245 237 239
-453.127 207.26 1032.14 178 136 110
418.387 59.9691 1047.61 233 240 226
-376.208 410.784 1178.79 214 154 132
243.841 -175.522 1280.64 208 213 214
-544.38 350.604 1071.4 255 246 244
112.505 -47.0639 970.716 137 120 97
-408.019 451.1 1134.57 227 225 209
-327.001 289.847 1423.07 85 68 59
250.198 -102.188 1040.12 196 200 201
-366.415 50.3351 1243.34 71 67 59
273.01 -99.2461 1021.26 94 100 107
-376.731 93.6077 1079.08 158 149 145
145.528 178.097 1110.99 231 221 222
-594.529 243.608 1027.49 212 194 172
-541.475 62.5691 974.391 92 84 78
245.805 -124.859 1144.15 144 110 93
312.374 -89.8276 1025.63 80 112 97
297.638 164.816 1064.43 168 148 139
456.835 374.925 1352.55 146 164 165
-537.288 136.394 918.812 246 226 214
395.467 75.3599 1008.65 247 253 242
-610.639 176.617 967.608 221 217 205
231.936 236.199 1110.4 236 233 227
242.346 -134.924 1124.29 150 111 96
-423.254 257.192 973.864 167 150 143
313.766 434.867 1197.65 101 138 150
224.268 5.05206 1004.42 101 77 63
272.841 111.314 1145.56 166 123 113
-557.102 318.482 1014.58 171 167 171
-544.413 339.731 1042.67 193 178 174
135.868 51.0557 1034.38 249 248 248
195.784 80.4479 1027.24 197 182 149
188.619 87.4994 989.016 209 207 167
389.899 15.1018 1041.52 196 223 199
230.933 -1.17665 1025.42 161 137 122
-352.024 198.328 1047.07 230 202 175
102.286 51.5065 992.909 177 156 146
328.759 -142.133 1133.54 53 67 80
287.117 136.778 1155.64 172 145 136
-316.954 238.778 992.63 248 237 192
216.219 -170.987 1237.06 72 89 80
167.646 -128.904 1134.31 185 117 102
-370.315 82.5759 1162.34 158 133 119
-656.201 451.877 1244.49 241 241 240
-388.855 170.273 1034.04 255 228 192
337.555 306.809 1218.38 217 196 176
129.987 161.121 1020.39 177 165 168
180.418 -151.888 1182.28 164 151 140
-404.164 226.826 1006.72 176 148 125
205.786 169.709 1049.17 97 83 83
253.955 236.042 1178.67 231 220 196
-504.001 152.065 933.844 228 213 205
236.109 -3.55321 1025.77 183 159 147
-530.038 127.617 964.271 240 228 215
357.748 -49.9769 946.652 249 255 231
249.362 8.176 1047.11 108 75 56
238.583 -95.7202 1081.47 128 165 147
387.243 408.912 1235.42 145 161 159
456.775 136.725 1143.94 234 240 210
232.046 230.876 1104.7 174 173 135
213.295 144.283 1094.25 205 184 192
356.287 380.58 1244.04 135 171 171
232.435 -0.829976 988.048 129 116 103
360.711 -91.1697 975.339 220 223 213
-544.823 113.116 951.53 199 123 106
-328.762 315.317 1240.09 103 85 84
237.131 -18.2416 987.307 188 175 156
