176.513 185.939 1813.84 33 27 15
38.4603 9.05485 1230.58 96 30 12
430.391 312.994 1989.86 52 66 60
48.6896 17.0419 1353.14 125 80 58
11.2083 415.754 1227.53 252 244 240
-13.9992 392.25 1158.61 130 103 91
355.789 -166.176 1671.24 199 199 193
433.418 -117.183 1914.21 255 247 239
287.895 233.468 2088.61 247 247 229
24.8946 469.061 1262.07 41 43 38
-28.1675 409.187 1247.17 253 251 246
-22.2123 416.59 1220.45 245 231 215
34.3388 466.636 1263.89 116 120 120
45.1794 449.193 1237.33 176 193 205
271.176 -182.356 1742.32 84 89 87
-17.5928 508.949 1385.56 229 222 213
-50.5801 83.7757 1116.55 88 79 79
5.71169 -10.4221 1256.35 205 192 192
-78.1385 187.493 1117.19 57 44 41
4.97159 366.37 1221.95 167 144 136
6.01906 445.676 1256.73 158 162 162
-35.6362 93.5111 1169.44 79 88 75
39.0034 451.763 1236.27 96 97 102
-52.0805 308.878 1204.46 135 126 120
-10.5385 474.004 1197.07 232 231 224
289.649 -179.721 1875.92 54 51 43
344.066 306.133 1975.89 41 70 63
92.6982 439.658 1320.84 108 106 108
-20.9211 393.42 1191.39 72 71 58
416.146 277.613 1868.92 223 243 251
-77.2783 80.0484 1065.72 218 151 125
-66.84 82.7105 1067.83 105 89 71
-14.3292 347.938 1138.49 138 119 125
-77.2637 69.6263 1065.16 254 204 177
-77.2685 74.8221 1065.44 172 97 59
-36.836 230.131 1127.86 233 221 187
42.6902 215.556 1248.55 188 163 164
-57.4854 177.854 1062.04 168 111 89
14.0995 59.8991 1151.6 115 78 87
443.756 66.8219 1955.28 40 12 6
-35.6513 76.4007 1168.24 106 103 101
-62.7552 101.196 1157.58 85 45 34
-1.93893 262.766 1128.88 243 198 180
11.3073 446.52 1230.12 126 108 93
369.206 -3.00643 1709.38 245 231 229
45.5286 160.311 1244.72 244 233 204
39.4217 184.628 1245.44 162 141 136
400.169 265.659 1820.46 233 255 255
-154.153 567.468 1510.04 172 166 159
7.88423 327.076 1218.99 81 68 54
14.0847 54.2754 1151.31 160 122 116
-77.3259 106.09 1067.09 131 26 13
352.445 406.127 2116.26 48 62 62
39.1805 135.736 1241.45 182 139 118
5.35634 480.839 1289.02 127 114 105
372.384 -23.6482 1705.19 251 226 208
39.3684 172.367 1244.47 146 96 73
-82.4464 59.1707 1063.62 228 190 164
406.093 30.3843 1721.2 249 244 236
396.044 -75.3781 1805.95 213 205 198
-69.8043 132.711 1115.66 254 249 239
-6.90859 262.982 1158.96 149 104 99
-32.6933 380.933 1188.25 237 228 228
22.2442 325.023 1169.97 220 210 195
52.6967 187.135 1213.95 236 225 216
37.5994 198.755 1212.34 237 219 204
9.9291 372.397 1190.33 255 251 245
-199.897 -16.2496 1292.84 46 39 31
340.295 330.775 1835.97 80 109 108
440.904 400.538 2013.44 149 166 165
405.749 -66.6342 1809.12 223 208 200
403.286 -15.688 1710.52 255 247 235
451.978 33.2125 1949.67 254 248 241
33.0396 147.76 1241.24 130 111 90
-26.941 316.556 1159.3 146 111 111
26.0854 -14.8523 1226.13 155 134 108
58.2633 203.665 1250.63 137 128 117
320.179 44.5539 1468.04 94 82 76
50.8117 158.781 1304.9 166 125 93
336.845 329.839 1675.31 99 121 134
-36.8302 160.872 1123.87 137 105 92
-53.1017 3.00124 1179.56 73 59 52
9.90539 366.454 1189.66 236 227 219
388.333 355.485 1847.46 202 230 255
-15.1959 16.1841 1196.65 255 252 229
459.223 422.449 2160.21 98 119 146
40.8809 132.908 1300.45 251 237 214
2.06702 421.291 1226.07 164 153 144
2.58551 299.775 1246.57 154 147 134
358.608 189.696 1571.1 84 85 71
33.1566 172.205 1243.25 254 236 219
406.282 -106.423 1690.19 232 207 189
-176.024 64.1297 1089.39 180 165 155
272.523 8.55374 1912.16 28 25 1
-121.077 118.621 1104.52 158 128 120
278.086 -216.997 1821.31 199 177 170
391.023 265.643 1819.87 108 132 149
-42.3832 196.64 1124.84 251 231 204
40.0794 112.422 1203.8 167 124 102
55.0247 185.017 1248.51 147 116 109
461.142 -16.2288 1806.43 152 142 133
40.9726 148.917 1301.98 255 245 225
402.596 -35.6793 1814.38 131 101 89
293.52 51.3928 1710.9 41 25 8
33.6752 379.138 1349.56 90 81 58
13.8993 312.191 1218.82 157 136 128
10.7332 272.653 1214.4 200 145 143
-8.8862 216.997 1132.52 72 43 41
50.912 174.855 1306.41 191 152 129
30.5551 369.595 1283.74 221 212 188
-69.5781 142.866 1070.38 196 148 133
-47.1391 104.769 1167.89 151 162 149
-22.7234 418.706 1154 210 207 203
301.858 43.1987 1710.4 160 133 114
-20.9142 200.528 1204.66 63 22 15
-55.9158 225.626 1174.17 241 241 219
-28.3981 160.136 1157.59 135 107 94
-55.295 6.19391 1211.87 97 75 68
30.0009 159.911 1241.65 255 247 227
-32.5532 348.295 1067.75 125 88 84
-186.497 506.84 1415.46 173 159 148
-21.2938 14.2824 1166.85 211 187 158
479.807 39.2528 1917.98 255 244 227
385.902 -15.2127 1565.07 251 239 231
352.877 -59.9705 1606.7 141 122 117
-76.3944 172.547 988.021 203 177 159
349.858 43.0775 1717.05 163 134 120
-74.669 114.958 1211.13 245 225 201
41.9398 -23.5069 903.617 253 238 213
-15.1334 297.479 1086.08 255 240 233
-44.2599 11.4221 1162.14 223 183 167
-15.3352 131.252 1176.16 254 217 202
450.941 348.215 2112.21 139 146 148
233.607 -143.43 1764.53 15 11 1
366.444 260.746 1863.25 88 114 110
39.4522 190.762 1245.94 254 231 218
25.0399 140.458 1269.61 254 232 209
539.471 -245.278 2014.22 216 217 206
39.8286 -37.3212 1283.55 103 76 48
295.347 -194.121 1657.74 99 96 92
-29.8061 365.433 1162.54 163 149 149
74.9583 70.949 1211.24 255 240 225
328.779 162.916 1414.61 135 121 93
-68.7638 146.157 1047.82 147 133 126
-211.726 95.5761 1182.07 81 36 16
22.1656 129.767 1202.26 181 145 129
-38.5448 11.4224 1163.24 116 73 57
356.81 -49.8908 1779.87 159 140 125
373.421 -81.5694 1692.31 156 138 130
418.346 -93.2755 1806.01 233 239 241
369.384 350.419 1844.39 92 126 135
-42.3844 304.588 1130.61 99 90 90
359.274 4.60538 1623.98 149 135 135
-69.7375 253.335 1075.52 174 150 143
441.841 -0.599123 1827.01 235 222 222
-26.9056 238.178 1180.98 126 92 82
4.80392 298.006 1270.8 129 102 83
-186.451 544.159 1498.63 14 4 3
381.776 -85.7955 1692.29 254 251 249
-175.344 243.088 1169.37 67 10 0
-12.0047 156.542 1204.45 193 132 116
-26.8415 316.766 1185.82 169 145 140
-50.1176 191.071 1173.14 173 126 108
431.814 -42.0973 1796.91 255 245 224
51.3722 449.689 1238.6 8 11 19
439.377 -61.2024 1703.84 255 253 227
471.234 -97.2388 2049.24 172 170 171
8.12007 252.14 1137 168 138 133
3.9014 440.542 1234.26 249 253 252
441.145 -13.993 1824.42 254 251 241
19.5997 -12.7533 1149.17 200 174 140
463.51 278.216 1984.58 172 182 180
477.58 334.133 2001.13 151 169 165
292.798 34.651 1707.24 58 35 12
-84.8781 141.31 1087.01 103 56 46
-8.09228 270.274 1171.97 252 230 221
419.015 -100.612 1533.75 243 244 231
281.683 -23.4201 1693.24 61 41 31
82.721 63.9132 1301.95 255 240 225
540.161 116.489 1945.44 253 254 224
486.098 -102.578 1785.6 161 167 138
371.217 -44.1387 1700.47 145 116 114
108.265 111.884 1555.89 255 251 229
-23.9156 311.015 1186.06 245 240 236
55.2078 230.752 1273.58 166 154 136
-28.3676 270.21 1170.71 181 141 122
-35.6213 127.886 1171.87 205 184 182
336.698 -197.251 1470.75 195 222 214
82.8722 191.11 1097.07 255 245 227
-3.70889 108.451 1176.86 246 254 243
344.117 293.455 1591.81 135 159 159
507.194 374.681 2159.84 171 185 186
373.975 -20.1861 1796.29 211 174 165
-145.508 78.3121 1145.11 127 102 96
-85.0772 67.7559 1210.15 250 225 205
-103.025 192.525 1186.96 91 48 22
-41.8814 242.821 1075.77 166 150 134
-31.2717 144.432 1123.99 152 113 115
86.9451 203.097 1276.26 186 165 157
378.58 418.547 1865.34 146 162 160
99.9492 108.527 1464.24 230 180 166
-18.352 62.4459 1170.68 207 155 133
90.8799 231.241 1319.47 255 251 223
333.073 -222.157 1826.51 215 190 190
481.371 58.2679 1923.75 255 252 240
8.28885 125.898 1234.51 225 181 162
-43.766 -4.08035 1246.51 149 122 112
-42.5132 268.266 1011.26 172 163 154
16.0885 235.207 1161.11 197 180 173
372.678 276.415 1972.53 94 121 125
461.57 208.701 1866.16 207 205 195
31.9667 269.811 1136.05 189 183 179
98.644 219.383 1236.71 203 169 152
449.591 374.909 2008.18 166 188 186
428.627 -239.093 1830.34 211 228 225
15.7141 256.186 1226.9 203 169 153
61.2723 44.0657 1051.2 254 239 229
482.831 -122.081 1957.92 229 206 184
81.2074 89.7896 1304.26 254 233 226
45.16 317.092 1317.56 197 185 178
483.448 -244.025 1832.36 107 118 109
-41.6572 16.6604 233.354 255 232 201
595.098 -47.8956 2408.03 202 168 151
530.473 -263.43 1982.28 202 208 184
107.585 238.474 1323.34 243 213 195
-71.6043 298.344 1257.02 213 213 208
