273.042 442.482 1882.81 216 243 244
49.6208 196.665 1371.07 55 41 27
-53.0064 466.841 1242.58 255 249 249
-50.2756 48.9441 1161.42 216 187 182
-42.1694 48.1743 1213.36 255 245 238
-17.114 63.6896 1316.86 86 37 24
-41.727 503.05 1190.18 51 56 57
-10.4948 63.6739 1223.87 66 1 0
-73.2735 581.185 1298.94 192 189 192
-46.8799 479.923 1244.62 248 243 243
-77.9387 430.868 1107.06 226 212 192
-127.264 232.515 1107.06 34 28 20
268.156 76.4194 1710.1 247 243 241
278.553 119.393 1720.64 106 99 99
335.554 95.0248 2066.6 92 87 85
-82.1636 403.164 1080.58 237 229 223
280.185 370.136 1870.1 113 125 120
-1.06643 267.102 1301.79 86 81 87
286.009 361.231 1836.68 66 106 130
-173.965 169.249 1141.16 207 183 172
-72.4952 530.572 1185.99 221 216 213
-118.866 152.864 1104.42 177 80 61
-64.5574 60.3012 1159.22 248 240 220
251.878 0.341356 1605.96 158 137 135
307.094 108.153 1816.99 255 252 245
-34.6004 402.561 1243.3 243 237 229
23.6141 496.043 1311.53 109 108 105
246.137 389.447 1640.35 179 214 217
-52.5489 540.035 1308.12 123 100 85
-4.00262 248.278 1240.07 255 253 255
-10.2391 201.536 1235.24 109 70 42
-105.187 352.405 1168.91 77 79 70
152.4 -96.5817 1571.03 70 72 70
144.807 296.839 1934.4 204 207 188
-50.4763 338.435 1180.57 135 131 128
-16.3163 235.335 1236.46 149 124 111
-23.6919 197.894 1290.91 114 71 48
-46.8738 445.439 1242.87 229 221 211
-82.5249 487.271 1180.55 39 20 11
-7.1057 235.721 1238.48 164 132 117
231.934 45.5795 1593.07 245 196 172
-50.2653 37.4492 1160.55 135 133 138
284.571 -18.0085 1652.35 255 250 248
-82.342 374.693 1175.35 126 120 108
235.986 25.5059 1694.15 173 144 137
-113.398 267.077 1162.11 94 79 67
280.83 35.9203 1795.56 239 208 196
-124.074 122.534 1101.4 163 79 59
-114.154 191.562 1062.07 142 120 106
230.137 -3.37073 1471.86 78 60 57
-121.544 112.27 1056.24 206 148 124
-16.2746 266.367 1238.7 137 110 96
-97.5623 228.394 1113.61 126 109 96
-85.1222 283.188 1112.79 69 43 34
-52.9887 429.291 1240.62 144 130 118
-210.056 571.621 1336.74 15 15 4
-20.4235 259.676 1296.84 247 244 233
302.342 59.5734 1711.9 254 252 245
-16.5552 69.7834 1372 255 242 240
-108.101 147.694 1106.55 147 133 119
310.819 299.3 1860.83 60 53 38
-38.6446 53.1354 1379.57 255 250 227
242.647 106.945 1542.09 215 205 207
230.879 112.592 1622.95 167 152 143
-91.0634 442.106 1204.63 239 227 220
-105.857 143.269 1093.83 153 140 134
217.958 386.26 1963.59 54 73 68
301.227 34.0908 1706.3 249 242 219
299.8 102.376 1720.51 255 251 243
-119.147 151.766 1058.89 218 152 118
-89.6458 332.328 1120.78 150 147 136
250.493 335.517 1857.6 88 104 116
-73.0069 485.815 1159.7 179 163 152
-110.511 180.649 1015.74 149 102 94
-90.5626 221.623 1164.61 143 114 92
-42.5264 380.371 1266.63 129 118 111
-19.4491 176.564 1231.32 255 227 209
350.801 58.5773 1811.27 135 131 124
-232.463 294.805 1169.73 63 17 9
-72.1648 415.366 1175.39 127 121 111
-34.6586 176.083 1227.96 255 240 227
-83.8875 203.942 1115.27 169 141 126
-27.0036 34.8913 1275 167 133 112
-17.1915 272.872 1298.64 235 208 199
-126.573 93.8307 1054.11 144 113 90
-54.6343 443.863 1105.36 231 229 226
-97.2359 125.961 1107.66 157 147 149
-127.751 327.398 1162.2 178 163 159
-84.8132 201.49 1164.62 128 89 91
-109.08 218.3 1064.54 185 185 185
-28.3742 522.516 1250.76 23 27 36
-82.6656 55.1706 1061.35 124 90 71
368.095 60.3627 1939.03 228 209 208
282.224 538.833 2016.73 125 134 130
-73.0895 63.0752 1157.58 185 156 133
-80.4018 410.989 1017.43 106 94 82
-12.8678 511.336 1253.66 153 156 159
-84.8286 207.31 1165 252 238 226
-27.1005 206.404 1210.29 232 204 180
-133.51 115.321 1195.05 222 172 149
-32.9789 404.675 1208.34 208 207 178
-184.58 118.23 1086.76 137 110 111
-136.07 249.468 1128.07 149 123 109
-48.7813 392.796 1266.32 112 101 85
312.382 337.603 1869.15 146 160 163
-110.724 131.112 1104.96 232 214 205
-68.6267 366.241 1359.22 136 93 91
-13.2832 213.789 1235.52 219 182 150
-231.361 314.363 1188.92 90 34 23
-67.6249 178.841 1166.99 254 237 225
364.206 -167.98 1843.52 172 182 182
-8.71244 299.754 1325.26 164 143 140
-82.888 405.783 1124.77 169 159 163
390.907 192.27 1848.93 251 254 228
302.189 273.517 1754.7 104 85 66
-74.8842 499.032 1134.4 124 98 82
-129.814 204.774 1104.92 207 183 165
-20.7138 16 1274.49 83 70 55
-103.168 159.486 1000.98 249 250 253
-158.509 325.247 1154.6 154 140 119
13.7829 118.975 1146.08 255 248 219
306.104 -8.40371 1788.45 153 147 148
284.766 -143.501 1664.9 203 224 216
20.177 141.146 1311.75 249 231 203
-61.9685 237.525 1172.08 143 99 94
-108.217 178.036 1108.33 188 123 127
-61.2234 385.429 1262.71 179 169 172
-91.767 140.617 1083.66 178 174 168
-164.17 345.879 1233.11 61 16 5
22.0909 524.475 1355.57 87 92 88
321.971 106.886 1724.81 235 214 198
188.887 366.943 1901.28 53 63 71
203.486 461.506 1984.51 68 82 79
-85.31 491.782 1209.57 102 93 96
-34.4156 162.817 1155.74 189 145 133
-34.5573 525.077 1249.5 77 81 88
-62.0154 275.72 1174.42 118 88 71
297.212 108.643 1903.35 66 46 32
-67.8008 327.021 1089.42 184 176 175
201.058 374.287 1964.49 125 133 147
-51.6087 307.39 1162.45 141 98 91
311.5 97.7603 1643.54 179 153 137
286.785 179.611 1707.26 146 133 111
-106.757 121.987 1050.31 191 153 134
-50.0222 357.473 1351.4 219 187 168
-213.587 494.229 1197.6 108 88 75
189.619 448.198 1907.03 132 134 132
-67.7316 243.121 1171.14 160 111 91
-124.312 90.2835 1043.46 249 226 202
-84.6531 143.49 1160.76 184 165 156
-137.75 190.67 1102.26 125 78 59
15.6618 247.037 1368.64 225 215 199
330.682 13.0033 1705.93 255 248 222
-92.1625 242.582 1115.6 221 200 176
283.583 98.8615 1811.1 168 138 135
14.149 134.385 1235 253 212 195
20.7614 252.47 1245.62 206 196 189
-114.806 140.147 978.159 237 171 146
-40.7073 123.975 1222.48 194 184 173
-76.1762 166.924 1164.27 254 233 206
-49.2388 339.656 1296.34 153 135 125
-83.4 449.97 1106.91 25 14 13
-48.2931 312.259 1133.45 171 134 119
-148.636 218.438 1262.23 100 33 26
-75.1338 17.9684 1299.93 135 136 149
-114.011 56.1392 1256.86 118 84 66
225.347 519.896 2001.48 78 94 92
