-26.9505 153.584 834.147 242 242 234
-95.6099 -37.4013 1608.5 255 246 237
69.1671 269.299 901.34 214 210 200
84.0863 256.061 913.627 234 215 204
261.339 368.525 1010.67 244 217 210
68.4067 -10.4365 1062.03 251 250 247
-93.9454 1.82416 1784.71 251 231 223
-75.8145 78.8451 925.182 222 211 205
103.941 322.19 925.812 225 208 209
-111.676 -132.045 1650.98 202 190 170
143.076 -4.85941 992.867 255 252 239
-153.233 -102.012 1487.64 206 177 159
205.193 29.3937 888.223 173 191 186
-198.957 -98.3005 1627.32 232 206 194
-5.31409 -10.6903 1538.44 222 191 188
234.345 224.262 941.123 7 12 12
115.789 276.354 974.511 221 201 186
-169.635 -107.963 1568.88 212 186 164
117.928 281.725 927.304 219 192 190
159.231 341.933 968.371 199 210 212
165.181 347.639 950.668 162 167 166
316.836 514.175 1183.07 202 192 177
109.949 23.2422 1001.98 234 238 240
123.742 591.925 1173.58 225 227 221
22.5839 297.985 905.381 249 228 212
34.6516 -9.2716 1414.21 246 246 237
109.574 268.625 917.682 203 195 201
-21.0224 -72.6821 1462.17 178 213 212
-198.349 -92.1074 1530.24 187 157 141
194.521 335.088 930.657 244 196 198
118.164 19.4699 990.499 112 109 109
113.044 16.7562 956.049 53 55 53
-79.1847 -49.4458 1809.63 190 166 157
-77.633 -43.1563 1604.9 165 143 139
130.464 7.44896 1072.75 241 242 235
230.99 268.389 976.633 172 174 170
-34.0221 -15.602 1620.72 145 138 129
214.743 31.4223 879.192 31 31 21
-22.8074 186.907 835.767 171 187 180
163.386 -4.81605 1093.9 229 232 225
73.8401 296.582 903.207 196 180 167
65.8485 18.6764 1108.17 228 198 191
292.635 332.621 965.505 156 137 127
-31.1538 85.6359 889.126 37 64 60
-185.682 -30.961 1574.57 193 179 170
-79.3095 114.401 972.056 184 213 210
-17.9335 79.249 891.079 68 112 112
256.465 350.266 972.741 81 45 28
16.1837 231.477 911.52 91 82 81
-188.162 -44.6859 1580.02 232 201 185
17.6391 74.7856 876.535 190 190 178
-199.97 -84.5816 1562.72 187 156 132
225.876 206.864 898.967 61 54 40
260.557 173.954 942.92 40 13 11
158.261 3.61127 1008.46 202 216 210
-18.5515 189.835 844.264 20 26 21
194.41 347.041 964.981 238 172 172
106.015 -9.04928 1047.95 76 22 10
-16.8859 38.1153 969.866 255 159 155
6.36673 215.31 841.099 170 168 168
13.3858 154.016 877.907 74 83 81
-170.892 0.125257 1583.37 155 145 135
-38.0168 148.507 805.699 159 153 142
25.7844 83.6078 868.104 182 183 181
120.363 -27.9089 1216.52 154 152 144
179.08 262.414 960.422 161 156 151
8.02547 -48.6073 1400.82 123 123 106
-263.196 -90.9009 1509.56 255 245 223
196.908 372.524 1002.51 149 151 156
-33.5917 77.5169 954.375 87 119 116
345.863 426.698 1062.08 100 89 78
94.2253 269.266 896.901 170 166 164
54.7357 18.5874 1106.24 225 192 176
161.213 240.124 844.434 61 64 60
0.664761 -101.498 1462.73 60 56 44
18.205 -71.5472 1626.27 68 63 48
-27.4626 32.8633 1070.53 227 213 206
-5.97852 -59.4497 1621.87 142 148 131
246.426 226.985 942.564 122 123 124
220.666 240.244 964.797 92 59 34
24.3575 160.967 879.725 36 62 60
98.1668 333.675 959.821 39 40 41
-264.872 -97.0513 1545.31 113 92 68
189.573 21.3673 865.355 77 83 72
162.935 72.2536 896.316 177 168 149
263.117 265.863 970.834 114 112 107
224.783 243.849 931.696 168 152 144
-27.7762 -46.7778 1798.97 146 117 105
-8.62633 169.98 865.95 75 86 79
-37.639 -50.4711 1538.53 130 108 102
113.169 249.59 877.02 166 133 124
175.453 317.825 927.883 50 47 49
236.918 256.927 941.966 112 125 115
54.211 57.4839 946.408 60 89 84
225.762 254.849 965.995 164 138 129
43.281 171.254 859.137 121 121 122
166.068 -18.2622 1093.8 180 167 161
180.227 -10.5065 1036.7 63 62 46
307.92 337.994 1015.16 139 98 89
-19.4671 -105.068 1709.18 165 186 178
209.889 233.228 950.452 160 132 112
-227.675 22.9392 1568.36 162 129 103
250.516 528.591 1095.68 48 70 74
192 356.36 954.616 48 50 54
56.0012 287.251 891.723 203 175 158
224.963 211.697 876.614 111 109 111
37.766 316.302 884.124 193 175 168
91.9228 268.18 904.694 165 163 161
215.879 254.462 964.77 168 141 124
205.204 5.59938 1022.35 93 96 84
103.4 -26.2994 1160.67 135 129 124
129.659 275.828 963.549 177 175 159
175.951 455.467 1040.99 145 137 129
256.074 271.755 979.69 110 113 116
-17.8376 167.747 822.065 36 34 22
288.193 274.063 973.946 103 52 43
243.193 91.6182 947.658 80 47 34
0.314157 150.711 846.458 77 95 92
-231.146 7.57084 1565.17 141 115 99
147.47 277.624 956.711 61 55 35
-88.6203 94.4728 910.988 162 160 147
64.7033 284.799 901.331 56 24 14
-234.727 -0.130953 1562.97 204 188 172
30.912 291.752 896.34 164 138 120
220.718 245.048 964.996 186 147 121
170.672 290.315 916.521 37 74 83
116.029 263.229 894.521 158 156 152
-47.6737 159.426 839.091 35 28 16
112.837 276.526 902.228 195 201 197
134.693 187.7 918.327 186 120 100
185.537 -7.97405 1037.54 178 171 163
-224.069 30.5809 1570.56 227 193 172
-147.05 -24.5188 1552.19 136 134 126
144.798 261.631 911.797 53 29 9
243.494 272.332 991.292 15 19 11
125.965 290.018 920.568 169 152 133
36.5163 43.0566 979.034 135 106 89
-13.2918 -26.9883 1691.52 170 115 101
-233.128 -95.4233 1550.57 73 57 46
-14.5899 80.6887 833.649 164 192 189
-277.076 -124.589 1625.57 181 187 185
174.925 -13.0297 1035.85 140 141 126
151.452 210.017 965.235 119 66 40
-30.0524 79.444 920.971 168 209 210
47.7281 51.4598 911.642 225 200 188
117.806 231.29 926.531 174 118 93
-77.2877 -132.847 1592.15 158 125 104
-238.168 -15.5518 1559.79 208 187 161
-85.012 -148.08 1587.79 39 13 2
-315.965 -113.377 1897.11 132 105 68
-46.7149 170.484 899.847 149 137 124
-272.26 -126.267 1508.15 196 188 176
-209.326 -2.69604 1356.03 174 154 136
96.8116 -27.3075 1103.11 143 135 131
213.731 113.232 903.566 67 27 23
-69.0164 90.3614 926.782 192 218 215
152.181 -18.1598 1091.69 210 167 151
-2.04747 290.931 870.434 49 47 40
208.175 297.598 939.063 39 67 79
-208.798 49.8802 1507.23 165 129 111
