-1.37842 340.271 1167.04 246 241 238
-0.762422 316.814 1191.37 25 15 14
-42.5684 332.714 1109.87 223 215 203
538.706 -174.463 1378.09 233 225 221
58.3287 111.409 1138.66 80 46 29
-99.5571 40.847 1078.01 251 252 230
-84.5141 46.8114 996.493 57 29 28
537.046 -63.5949 1403.18 43 45 41
641.014 -74.8613 1471.23 250 242 240
5.17665 322.995 1193.01 252 247 236
-0.529007 394.047 1144.13 183 185 181
38.3755 102.981 1134.33 255 248 229
3.79537 -43.409 955.441 233 203 187
558.386 34.1412 1420.79 219 213 191
12.0521 -47.6748 1073.1 254 251 234
-74.9281 35.4569 1062.05 86 34 44
-56.826 178.129 1074.24 255 239 207
555.466 -72.5083 1471.19 244 239 238
5.01756 314.209 1141.35 252 253 245
-54.0245 24.6129 1065.62 83 33 28
119.107 143 1151.72 77 64 55
57.9983 60.977 1134.77 57 14 11
52.4259 77.6708 1135.05 168 123 102
437.5 92.9348 1421.97 230 230 225
-54.5127 45.1983 1087.68 53 31 24
58.2752 103.016 1138.02 242 226 204
11.6299 -56.3218 1030.78 187 165 161
32.5385 77.1295 1106.14 255 235 225
-0.740525 -45.4467 1141.45 231 220 209
-93.1367 56.796 1059.51 91 70 65
425.134 77.8707 1643.54 31 27 18
-31.608 344.325 1135.07 160 135 127
62.4789 -37.5526 1105.19 90 47 28
47.1875 159.448 1140.03 93 90 70
-31.6205 301.702 1132.9 76 62 55
111.727 99.5077 1197.16 85 64 37
-69.7565 51.0018 1064.08 92 83 82
68.5574 -50.6817 1127.45 96 26 2
51.2667 72.382 1158.3 248 222 202
-11.866 399.219 1141.97 228 228 221
636.262 -89.2416 1468.84 240 216 216
7.37095 352.488 1169.86 235 222 219
51.3879 -42.6734 1102.98 66 31 20
-100.382 54.9013 977.56 142 33 17
76.0021 143.696 1194.45 255 251 245
55.3578 91.7401 1136.64 252 237 207
-48.3216 233.544 1125.46 109 63 53
-1.18998 348.256 1119.99 247 244 238
-109.724 14.3035 973.755 255 250 220
71.5276 -40.7594 1177.58 133 45 11
49.6411 86.0132 1135.16 247 228 205
49.9806 148.224 1139.76 254 252 244
577.763 -43.2465 1408.93 254 246 236
-7.13827 354.853 1166.9 115 107 95
453.724 -46.0371 1175.75 143 129 136
-46.0245 305.439 1063.37 184 172 169
47.0704 136.918 1138.4 248 231 216
-26.002 333.115 1135.74 220 199 181
69.6706 99.4502 1189.65 133 101 58
-6.61269 355.415 1192.33 132 128 121
41.2665 114.25 1135.7 248 209 195
-77.2044 47.3405 1150.66 246 233 239
24.852 278.219 1143.25 243 248 230
534.392 -95.6078 1459.27 219 175 162
-101.849 52.1695 1015.78 242 175 161
570.727 -88.1965 1400.77 253 247 235
46.9516 114.218 1136.76 130 66 57
132.611 -17.4704 1166.93 252 244 223
-75.8324 53.5798 1083.65 168 129 133
-27.2201 414.301 1190.88 229 215 190
-7.46592 427.054 1224.24 83 87 83
55.112 -38.2041 1081.07 194 152 144
42.6705 95.2934 1157.94 119 78 50
2.13762 288.525 1139.33 214 186 178
527.862 -142.623 1389.19 185 167 160
543.923 -115.629 1394.69 255 250 240
-46.4812 31.2054 1004.31 255 251 255
-72.6244 183.432 1071.13 250 254 246
7.73079 252.029 1138.29 107 81 70
-96.7262 79.0496 995.187 247 219 209
-31.6066 372.731 1136.46 187 175 162
157.631 367.308 1321.81 116 116 112
642.343 -301.407 1367.31 210 241 244
-48.3338 256.015 1126.76 117 105 112
24.5229 -54.9218 1232.14 253 249 229
-13.4587 53.1362 1051.55 255 243 231
-14.7439 339.163 1138.48 251 252 241
49.8597 125.557 1138.12 122 96 79
584.725 -177.648 1385.53 243 229 209
-58.7593 110.387 1046.87 135 111 98
-9.5271 391.169 1193.65 219 196 184
28.9494 306.228 1196.88 238 239 213
576.175 -109.177 1397.37 228 215 195
-4.14157 258.478 1112.67 146 122 123
-6.24608 365.101 1141.61 249 249 243
-50.6083 332.928 1181.19 254 248 244
-111.347 67.4466 1093.46 223 184 163
573.236 -136.133 1457.21 133 117 117
-47.9757 260.075 1103.47 132 96 95
-75.1373 130.408 1067.62 128 98 97
615.286 -280.115 1438.97 155 159 154
9.19279 181.46 1065.89 255 247 234
-39.9959 250.61 1128.25 238 222 226
624.07 180.364 1582.96 207 246 255
52.2745 69.0583 1152.16 230 184 162
64.1134 122.817 1140.55 107 107 92
-29.0669 17.028 1046.99 255 252 229
16.9111 264.241 1191.62 99 79 71
5.47927 217.678 1156.62 147 91 75
554.312 -70.6935 1402.96 240 229 232
75.7243 142.611 1144.11 146 136 118
-15.6286 218.752 1181.77 113 97 88
523.231 -135.831 1320.58 220 219 224
-8.58742 86.5262 1036.13 234 171 143
503.303 -98.1155 1332.13 102 60 55
531.284 -94.7552 1397.57 216 187 174
-66.0601 253.866 1114.93 249 247 251
-23.4149 100.284 1109.63 254 225 205
57.0477 -46.6192 1140.55 186 136 120
113.756 10.3608 1110.55 253 235 207
-103.626 31.4483 956.894 123 38 14
-11.9097 207.644 1063.78 224 201 194
-53.8599 239.126 1124.55 253 253 233
70.486 178.114 1216.53 137 126 116
613.707 -163.778 1388.93 246 233 212
24.1787 47.2455 1103.07 138 124 132
147.305 39.6603 1197.67 250 248 219
-20.634 294.177 1111.97 252 228 225
58.1735 -47.5743 1038.9 94 47 16
-4.93902 183.77 1027.84 184 167 164
-113.07 26.7211 1030.58 229 147 122
-18.7594 -34.1749 1046.54 216 188 168
-17.981 210.97 1106.03 138 102 98
-27.6668 77.0138 1074.17 252 206 187
-38.9544 345.289 1184.53 89 77 60
536.502 -154.498 1324.92 255 252 255
-26.2328 101.557 1095.04 191 104 79
471.518 -262.65 1313.67 146 134 133
-40.9054 103.604 1073.16 205 172 157
4.52692 381.894 1171.53 100 71 60
151.853 48.6457 1228.27 255 236 211
-91.87 134.304 1083.7 223 224 216
630.877 1.07237 1480.8 255 250 229
112.199 6.13543 1165.12 255 243 228
-46.2017 111.601 1072.58 236 190 163
-113.88 93.9357 1057.11 69 36 24
541.802 -241.635 1369.24 161 161 154
591.735 -46.7611 1409 227 211 196
539.097 184.202 1591.86 33 47 46
-68.1328 283.5 1228.87 172 169 170
-24.9194 234.724 1084.05 253 239 238
67.1338 161.446 1194.18 105 80 66
629.186 -317.928 1426.81 170 202 202
-88.2161 146.306 1065.68 188 164 143
-54.9281 224.144 1050 156 158 154
101.924 11.6906 1092.42 243 231 224
-88.2455 156.88 1066.27 74 64 50
-38.9645 380.935 1186.5 183 176 166
110.572 -3.7359 1187.59 255 232 224
154.669 59.9732 1216.68 240 222 203
-34.1644 68.643 1030.28 189 137 119
48.3192 61.007 1157.1 255 230 209
-19.385 212.913 1102.1 230 201 187
-121.793 -101.004 1299.82 30 19 14
56.3559 273.586 1149.13 232 225 209
-80.4481 167.443 1068.56 255 246 228
129.271 49.0599 1195.59 255 239 237
-106.289 35.2054 991.685 185 117 94
-51.7391 313.496 1163.38 130 122 121
114.871 18.1907 1140.85 237 174 150
405.463 -225.483 1306.02 70 70 65
675.709 -203.138 1382.74 199 211 191
-2.83451 78.0445 1013.16 193 160 143
-178.595 7.21645 1081.66 155 134 121
129.349 55.0527 1196.14 186 153 126
-42.7887 307.033 1130.74 253 252 252
-57.3848 35.4579 1042.33 252 237 220
106.314 -92.9944 1084.56 254 248 221
-90.6338 83.0122 1061.57 204 153 173
-95.963 130.468 1063.11 159 157 157
-29.0859 30.4359 1029.01 252 255 244
490.487 -31.7563 1341.47 157 136 130
571.795 -74.4038 1403.22 227 219 217
34.9117 300.599 1197.7 161 153 132
-96.5789 131.67 1051.99 64 47 37
-43.5386 50.7279 1069.37 255 252 241
629.947 -29.5505 1482.89 177 154 137
-97.0642 102.391 1019.39 197 178 169
560.466 -43.6224 1284.33 141 102 94
477.746 -286.621 1427.55 186 141 126
-27.597 229.385 1083.18 157 152 149
630.33 -132.983 1394.99 255 251 239
62.4503 280.83 1190.49 151 144 126
42.662 320.652 1280.79 241 239 217
713.899 -196.313 1457.63 203 219 191
-80.4236 400.439 1233.44 133 133 124
531.21 -294.471 1428.61 211 182 170
-25.9833 390.044 1138.49 82 61 42
803.169 -199.377 1624.57 251 255 239
-18.8814 -66.6912 1158.82 124 143 152
771.545 -86.7279 1547.32 219 228 221
373.062 -213.466 1199.59 51 51 46
-67.3098 146.211 1070.2 228 202 161
40.5398 216.847 1193.28 170 169 166
55.7265 153.926 1141.23 109 83 71
129.193 43.0833 1195.03 247 230 203
-62.0713 156.801 1071.93 235 211 178
-91.3963 84.8407 1051.93 133 49 36
685.098 -142.637 1394.2 231 239 222
-12.7308 -10.076 1021.78 255 225 193
593.43 127.73 1509.24 63 56 43
-56.3297 196.577 1053.75 156 125 96
40.546 357.265 1168.74 95 76 56
71.466 390.394 1210.09 122 131 138
-54.1032 98.4026 1070.16 146 104 104
589.981 -112.496 1397.35 251 240 215
68.3435 368.713 1208.36 136 120 108
71.5077 -22.6181 1084.93 252 210 182
95.6511 114.425 1145.52 179 148 120
55.491 328.637 1085.27 241 224 201
407.233 -257.497 1428 177 176 177
588.96 -81.298 1402.8 211 194 193
772.84 -190.765 1539.39 251 252 241
507.641 -76.1071 1225.61 248 249 250
-31.6254 287.532 1132.13 255 195 191
-3.60558 237.474 1135.14 255 252 241
-3.77065 194.291 1024.12 204 148 135
592.77 8.8898 1350.67 163 162 151
610.679 -25.9838 1447.85 213 191 165
124.776 295.572 1092.46 148 144 130
