-103.159 5.38357 1054.15 255 240 237
-151.808 88.9262 911.213 255 241 234
-109.165 -3.91498 1121.12 243 249 244
125.088 312.537 1028.34 210 199 195
-463.364 263.714 1512.08 242 219 210
-5.9215 -22.7741 1093.49 252 247 242
-457.724 123.746 1512.07 249 244 237
-10.7772 183.006 828.315 200 190 187
-424.671 140.185 1528.62 223 217 207
52.1261 221.922 950.755 234 224 216
-485.404 316.576 1609.83 223 216 210
111.63 -22.7848 973.185 178 184 181
127.451 -26.6214 1029.11 71 67 50
-581.101 21.3934 1523.15 231 217 201
-121.654 -2.55016 1138.72 253 255 252
-447.077 266.955 1541.6 99 76 59
-419.665 231.198 1460.21 188 163 150
-60.2326 147.739 837.01 252 250 244
-106.378 42.5654 906.105 46 48 49
-432.226 121.407 1603.98 226 219 213
-590.217 41.3616 1374.84 225 207 183
-481.219 9.82476 1259.84 220 204 188
-468.165 29.2584 1649.95 193 232 228
58.2516 295.036 978.882 211 206 196
-11.3529 175.745 804.599 155 149 147
13.0654 -20.3664 974.166 249 255 248
79.7864 310.13 1033.02 195 174 170
-45.5313 56.4502 951.657 240 248 245
-79.8312 67.594 912.026 9 28 25
-123.852 31.2987 971.482 95 96 97
34.9768 -16.1955 1015.33 246 255 255
-137.54 29.0058 1224 100 66 55
124.046 317.28 1083.46 182 182 177
-17.962 261.492 897.277 196 194 191
-59.593 142.463 818.732 49 41 39
-563.289 98.9604 1449.08 198 197 195
-402.452 100.31 1245.79 79 61 55
-23.7852 -11.4772 1046.39 237 231 222
-109.486 354.466 1070.62 117 110 109
-589.936 41.1943 1491.59 161 149 126
-501.303 350.11 1445.1 125 106 97
44.1956 239.048 939.635 183 177 163
-491.034 130.081 1499 212 198 199
-205.984 108.219 995.081 224 214 202
-119.853 134.356 906.757 248 253 249
-64.3397 139.334 836.187 231 226 217
-456.164 328.271 1321.59 255 248 239
77.7531 244.605 980.391 191 148 155
65.6368 295.406 980.1 97 93 85
-392.336 106.71 1535.57 52 24 5
-535.493 32.81 1307.8 148 129 111
-524.402 32.9268 1312.61 183 166 149
-72.0907 110.054 825.709 156 157 150
-195.576 100.355 923.16 247 244 225
-177.625 85.6303 962.294 177 168 164
-536.71 467.269 1608.52 61 67 60
-239.056 165.592 1031 249 251 239
-539.985 83.5117 1371.93 173 162 147
-408.977 302.678 1474.71 155 134 126
-441.175 461.294 1352.68 91 95 88
-453.234 250.869 1536.32 206 181 170
-522.582 353.969 1499.06 255 245 236
-424.777 263.376 1383.26 160 134 118
-434.965 309.958 1327 172 172 169
-573.795 133.437 1363.28 245 235 225
-4.79955 189.321 856.79 204 188 189
-154.035 100.153 911.048 202 202 197
-141.173 44.4945 997.861 240 181 174
-132.287 302.524 1020.5 252 247 239
-571.2 140.361 1365.21 185 155 139
-115.277 76.0661 905.611 54 57 55
-404.217 95.9199 1514.59 155 121 112
-123.104 110.714 854.1 219 217 200
-41.5518 131.34 831.407 151 149 139
-0.2502 206.988 931.235 71 54 57
-136.968 46.4413 1041.08 56 73 63
-399.472 54.4252 1365.64 149 130 118
2.26521 332.663 935.136 75 72 64
157.81 169.991 1027.1 61 62 57
-117.944 16.6822 1028.97 253 248 246
-119.876 99.2841 874.062 86 104 104
-143.035 347.136 1128.37 255 251 243
-509.306 40.6473 1251.99 162 148 121
148.251 155.436 968.437 35 25 18
-463.882 307.225 1315.33 161 142 129
-78.7059 113.648 852.517 240 246 236
171.57 115.926 1066.45 76 47 33
-72.1696 33.3864 998.132 132 87 75
-409.264 35.461 1566.4 67 66 60
-28.0921 163.999 862.684 31 24 19
-509.556 323.48 1437.78 253 243 242
-15.7785 0.155461 1064.19 177 179 183
-251.787 206.562 1114.36 66 62 63
-362.797 25.9272 1374.33 53 56 54
-166.818 91.83 929.142 164 129 121
-488.987 258.382 1366 136 125 97
-0.757926 24.63 994.334 32 88 86
-79.7157 -15.7394 1178.54 212 181 156
44.4823 267.217 928.689 182 151 133
-154.15 41.4547 1045.04 255 244 252
-602.214 152.03 1443.5 251 239 220
-482.637 -2.85768 1398.82 143 125 109
-447.566 278.699 1543.4 247 227 213
-554.785 310.578 1579.38 145 131 113
205.371 268.213 1113.11 192 155 143
78.5137 230.198 965.766 215 202 184
-578.819 116.264 1359.09 224 203 173
175.511 212.036 1072.74 134 144 137
-417.967 275.812 1467.4 118 92 80
80.1377 227.588 980.149 199 171 152
-409.97 66.5016 1569.3 153 129 125
-144.087 44.1322 1047.46 225 165 160
168.323 169.74 1049.03 148 143 137
-470.658 177.969 1230.1 106 93 69
-121.896 86.7814 1002.81 198 203 200
-88.2476 -19.5392 1145.52 144 112 104
-70.9822 105.091 803.581 53 65 65
-170.439 96.6562 953.847 194 162 148
52.1188 279.812 964.016 47 32 12
-482.248 113.393 1271.34 107 111 105
-451.901 400.248 1471.91 230 228 212
-1042.7 -87.662 2061.85 79 82 74
-607.737 60.6459 1352.31 234 212 178
-110.367 69.6904 939.945 131 155 153
-464.32 302.813 1384.07 112 104 102
-593.548 208.711 1546.78 130 117 95
-28.8262 -29.2487 1136.64 199 175 164
-164.68 328.752 1122.75 255 252 241
-35.3838 162.495 833.24 158 156 153
-111.01 38.0371 990.615 155 133 109
64.1024 248.176 989.752 177 171 168
-406.228 397.99 1456.94 124 126 126
-430.481 69.1383 1500.92 171 147 133
-64.2014 195.013 887.373 249 255 241
-14.6072 117.69 843.848 49 66 59
-4.77159 130.463 895.579 60 64 62
241.565 298.028 1199.74 50 20 17
-461.644 310.181 1386.45 186 179 184
-633.163 229.938 1601.29 255 250 235
-85.2807 29.5719 1036.22 168 137 129
-358.683 87.1165 1461.71 128 120 114
-446.086 6.95342 1310.8 50 25 9
138.164 315.735 1030.46 153 133 135
-498.854 440.379 1549.02 207 183 154
-89.7436 79.3379 944.378 120 142 137
137.401 234.289 1083.63 41 50 41
-71.1681 198.037 896.037 253 254 253
-127.403 101.48 883.663 147 168 169
-98.23 107.413 821.084 174 176 157
-143.004 82.3227 912.813 40 64 53
-543.982 156.983 1321.16 236 222 195
-536.981 252.033 1415.33 172 146 127
218.812 271.824 1105.53 118 85 74
-44.865 -12.9318 1186.27 143 138 117
-171.41 81.8058 907.024 155 143 139
-1045.07 -78.0688 2077.08 175 182 175
-28.1054 140.45 861.993 56 60 55
67.815 227.126 978.169 171 161 140
-24.5144 252.249 911.873 62 59 49
-96.7859 22.8005 1077.57 164 110 90
-589.751 38.5717 1284.26 146 135 119
138.008 167.937 1000.01 124 108 91
-164.161 38.7887 1042.6 226 204 211
-726.377 -63.8172 1414.22 145 145 139
-790.093 44.63 1611.84 255 253 244
-422.297 403.464 1483.7 214 202 196
-140.453 71.9322 969.813 183 203 202
-539.468 241.078 1412.55 201 183 171
-111.805 104.46 846.252 115 121 106
-179.537 104.749 1033.23 151 120 105
-18.4262 -13.0044 1191.78 255 252 250
-154.613 111.008 898.929 188 182 176
-101.371 43.0147 992.732 184 166 159
-476.013 355.214 1388.51 180 149 142
-22.7816 21.2372 1006.9 82 103 107
142.752 302.765 1042.78 166 138 126
-24.6797 292.268 886.423 240 253 239
-431.398 -5.17021 1585.15 109 109 96
-95.2629 98.7229 762.231 236 244 230
-474.867 12.5997 1390.68 211 192 169
-25.9715 233.254 854.896 120 118 104
57.38 207.008 896.575 48 11 3
-525.037 341.566 1596.6 203 195 191
-75.0543 171.701 863.867 249 254 243
-515.101 308.294 1433.2 226 213 191
162.936 201.409 1147.83 85 54 32
-390.561 60.9404 1528.07 84 82 77
-668.591 33.2642 1390.48 223 217 206
-519.227 177.145 1338.14 66 50 34
-396.016 250.155 1157.09 110 99 86
-516.803 162.543 1263.26 255 251 223
-517.856 300.734 1430.91 163 148 127
-131.379 218.526 941.293 254 251 228
-478.453 -6.09515 1354.86 128 120 108
-455.999 99.8485 1105.43 41 23 11
-132.269 297.423 1020.31 248 242 235
-520.098 99.5921 1432.55 125 120 119
-164.773 180.006 900.039 255 252 232
114.733 206.737 984.65 126 117 111
-101.035 18.26 1124.06 230 170 147
-137.752 288.006 1000.81 243 214 203
-614.37 172.664 1367.67 167 157 145
148.006 184.559 1067.16 141 115 101
-174.302 134.762 1090.26 163 149 147
-178.09 203.783 1006.01 255 251 230
-552.639 216.348 1469.26 112 109 88
-527.947 176.533 1308.97 208 175 160
-381.312 14.6526 1053.3 144 123 105
-44.7873 22.6486 1071.06 251 217 196
-444.356 -274.013 2084.25 192 192 187
-191.189 265.658 1114.1 254 253 237
-115.905 0.194501 1019.69 112 94 96
-1054.11 129.098 1599.31 83 87 81
-351.896 -230.959 1692.59 190 188 175
25.5867 310.685 938.553 115 104 97
-37.9849 221.696 902.214 180 179 159
-669.454 166.263 1675.83 131 112 96
-38.0449 196.684 788.968 253 255 230
-770.916 40.9058 1622.07 169 165 153
-409.746 14.5796 1147.12 120 100 84
155.695 343.396 1120.52 79 46 39
-107.044 64.8654 875.386 242 253 248
-24.1398 23.3212 989.707 123 131 124
-1433.36 137.907 2256.55 175 185 180
-627.439 182.509 1431.34 166 136 117
-714.243 185.23 1799.1 113 99 77
-512.042 178.672 1267.11 255 251 235
27.9173 303.796 938.772 174 155 145
-91.5084 339.326 1013.68 168 165 165
-17.2797 143.343 873.047 73 92 90
-399.828 359.956 1330.22 203 185 172
-558.57 103.901 1289.23 219 189 160
