-61.8869 38.061 914.158 247 247 230
-25.9501 -51.3181 1157.41 255 255 245
-277.989 293.404 1520.36 255 248 232
-331.06 69.3177 1392.28 224 215 208
167.751 242.861 993.79 237 211 202
-25.6954 65.6301 921.609 245 246 226
-357.079 204.539 1400.58 73 42 36
61.5649 285.67 1001.96 102 104 102
-329.418 185.219 1268.55 24 2 0
-54.8865 46.6054 949.55 36 26 20
-371.713 201.631 1369.11 194 181 173
139.366 187.933 952.152 222 209 208
15.0268 17.3295 894.324 0 14 8
-14.3179 29.2739 921.958 255 252 250
67.9584 -46.638 1019.2 226 219 220
-37.0888 -21.8753 1110.38 99 73 65
101.167 -72.3867 1085.25 222 223 220
50.811 4.10608 898.995 247 250 250
-302.055 69.8041 1402.27 219 210 206
-387.827 75.1229 1372.68 227 216 207
-341.185 89.8778 1391.43 211 197 188
-483.946 84.983 1267.35 250 231 213
-37.0883 -43.7293 1108.81 206 224 219
-426.264 308.993 1388.42 255 249 238
-338.527 202.403 1486.29 219 196 180
-388.139 79.3372 1449.45 199 182 175
-14.1007 19.3336 934.702 29 50 52
84.9328 221.615 921.696 254 253 246
13.1487 159.537 899.564 254 253 239
-398.922 37.6229 1363.62 218 202 188
-15.3476 80.4196 862.201 240 250 233
68.9907 -49.0459 1016.74 58 63 50
33.1294 70.067 841.088 241 239 218
123.696 -64.7328 1046.93 224 245 239
-38.1402 -34.1382 1064.67 40 39 34
-36.5827 -27.8075 1023.88 255 245 244
35.2464 74.2692 841.539 22 16 15
155.118 242.413 991.998 196 193 187
-364.879 24.7922 1309.43 187 161 150
-453.319 -2.53614 1269.4 171 149 144
-486.445 78.6248 1265.62 99 64 51
-345.086 80.2176 1465.61 61 54 49
-407.817 225.242 1529.07 214 200 187
-374.296 29.4882 1302.24 186 165 152
77.3956 207.013 870.263 87 86 77
27.3017 57.9349 803.568 239 246 243
-488.937 72.2839 1263.89 223 213 195
82.4382 -75.4932 1154.32 240 240 236
-345.308 189.585 1458.2 244 222 214
100.611 329.619 927.203 252 252 245
56.2113 -56.4329 1014.3 187 191 179
-345.29 244.159 1409.71 36 15 6
-16.4064 63.4536 862.926 249 251 231
-70.856 42.5161 912.724 197 157 142
-533.313 5.43014 1289.84 139 110 75
-57.9656 -9.65207 1123.08 218 218 215
-97.5708 51.3066 908.123 229 222 206
-349.478 185.573 1375.28 82 60 39
-368.843 197.15 1474.45 241 212 195
-397.937 7.33185 1360.01 179 181 177
-373.957 238.816 1398.86 181 161 151
-386.966 275.278 1325.21 140 138 137
-40.1289 50.0035 886.793 192 231 221
72.2424 -69.1837 1077.48 51 60 54
-431.85 290.935 1384.06 250 244 220
131.415 366.072 1011.79 247 246 240
-330.054 99.3291 1454.11 164 153 159
91.6593 253.07 903.847 246 243 224
-396 242.523 1473.81 231 204 192
-80.4234 37.0519 944.398 133 132 124
-496.482 56.4778 1259.03 255 227 192
-456.925 69.9061 1600.11 201 178 164
-40.8362 236.842 959.751 254 251 242
-444.274 3.54393 1210.87 176 157 131
47.1056 117.981 834.545 115 114 105
34.5366 83.8084 794.711 187 189 171
-41.5533 46.6617 828.965 126 151 136
-33.9698 279.876 1040.06 126 111 109
155.582 174.137 905.029 216 174 181
138.954 163.041 918.145 174 168 150
-342.467 55.9274 1445.1 164 129 125
-410.81 58.4947 1420.55 97 69 57
-463.66 136.467 1281.28 116 83 58
-445.687 188.934 1294.18 254 243 235
-351.349 229.591 1405.76 112 83 70
119.666 -79.3186 1212.94 98 107 103
-40.5137 226.827 928.671 245 234 223
-46.891 96.0931 898.2 254 240 228
97.6859 323.519 939.4 245 252 238
-521.188 138.844 1435.69 186 170 142
-347.815 -12.9569 1375.58 160 187 184
-380.065 212.997 1637.88 65 49 44
143.659 217.312 889.697 123 116 112
-59.2562 -7.59049 1020.81 121 123 119
16.4572 -14.8435 995.026 126 82 72
-21.673 47.9655 870.281 71 94 91
-334.622 83.0939 1392.84 78 65 57
112.099 309.753 912.741 56 47 38
-443.053 195.584 1295.93 150 125 108
2.2391 -32.3603 1142.54 121 113 111
-64.2723 -5.07486 1020 252 213 206
-467.912 3.52966 1201.96 157 144 128
-76.7563 -7.5656 1017.44 210 201 201
-413.666 46.5855 1167.63 128 123 108
-83.1286 259.449 1072.21 225 212 198
-464.156 -8.75402 1264.49 144 129 114
-297.167 61.2114 1403.91 71 67 55
-461.353 0.485535 1101.84 149 137 120
48.9039 -38.5376 942.607 214 182 167
46.1658 -46.8988 997.823 72 59 36
-473.982 113.764 1274.62 235 203 183
77.3551 200.497 869.974 70 69 63
57.3658 80.8665 834.216 153 149 136
115.779 -64.6544 1045.85 133 141 139
-1.81645 -32.2773 1045.95 255 174 167
-322.613 63.3897 1452.83 67 42 30
91.2558 77.6106 877.758 59 62 58
-481.554 94.5165 1269.41 147 113 95
-53.513 48.164 854.844 220 185 174
-110.338 228.369 1029.65 255 252 255
-479.038 100.916 1271.14 236 207 195
103.063 341.465 928.231 239 241 235
-88.6703 35.6518 909.191 173 172 161
-37.547 231.366 997.348 253 243 241
-40.7708 -13.1383 1065.52 24 23 20
-45.8454 276.229 1060.52 248 224 213
-452.017 41.4636 1274.87 199 183 171
51.573 -74.7902 1122.36 221 200 195
-453.629 -22.4036 1334.59 140 135 117
-301.555 48.954 1399.7 72 57 37
-488.899 -2.49004 1255.36 23 15 12
-440.41 202.258 1297.68 240 232 212
-398.469 -40.6341 1285.72 179 154 131
-1421.11 -230.462 2419.71 225 229 224
272.18 69.1082 1142.57 52 34 21
-476.514 107.33 1272.88 143 110 94
-498.943 50.2089 1257.31 144 95 57
-28.9821 -10.1636 1026.3 115 66 50
-379.937 230.017 1475.14 234 201 184
22.7819 124.132 841.356 241 246 243
-562.835 170.083 1387.23 144 137 128
92.8217 304.413 937.892 230 245 232
129.714 359.779 1001.3 237 232 226
-66.2191 161.762 971.687 236 234 204
-303.516 181.515 1495.6 82 40 24
-312.293 90.5235 1401.52 30 28 28
44.5027 98.3777 889.388 241 238 229
-534.692 137.639 1322.46 171 142 125
81.9337 231.147 871.917 249 255 239
-448.204 179.061 1292.1 157 107 92
-408.286 309.045 1336.93 148 106 87
-47.3829 260.75 996.571 250 226 217
-99.8177 56.5568 938.58 216 221 202
25.668 119.807 869.961 253 255 246
4.1663 -17.8534 1031.7 143 120 105
-447.526 81.0505 1330.75 144 126 121
-43.8758 104.113 919.99 152 136 122
-40.6795 168.428 942.115 245 225 205
-407.165 10.6639 1356.97 82 84 81
-443.004 258.607 1375.7 255 251 228
-335.672 4.02544 1382.08 122 122 115
-25.0765 -4.01168 1044.16 229 221 217
-379.778 200.222 1444.42 142 113 94
-70.8907 251.769 1030.27 250 225 208
-421.305 263.793 1325.15 232 203 163
-449.545 251.578 1248.49 161 161 157
34.7283 204.388 921.081 119 122 110
-62.3827 147.865 929.858 141 130 101
-15.6202 51.4167 911.5 101 117 117
-601.432 137.23 1437.04 240 230 224
-426.877 256.622 1321.92 175 147 128
102.573 -59.9331 968.63 238 251 246
-45.5251 37.2823 950.818 106 161 146
-551.517 183.494 1398.18 225 219 204
-322.507 -13.0506 1384.38 91 91 86
-362.519 -45.915 1512.09 86 82 67
-1451.23 -84.0821 2690.97 166 170 164
-349.405 258.251 1420.28 153 124 116
-52.935 113.112 918.702 246 246 237
34.7535 159.058 890.904 254 255 240
72.4004 111.626 865.041 39 33 25
88.8788 317.882 971.849 252 255 250
-445.796 251.443 1373.71 139 113 74
-331.524 15.9677 1251.4 151 125 119
-300.988 181.586 1423.97 146 120 99
-528.302 282.933 1353.65 255 255 247
34.3977 128.66 871.581 227 236 222
73.6272 251.931 932.617 245 254 238
26.8254 196.709 922.469 200 194 169
63.128 248.934 943.034 243 255 244
20.685 -19.0613 959.159 249 221 216
27.8971 139.317 870.951 237 243 242
-532.878 81.364 1190.7 179 176 174
-547.69 138.816 1318.16 227 207 192
61.6097 -14.4888 965.634 52 90 80
-310.016 2.19624 1325.19 84 83 72
-484.91 150.431 1215.48 254 250 241
33.5105 198.337 904.069 156 159 144
-304.964 55.8551 1399.46 152 124 103
120.664 205.913 917.211 183 151 134
-482.39 57.3626 1392.66 126 115 104
-24.3953 -16.521 951.937 66 8 0
92.9959 332.682 939.033 233 237 229
66.2203 171.402 886.396 239 241 229
1.64574 -7.30716 956.728 211 195 187
-433.284 227.553 1383.18 113 120 114
-4.94418 108.03 853.389 190 189 172
-18.0389 -12.2681 989.361 255 234 213
-35.132 21.7176 988.151 124 117 118
-4.81215 63.5895 824.514 157 159 139
-4.11811 -68.6126 1113.16 108 98 97
-52.8813 22.2848 915.102 174 201 189
-270.107 155.407 1321.64 80 50 44
80.9639 223.846 881.316 224 235 218
-438.826 153.636 1292.73 58 51 33
34.425 137.322 871.875 251 254 243
33.7221 7.54818 908.745 144 147 139
-384.452 77.7868 1304.08 147 134 123
-35.9258 248.064 930.875 136 132 122
94.0188 264.497 904.673 198 202 190
-420.46 210.005 1305.95 162 147 118
-515.652 127.201 1252.29 233 213 193
-369.845 -37.1768 1175.62 154 132 109
31.1121 151.043 902.136 236 237 229
139.432 -75.1621 1048.24 70 90 85
-93.4682 208.193 1067.48 245 233 221
-90.7591 196.628 1021.43 255 254 239
48.7849 -24.7902 999.579 233 204 183
-41.0777 178.956 980.291 217 204 179
-598.005 96.0734 1288.51 253 253 242
-601.07 54.4464 1281.2 254 249 254
11.3347 133.109 908.754 188 195 184
73.6756 90.3852 875.875 84 86 79
-124.567 220.34 1061.17 206 208 200
29.2193 119.373 859.19 250 255 241
168.923 179.365 975.76 193 171 164
79.0041 75.6646 892.877 67 79 72
64.247 251.517 931.129 245 255 255
-4.18717 67.2593 844.493 229 235 216
-311.605 226.396 1499.33 134 105 93
-10470.2 1155.18 15669.2 215 221 217
-438.722 53.9271 1350.54 130 114 111
-383.967 209.313 1159.77 243 228 216
14.8304 180.676 888.745 232 228 205
-351.579 24.2568 1587.11 57 53 45
81.076 66.7122 849.865 37 50 50
20.8825 176.693 843.926 116 104 83
-997.705 120.39 1485.35 195 203 198
227.602 116.554 1026.86 139 120 104
85.0123 284.471 904.128 236 245 231
-329.47 7.60063 1409.09 31 34 29
-313.527 10.8999 1390.62 98 92 85
-305.586 187.633 1429.59 135 85 63
36.634 146.038 872.495 238 249 236
40.244 180.518 904.566 242 244 236
212.527 107.301 966.887 48 29 16
-91.9685 46.3066 942.597 103 101 93
59.9104 159.921 838.213 176 181 166
-92.2422 210.042 1025.26 255 245 244
71.3527 -27.356 1002.84 25 77 79
-494.246 267.162 1599.24 51 52 39
-9.52235 -26.5843 933.895 231 141 106
-1521.39 152.654 2221.96 194 204 197
-2659.78 279.931 3932.43 154 163 156
-237.789 257.234 1528.62 192 186 170
-435.678 164.351 1229.91 255 252 234
-492.624 261.892 1291.33 232 235 210
