-15.0384 65.61 1120.53 253 228 208
48.0127 -12.6282 1151.7 240 238 218
345.579 -108.364 1687.86 255 249 238
118.195 -61.0035 1333.91 226 213 191
58.8659 -17.1694 1242.34 82 62 43
-20.4629 174.592 1126.9 42 28 27
-180.166 503.481 1413.28 233 213 199
29.5835 472.139 1204.75 222 222 217
-14.3584 57.9371 1074.58 149 80 55
22.2237 392.366 1174.84 247 227 199
377.974 212.348 1852.54 39 42 33
323.308 368.792 1878.18 38 70 66
45.7013 379.029 1178.55 254 247 243
-14.3666 52.6306 1074.23 254 230 209
91.4174 -3.37791 1294.37 153 67 30
16.6416 366.894 1145.2 212 197 188
28.2328 416.608 1149.68 220 209 199
28.1313 382.066 1148.14 114 84 64
347.081 371.25 1991.33 232 254 255
51.0293 440.364 1236.88 106 86 76
74.7075 -3.76732 1147.08 125 85 71
354.076 -183.727 1775.53 196 194 190
363.764 395.425 2135.14 37 67 76
-20.1749 262.249 1152.39 254 250 242
337.22 -31.5161 1697.04 255 239 226
24.5182 453.179 1259.86 57 36 27
206.484 231.557 1554.57 153 168 180
10.145 85.2508 1126.86 144 141 141
359.235 42.302 1808.68 135 124 129
-120.521 48.1406 1072.95 163 135 133
86.6186 205.309 1275.88 114 102 85
22.1966 77.2506 1178.09 97 88 74
-3.61245 197.632 1131.77 103 101 88
109.652 -39.1037 1271.4 158 139 118
-0.52463 271.231 1089.72 32 4 2
-16.3071 43.4154 1031.1 255 211 190
430.021 -254.704 1879.41 225 237 235
21.5829 432.799 1128.76 121 102 88
2.62828 475.918 1199.43 141 143 131
-68.1529 104.987 1135.19 185 154 148
-111.521 542.428 1435.69 65 68 61
40.0382 426.367 1180.9 244 227 224
334.36 -2.0245 1703.21 217 216 214
52.4011 -26.663 1261.61 238 210 195
325.918 2.16427 1617.11 67 62 61
-12.8324 83.4054 1010.5 157 70 58
23.1086 317.883 1195.5 164 157 156
284.97 -73.2878 1455.76 35 21 20
-52.4177 300.865 1202.59 160 140 127
358.551 -84.3293 1795.79 170 148 146
45.499 343.083 1175.79 183 173 157
10.0876 349.532 1121.14 182 155 152
89.9075 164.064 1311.99 177 151 126
-141.64 248.503 1235.89 82 30 17
336.795 -39.7671 1695.11 132 77 67
224.618 -175.911 1648.61 93 91 91
95.4461 194.221 1285.65 142 126 123
357.501 -30.7536 1899.31 222 203 188
33.3842 -0.960153 1095.65 179 159 139
43.8173 271.546 1220.44 249 216 203
52.9249 410.106 1242.15 220 205 200
372.976 284.976 1973.64 216 252 254
336.746 -33.2479 1786.64 246 191 166
-12.1386 135.415 1126 206 145 135
68.2296 338.501 1261.95 239 241 226
76.889 -53.8406 1293.83 100 88 69
39.5267 241.297 1127.31 152 118 111
-12.7561 147.159 1176.54 152 135 127
-78.4818 52.162 998.469 150 114 107
44.401 723.135 1538.4 211 246 231
96.789 190.635 1315.91 253 254 246
366.619 31.7542 1714.97 125 110 96
17.0349 281.638 1192.02 169 157 150
310.076 35.9897 1708.12 137 129 120
-7.82739 115.487 1068.35 140 63 33
79.8791 193.923 1253.29 255 248 239
393.798 320.266 2127.03 92 121 123
-20.42 37.4727 1141.57 209 186 161
-31.6005 188.291 1125.48 197 161 146
-6.98869 183.492 1105 189 152 133
81.9995 114.222 1277.89 253 244 223
78.9427 139.388 1278.98 150 116 92
322.777 -57.5963 1794.56 165 138 126
350.584 21.168 1709.87 195 189 177
55.7926 382.223 1262.28 231 223 213
438.767 -24.2637 1933.79 142 127 122
13.3919 223.72 1136.79 156 125 109
375.57 -13.5163 1811.99 144 125 117
44.9278 263.551 1145.54 174 170 151
18.3208 484.415 1260.17 175 159 140
387.93 -49.3121 1807.38 255 236 220
117.409 453.926 1370.11 141 140 137
23.4753 138.048 1173.88 179 150 139
-51.8445 103.35 1090.09 89 55 46
50.4228 395.028 1205.24 109 97 90
197.388 -150.203 1752.86 20 15 1
322.267 41.7852 1780.56 39 32 25
23.4634 299.199 1274.01 147 120 113
-5.42655 165.238 1056.64 165 124 92
40.9772 297.749 1197.87 167 141 143
73.2975 179.583 1178.42 157 149 144
353.921 -50.7821 1784.33 163 129 121
46.6426 427.908 1291.7 146 130 124
80.4285 158.573 1242.45 191 169 149
60.4963 317.671 1285.15 164 140 133
-3.58155 488.78 1255.75 60 48 37
320.348 315.293 1747.62 144 162 161
15.9518 334.917 1095.92 141 130 131
-122.926 227.437 1056.09 109 41 13
329.609 0.0730675 1806.35 136 116 114
27.7205 309.581 1169.5 252 234 218
-56.7161 100.322 1068.9 145 127 125
23.9725 65.1076 1288.82 164 151 151
-22.7494 30.6831 1019.42 230 205 183
93.3454 183.691 1349.46 160 141 112
6.09409 233.605 1172.93 245 232 213
-45.4723 165.564 1121.13 118 65 48
15.2179 422.213 1219.54 140 125 123
-101.027 546.939 1438.94 210 214 207
89.7152 144.467 1309.99 186 146 124
12.8573 57.435 1125.31 249 254 246
66.7267 118.56 1244.12 191 133 111
17.6529 155.358 1173.22 158 133 120
12.2689 178.509 1108.33 254 241 213
354.415 315.314 1978.53 158 177 172
314.934 253.452 1753.45 101 132 134
1.61635 34.39 1075.97 248 202 196
-59.2587 357.894 1180.16 52 29 26
-158.265 74.4601 1113.2 75 22 9
19.554 153.76 1183.6 162 109 97
15.3641 284.753 1186.48 175 179 170
41.3234 321.69 1111.37 255 247 230
8.19074 -4.59153 1197.22 176 156 138
89.5467 -201.355 1936.78 89 86 63
341.138 236.023 1754.3 167 186 188
63.9194 119.472 1189.43 254 236 211
45.0695 271.96 1169.72 181 175 167
-9.24451 -14.9022 1217.17 115 96 80
-218.687 500.859 1440.87 127 110 95
480.39 -104.263 2331.58 243 233 227
363.643 -23.3678 1702.28 249 228 211
7.49358 55.5672 1054.56 218 211 199
26.3945 457.317 1233.1 90 66 58
-59.2109 292.961 1176.35 158 141 132
47.7927 93.4105 1088.33 254 241 236
-15.4617 -51.974 1329.15 122 152 145
-30.2611 127.929 1095.54 123 73 66
466.123 112.103 1937.25 237 237 214
389.771 -9.11393 1815.2 250 240 229
62.9072 -34.1817 1141.81 222 197 166
-17.796 123.383 1011.05 175 138 127
15.3905 -5.68382 1318.28 114 90 69
2.1993 274.515 1137.54 218 221 216
28.2938 102.934 1154.79 255 245 213
-252.734 26.1406 1161.28 122 108 92
432.504 -72.4847 1879.2 255 252 232
74.5365 -35.5344 1265.16 184 143 117
52.022 264.865 1253.45 152 128 127
367.99 382.157 1997.28 141 168 166
33.8103 45.3855 1177.62 228 164 156
361.115 -228.903 1738.53 195 218 214
