-44.885 33.5104 1189.45 255 244 243
297.304 -48.0422 1686.84 243 232 225
-46.8786 446.482 1245.01 248 242 238
-85.1473 428.154 1207.21 212 200 198
-76.6845 438.152 1181.82 231 214 196
277.357 -113.398 1669.73 221 216 205
296.816 439.765 1884.4 29 52 54
-52.3729 311.507 1204.82 255 236 224
-40.7416 424.889 1245.21 251 247 244
-67.4251 448.311 1212.91 123 100 84
-10.2326 204.22 1236.27 84 42 32
-68.549 473.859 1302.79 106 76 62
-40.2619 437.36 1187.14 230 227 224
-10.8257 227.351 1297.2 118 104 97
-84.8176 195.921 1165.45 127 87 81
-108.384 216.456 1111.82 88 57 52
-86.404 430.464 1235.02 255 246 241
-118.885 82.5988 1055.95 255 246 228
-123.95 113.464 1150.55 246 208 182
271.582 -13.6579 1605.37 225 213 197
5.36202 247.905 1302.48 113 101 96
344.304 480.562 2142.75 201 231 236
-121.853 215.667 1108.73 56 43 30
-10.7203 230.234 1205.76 240 230 210
-59.5142 44.8805 1186.99 251 246 227
-10.7617 263.137 1300.27 138 123 121
-49.5309 468.491 1218.59 128 126 123
-91.8495 125.633 1109.79 120 125 121
288.669 62.4971 1673.38 141 135 133
-81.7226 103.434 1159.45 107 112 104
307.643 87.3751 1717.04 240 232 235
2.09831 237.878 1300.92 252 244 235
260.363 394.501 2092.99 68 100 98
363.255 13.9725 2051.59 254 254 246
-66.2372 391.709 1085.32 131 125 111
2.09131 217.263 1239.89 161 137 120
-28.461 382.447 1245.22 225 213 203
316.136 109.955 1817.05 127 114 108
336.691 375.092 1987.16 47 64 89
-46.8443 324.845 1237.4 141 126 117
-10.921 175.661 1292.54 195 155 130
369.565 100.575 1945.83 254 244 244
37.1745 523.523 1427.63 102 103 99
293.353 314.401 1741.04 210 237 243
-53.0223 492.987 1246.15 255 250 249
-7.18897 192.019 1235.95 250 203 182
325.403 110.087 1818.45 217 201 197
-4.45783 195.226 1295.75 139 97 71
-44.3825 511.571 1300.7 112 88 72
309.075 441.124 1997.91 71 100 122
-108.709 106.438 1059.6 101 82 64
-168.391 150.14 1142.23 171 152 147
-108.874 151.204 1062.19 253 253 242
-124.099 142.032 1152.6 158 78 65
-13.3663 161.116 1232.11 237 198 178
-36.4273 371.695 1303.26 110 77 74
344.395 -51.0887 1781.67 244 234 214
332.106 37.3163 1926.44 252 230 210
-82.1537 413.001 1206.73 154 143 139
-56.2275 377.103 1328.38 154 141 142
-79.0735 178.777 1165.53 118 87 86
-79.0668 364.265 1203.41 184 146 152
-121.318 97.3591 1101.33 229 172 147
310.305 48.8437 1709.41 144 122 113
285.422 78.4187 1711.84 171 147 139
310.701 344.291 1910.56 88 114 123
-20.794 196.207 1253.66 247 230 211
298.984 -10.476 1695.18 250 247 245
-55.6818 291.75 1151.74 145 106 103
-80.2216 571.368 1358.94 121 98 81
-104.13 232.138 1089.65 121 91 77
363.967 -174.048 1752.28 184 195 195
-67.8752 334.876 1178.21 169 146 147
283.58 104.755 1810.89 181 159 145
-66.4229 410.07 1228.97 131 120 114
340.375 42.2582 1804.26 252 239 224
315.143 266.791 1753.63 95 92 83
-82.3091 255.269 1112.34 248 217 191
-46.494 397.448 1213.73 189 159 133
18.2244 215.967 1302.45 157 138 128
-48.7415 339.528 1263.08 125 114 111
343.754 19.8701 1799.22 255 249 230
327.23 -33.5163 1783.85 254 250 254
361.797 96.9268 1820.34 247 228 217
36.2654 259.297 1375.08 162 141 129
-10.9062 143.153 1196.76 173 131 115
-130.046 165.688 1078.51 121 67 58
-13.3464 173.306 1233.13 227 201 178
254.022 8.29437 1689.58 148 123 112
270.745 19.4945 1788.62 66 25 12
-118.684 179.757 1156.53 160 90 74
-100.349 244.782 1115.31 247 232 209
-93.3588 25.0269 1217.73 199 189 214
-94.818 211.637 1114.56 144 109 93
273.986 10.4489 1695.91 88 46 41
-45.2221 396.047 1232.22 211 197 173
-224.424 90.1416 1123.51 173 148 130
-68.212 258.53 1143.23 153 124 106
-143.178 203.705 1103.01 82 38 22
-27.0111 173.929 1249.78 243 217 205
-181.862 97.529 1086.85 151 131 124
-16.831 145.841 1195.85 254 227 200
331.934 553.244 2147.43 134 147 143
-123.028 204.41 1016.43 185 154 136
-81.3732 515.222 1302.33 79 58 45
-28.5966 160.154 1228.83 232 210 193
280.572 -23.1426 1580.43 249 242 248
-124.764 184.616 1126.85 137 120 117
397.152 47.5665 1940.31 132 117 103
-129.948 226.24 1107.51 71 46 31
-36.3891 533.144 1313.86 37 39 36
-36.4373 309.507 1298.52 141 115 101
342.292 42.7288 1710.73 180 161 153
-26.7276 418.362 1308.85 213 211 189
-233.175 282.73 1209.57 70 25 17
354.269 160.619 1706.42 255 254 243
-44.3285 283.884 1153.52 149 119 114
-36.0884 287.475 1220.54 240 192 181
-81.7703 120.625 1160.73 169 156 143
441.196 186.457 1952.44 243 245 222
-89.4064 223.082 1116.45 228 214 189
-61.8738 159.395 1167.91 252 210 180
-102.276 219.103 1024.86 176 140 123
-89.9194 475.387 1102.23 42 24 13
-97.4258 575.52 1334.32 148 136 125
433.76 16.9594 1903.52 165 170 162
-114.979 286.222 1091.27 207 202 199
-10.8139 674.248 1397.75 74 91 82
-42.7005 588.613 1489.3 255 250 235
41.7711 295.483 1451.11 241 235 218
270.676 35.7087 1700.7 199 159 144
-46.4716 360.788 1210.54 163 133 124
345.054 135.036 1732.42 255 249 233
-116.549 182.148 1128.58 186 165 156
243.998 382.876 2086.89 110 131 144
-50.36 139.754 1168.92 231 230 217
-68.1612 372.832 1235.76 255 243 228
-37.6879 306.902 1238.19 224 185 180
-76.9633 281.087 1116.2 253 238 210
259.532 413.503 2226.06 44 56 66
358.086 506.003 2020.73 178 193 192
-79.4455 512.008 1214.86 164 143 125
331.361 441.604 1944.6 151 183 177
-86.297 484.226 1267.64 149 129 121
-95.8823 108.627 1156.67 234 240 239
-159.744 -43.2943 317.591 109 119 112
-90.3647 149.102 1160.9 182 138 143
-125.044 254.653 1147.62 144 107 82
369.55 537.833 2149.58 156 177 176
-81.0473 148.236 1113.61 198 161 154
401.522 -161.151 1847.76 195 205 185
-460.411 -48.965 792.321 104 116 111
330.052 420.979 1937.7 172 199 193
437.304 64.3237 1917.67 171 175 168
362.805 115.129 1824.88 242 227 204
-129.424 267.169 1183.19 197 152 128
-41.96 153.974 1197.11 225 145 131
-60.9359 234.132 1249.17 188 143 120
-134.779 182.091 996.712 118 88 74
