55.8904 324.221 979.318 246 246 231
-169.116 105.591 929.164 212 210 198
-408.432 236.519 1385.97 248 242 227
-388.105 92.4757 1244.02 250 244 232
-422.715 111.605 1364.36 255 247 240
-401.35 112.27 1372.54 238 232 225
-422.481 104.81 1363.56 67 50 40
-405.478 246.963 1447.22 62 42 35
-107.586 21.9003 1098.75 248 230 226
-467.437 496.349 1487.58 73 76 71
-20.6517 18.0562 971.234 204 214 207
-437.041 383.89 1339.15 51 51 48
-441.64 299.579 1625.42 115 97 77
-15.8458 13.2676 971.738 55 63 56
-107.54 11.0485 1098.05 227 227 220
57.2778 260.819 930.357 250 223 219
-8.6069 -4.96687 1030.26 242 240 236
105.231 331.765 994.644 202 205 203
-61.9824 153.397 828.57 183 181 172
103.029 3.54126 954.409 204 231 221
-446.914 263.046 1541 236 237 222
-578.378 97.3771 1536.49 196 194 187
-76.581 161.877 780.908 254 255 247
30.5829 235.018 893.581 197 176 165
14.4916 -2.44443 1034.43 246 248 244
30.7846 295.434 895.947 160 152 135
-141.555 130.283 858.077 250 253 241
-165.578 113.638 876.475 229 219 207
-121.178 31.3307 1051.8 240 221 215
-528.513 79.5639 1391.89 220 217 211
-414.168 261.202 1466.74 246 240 226
-269.332 243.686 1180.69 255 250 250
-529.252 34.748 1384.48 197 183 165
-90.6488 128.505 801.14 178 181 171
-31.2447 206.147 834.973 158 153 145
-459.044 -4.57024 1395.05 180 166 147
-222.96 268.806 1061.56 250 246 241
-452.21 287.475 1539.48 213 193 183
-443.122 284.883 1577.41 124 101 88
119.777 0.0391241 1011.55 35 31 19
-391.773 256.633 1330.89 192 180 172
-178.118 92.6873 893.388 202 205 203
-24.9416 8.07153 1069.88 255 246 241
-489.805 22.2188 1257.81 164 144 135
-123.969 60.1436 972.752 77 80 79
103.782 338.813 1050.68 191 205 205
-121.121 111.281 758.062 49 51 42
-168.925 122.378 943.533 130 139 135
-157.863 104.337 853.734 228 222 207
-219.621 290.214 1087.64 145 146 147
-42.1743 282.388 882.959 209 212 206
-128.898 111.887 831.698 216 239 231
-95.55 88.1957 927.394 27 41 38
-499.855 35.7617 1192.69 227 213 185
-124.17 39.4688 1027.66 222 206 196
42.9162 230.999 882.503 91 78 71
21.7171 254.706 892.934 151 144 133
-424.334 -7.42741 1282.11 144 131 116
-576.801 201.941 1553.43 143 131 114
-538.393 41.4896 1381.46 173 156 137
-338.581 87.5526 1469.11 108 93 81
-180.883 107.255 923.899 171 143 130
-352.462 101.858 1466.24 89 73 61
-124.88 118.382 806.164 161 174 164
-368.669 367.841 1384.25 194 205 212
-397.575 279.905 1161.99 156 134 128
-11.4793 290.821 888.677 197 173 153
48.9385 241.596 927.258 211 175 156
-542.928 39.1147 1417.57 22 12 4
-392.632 21.8665 1438.93 169 207 191
-345.752 102.028 1468.71 175 152 137
31.4457 5.0061 998.601 207 237 228
-91.5424 30.8179 1079.04 214 214 196
-504.584 171.215 1343.43 19 15 5
-83.4731 -2.40958 1050.89 166 173 158
147.891 229.729 1050.69 166 146 138
-379.545 288.529 1414.49 175 147 134
-563.233 126.908 1383.9 213 194 178
-119.337 86.9436 819.266 83 90 85
-124.093 94.8667 873.111 250 252 249
-542.615 202.183 1471.73 83 68 63
-544.459 107.516 1314.12 249 232 208
-545.987 165.571 1378.82 254 245 221
-620.656 44.3093 1415.29 124 101 53
-73.6933 186.733 817.806 92 92 85
-22.4897 154.42 893.427 50 59 61
-26.2068 -11.8906 1084.75 244 205 189
-394.154 64.7351 1444.94 180 157 138
56.4493 234.023 898.274 188 150 137
-386.835 96.2434 1520.23 170 133 127
-148.375 316.774 1017.76 248 234 228
120.513 344.699 1014.53 140 139 132
-148.288 62.1392 985.244 234 204 193
-268.556 108.96 979.602 171 151 138
-481.948 294.104 1375.33 160 129 111
-130.588 388.157 1114.08 122 125 115
23.7603 3.39387 911.095 143 155 152
147.297 129.103 950.711 143 91 78
-58.0692 191.624 867.117 161 161 162
-9.72739 41.0609 923.21 1 64 56
-238.608 295.605 1155.79 171 174 170
-495.085 107.254 1203.08 117 98 80
202.607 290.179 1062.75 124 79 64
-214.286 118.009 955.229 208 201 181
26.0945 272.642 947.391 43 33 17
-466.061 338.335 1389.59 221 211 208
-119.696 84.9557 905.064 76 109 110
-97.8964 58.0456 977.965 240 223 219
-134.171 49.5429 1026.16 31 34 30
-206.476 114.792 938.724 86 87 72
-29.0747 321.964 874.882 236 242 222
-57.7934 184.337 858.186 83 81 79
-596.963 307.85 1752.04 205 196 180
-154.725 349.585 1084.25 241 227 211
-78.5923 3.07235 1151.88 230 178 156
24.5655 275.494 868.146 156 130 116
-154.553 97.6482 898.488 28 57 51
-83.6639 203.209 831.489 252 255 246
-32.6463 22.8125 969.461 91 91 84
-473.396 175.713 1225.08 252 237 218
78.5984 43.957 936.949 141 123 100
131.664 193.712 998.964 65 44 31
-479.33 301.417 1377.71 252 241 229
134.329 192.911 1007.71 142 136 122
-1028.48 90.1352 1805.97 218 225 216
-451.344 286.203 1386.37 209 195 189
-425.817 375.979 1340.35 255 253 228
-501.706 111.595 1268.84 151 116 107
-161.75 59.3388 1064.83 154 104 87
-486.575 2.15879 1320.33 77 56 41
-496.889 247.879 1431.67 71 65 60
-32.3436 141.678 850.288 58 69 62
-163.731 51.7514 1019.62 243 241 243
-534.618 320.43 1589.55 71 51 47
-471.228 319.95 1384.29 181 169 161
-419.515 98.3418 1523.25 158 152 144
-77.2965 47.0593 928.711 182 135 119
-115.848 121.812 796.18 110 130 114
-521.417 280.606 1512.64 105 90 70
107.883 236.157 970.614 64 55 48
170.711 250.74 1097.03 122 127 122
-134.816 148.675 872.678 243 253 247
-146.657 83.005 933.079 204 216 217
-61.7399 5.40955 1062.6 181 144 117
-49.0596 240.51 801.858 140 135 121
-47.2834 176.146 810.968 58 56 51
-7.0205 320.016 890.438 157 135 128
-70.259 74.4118 899.424 185 172 166
-57.2472 77.4946 950.441 215 209 201
-314.498 22.1171 1258.11 84 101 96
-543.303 50.9913 1240.84 251 251 196
-544.413 307.474 1583.47 183 155 134
-451.19 -9.35552 1337.29 151 135 122
-600.644 33.9417 1351.35 202 185 168
-69.0976 41.3463 982.805 144 119 114
-47.0143 162.355 848.612 85 89 85
-87.7204 203.018 830.714 250 254 249
-697.612 22.3604 1461.56 119 120 111
-435.596 3.26882 1156.29 72 49 25
-84.8784 150.97 789.338 228 232 209
-84.8873 51.1171 961.532 253 229 211
21.0769 283.108 881.773 56 35 20
-224.83 204.882 1036.61 255 254 246
2.219 323.09 902.034 142 129 127
-138.54 52.3872 1007.8 140 85 91
62.5042 255.37 948.527 178 154 143
-392.952 385.952 1425.93 80 80 76
31.8887 301.571 946.385 46 26 7
-473.499 -2.86955 1402.67 149 132 114
-508.752 143.128 1270.88 204 172 152
-536.581 209.956 1475.31 107 105 91
-157.332 50.2127 943.905 114 103 91
-450.292 292.845 1377.31 123 115 109
-484.913 354.307 1540.74 197 199 193
-443.902 94.7473 1109.56 63 38 29
-43.8672 54.4321 917.975 101 131 122
-121.027 344.726 1007.54 234 230 220
-377.099 111.765 1526.9 231 235 231
-78.85 51.0213 959.534 188 149 135
-917.58 80.9577 1623.54 212 220 206
127.171 182.118 963.996 31 23 9
-145.157 297.581 979.517 203 186 180
-112.173 352.422 990.725 184 184 180
-621.973 23.7399 1339.3 214 215 192
-41.4227 140.96 821.75 45 44 48
-47.224 266.085 861.993 134 129 124
-161.595 298.837 975.741 244 229 213
130.655 327.37 1015.24 202 164 149
-412.322 318.877 1562.93 153 123 107
-46.3211 309.815 871.155 245 254 240
-188.796 252.676 1002.94 255 252 230
-530.111 125.52 1467.1 107 101 99
-78.6842 176.115 834.356 122 110 100
141.738 181.58 1000.12 160 145 139
-100.713 39.2905 1056.64 156 117 100
-39.4648 24.1863 930.521 140 96 80
-93.1584 80.46 795.25 99 130 133
-680.388 179.213 1572.24 170 154 139
-663.803 149.679 1509.64 239 219 200
148.005 294.058 979.606 143 163 165
-531.235 130.411 1211.53 189 169 151
-188.066 319.736 1074.03 225 220 211
112.312 285.761 1010.16 25 63 56
-602.917 104.864 1431.95 194 166 138
-26.9033 330.919 875.68 188 190 175
-1074.94 89.556 1794.03 90 98 82
-350.763 47.3372 1458.53 117 114 105
-476.7 308.753 1380.08 180 151 134
152.628 187.746 1048.25 143 108 100
-171.313 129.741 913.634 87 80 72
-77.7471 -9.84011 1166.19 153 148 136
-107.336 347.798 991.498 197 199 196
-714.713 29.6351 1557.9 158 153 133
-27.843 39.6376 971.389 82 129 132
-138.993 112.708 822.638 81 100 98
-81.0426 200.955 806.059 248 252 246
-537.72 205.513 1407.74 177 138 105
-36.5395 160.587 850.342 79 94 90
-248.332 207.628 1063.81 231 232 234
-198.866 273.08 1083.7 254 253 233
-37.5661 73.8962 843.563 198 205 212
-60.0121 -2.44354 1048.1 157 137 145
-159.133 125.541 884.206 145 139 132
-524.918 171.319 1331.24 212 183 167
