372.971 206.071 918.037 253 255 251
357.477 174.404 885.369 253 251 249
-454.406 337.547 1091.32 254 254 250
222.427 135.91 946.031 243 211 209
-325.346 93.8345 1004.51 255 242 220
361.317 210.357 889.018 252 253 246
-449.828 317.082 1043.17 80 78 74
309.692 127.499 850.966 34 45 38
-413.593 159.159 1025.2 91 67 48
324.364 90.8133 890.481 84 85 63
226.567 -70.4557 915.336 248 240 223
-251.329 342.888 1060.24 242 236 231
164.477 -103.509 991.153 254 247 245
-323.932 66.2061 963.242 255 249 235
279.239 -46.1786 831.661 247 252 246
-327.562 88.8291 1003.61 63 38 29
222.526 140.633 946.391 247 230 232
-439.388 278.405 1010.99 65 53 43
279.847 366.656 1098.98 76 104 114
-419.752 383.933 1107.54 77 77 72
376.315 173.424 930.969 216 225 215
-401.64 477.995 1175.52 85 87 82
-391.087 140.897 987.815 77 67 36
269.167 -81.6112 900.395 249 253 250
-423.166 120.218 976.691 250 237 223
-336.833 -0.0162017 919.875 95 69 36
116.886 85.4955 944.735 84 72 62
291.704 -60.0617 856.584 228 227 212
252.298 -66.0867 917.98 251 240 230
143.965 -130.576 1044.4 62 60 56
-409.286 169.579 1027.24 86 70 56
-284.781 303.668 1121.06 255 246 240
-432.616 11.7405 928.927 215 207 192
-427.762 287.463 1003.7 255 252 239
161.53 147.133 923.306 245 228 224
308.943 37.8147 884.847 198 184 175
-334.798 4.52348 920.587 255 243 207
-391.288 485.149 1179.74 40 46 41
-407.507 385.591 1111.67 255 253 255
179.405 149.217 942.012 250 232 214
303.373 -2.91106 812.708 54 83 73
193.887 45.1931 888.873 251 248 246
162.58 -123.263 1047.28 238 232 229
147.129 214.798 975.717 233 232 208
242.557 171.849 950.838 109 86 81
295.625 329.172 1057.62 46 80 92
-459.603 350.482 1090.94 101 89 84
233.493 -74.4108 802.183 171 181 180
-463.33 322.574 1086.72 237 230 224
314.938 -0.681305 840.908 228 255 251
190.894 92.0746 908.032 255 237 210
-297.022 76.2799 893.024 252 243 220
372.32 192.167 916.585 195 198 201
139.09 154.095 951.147 253 252 252
141.519 -49.0561 847.616 192 188 169
162.019 215.256 977.794 57 56 38
-275.412 225.535 1003.27 255 249 229
183.823 45.4301 874.704 243 236 227
234.255 -74.5395 769.857 30 46 45
-446.186 304.998 1090.95 255 254 235
-407.116 149.681 1004.58 236 214 195
-452.702 356.911 1093.97 60 59 51
81.6972 -33.2203 871.48 197 199 197
376.054 166.396 930.387 230 238 222
226.974 -5.19119 889.283 47 38 23
-478.504 313.588 1062.45 134 134 124
264.913 -79.227 871.433 66 80 72
-391.758 179.723 1006.64 255 253 250
-510.489 127.687 990.356 95 80 65
227.981 -78.3802 825.779 23 48 47
-253.621 329.409 1058.66 255 250 213
-390.226 26.8299 905.832 90 74 60
-402.572 26.2787 919.789 129 111 106
345.514 -3.67564 883.318 252 255 242
283.887 431.659 1148.3 54 89 90
-452.733 17.028 961.686 73 41 36
-217.868 290.655 1160.69 57 53 44
334.59 367.751 1174.34 155 198 203
-410.526 135.33 957.001 255 244 226
-393.901 25.7192 941.364 116 56 36
-443.377 328.428 1046.38 125 127 123
-450.455 258.291 1047.79 148 141 142
328.689 428.423 1070.04 105 130 143
-409.179 139.669 1003.47 245 218 192
266.791 66.0309 913.422 248 246 223
-277.654 220.299 1002.33 167 129 108
-534.737 311.664 1164.94 114 72 73
108.255 86.6984 911.109 255 249 235
-427.485 11.1199 894.183 194 170 162
-424.058 123.198 1019.52 255 238 218
335.034 8.88714 856.216 228 239 219
331.142 297.675 1021.17 229 228 212
305.263 61.8445 886.664 255 254 226
357.505 115.159 924.72 246 253 252
224.801 53.8728 920.937 218 208 190
354.919 168.895 913.053 221 236 221
286.469 400.616 1103.02 95 127 140
187.008 107.773 955.031 242 218 201
-268.785 263.849 1022.69 248 231 211
-394.001 32.699 941.627 147 54 46
-347.556 222.084 1049.47 103 74 68
-258.193 63.9262 1112.27 189 169 156
-338.149 223.421 1026.72 218 199 193
117.315 68.7486 911.447 245 230 216
117.455 27.6414 866.193 206 194 190
-267.7 68.7114 1062.64 166 152 145
302.567 29.6807 805.734 238 242 224
327.551 12.2887 866.272 224 227 222
226.176 117.401 913.622 225 203 200
-298.686 174.665 1016.36 235 210 183
210.236 56.2036 921.951 238 232 208
373.739 213.372 949.157 222 236 218
-491.668 247.764 1103.09 123 127 118
-332.935 121.645 918.485 130 79 53
-407.653 199.215 1076.82 144 133 132
227.662 12.2891 887.756 68 56 40
-289.817 292.054 1118.89 132 112 89
-262.438 345.431 1100.57 168 151 126
124.369 -118.224 1025.56 218 213 205
-356.056 87.6152 974.061 255 242 252
-320.001 199.411 950.528 228 224 217
-338.705 87.6213 976.165 246 227 200
356.979 111.118 894.47 222 240 223
-309.033 109.422 969.354 175 137 109
116.159 27.7382 925.53 251 245 238
-334.796 327.454 1132.27 142 112 93
136.552 -78.7715 937.497 184 169 155
-491.426 240.321 1021.25 140 121 121
-370.325 500.07 1187.97 218 229 222
141.238 125.834 950.09 162 147 157
-435.073 281.644 1044.89 220 227 209
201.72 175.04 961.955 107 76 56
-290.996 120.702 930.57 129 109 79
-278.802 158.201 936.611 158 120 98
263.118 245.7 992.316 255 254 237
-316.51 118.991 1008.34 188 161 133
131.021 42.8826 853.011 255 253 251
107.271 76.0032 942.914 251 251 250
144.147 140.634 986.349 177 172 170
-244.337 208.485 1032.48 142 128 114
174.434 -88.2947 941.121 172 170 158
332.79 10.9863 815.481 237 246 217
389.451 15.9599 934.829 248 255 235
-350.199 80.0779 956.526 255 244 231
-464.98 299.356 1036.43 220 223 212
139.008 -86.1383 971.49 37 29 25
325.604 -2.77888 841.513 148 157 152
-386.159 491.74 1182.12 208 214 211
213.248 159.336 946.705 234 213 195
-261.747 93.0009 1164.74 152 147 146
177.14 227.972 980.635 213 216 185
-377.233 173.727 1037.49 141 138 120
292.12 11.7529 838.328 131 123 119
-343.016 235.343 1051.67 136 118 111
117.626 83.9578 1005.23 143 135 128
-320.971 108.907 1006.54 221 187 164
-304.446 288.967 1014.65 215 204 191
-406.231 130.829 958.075 117 80 62
361.664 215.227 918.156 186 199 188
111.748 43.434 941.773 255 250 247
-342.864 14.2862 955.671 222 205 163
-298.752 179.715 1016.62 255 247 221
-354.369 70.5824 954.897 255 244 247
163.312 10.769 870.109 180 184 170
342.628 48.5895 902.738 224 230 223
98.9603 24.4257 836.691 212 188 177
196.374 155.653 959.516 205 197 203
231.718 5.7603 890.429 215 209 200
155.191 166.949 1027.08 104 106 105
177.835 203.233 945.345 204 195 180
274.965 428.255 1146.84 62 87 94
-313.595 289.494 1039.1 117 88 80
205.235 2.53866 807.287 101 80 68
-348.709 152.508 977.399 127 104 79
-397.754 122.078 963.761 137 107 94
-403.742 105.009 919.93 255 230 217
319.954 411.548 1067.71 85 130 152
209.681 160.575 960.539 203 167 140
206.896 10.076 888.231 188 169 146
238.8 61.0805 910.518 229 204 184
121.18 55.3793 881.503 255 253 250
187.608 -93.8042 990.27 58 45 39
-493.333 259.697 1069.26 254 244 236
154.283 105.003 904.731 234 230 203
268.913 83.0089 870.289 255 251 227
-331.09 111.311 963.386 255 242 224
-328.936 91.2952 941.574 167 123 90
360.764 151.442 898.003 208 215 203
-259.824 62.4672 1133.89 43 13 1
-547.326 60.8982 972.414 236 233 221
168.258 -90.7365 956.263 226 170 143
133.394 -132.902 1042.89 211 194 173
-382.88 119.222 1027.78 168 124 97
335.459 19.4173 857.196 196 210 185
311.439 -26.4258 787.304 229 243 213
194.638 3.70252 819.64 245 219 207
172.334 -44.3156 881.371 183 170 154
-380.927 495.342 1184.22 166 170 166
-335.755 329.341 1014.78 207 204 190
208.889 167.977 962.081 251 244 230
178.676 91.1464 889.561 242 240 214
-303.188 161.868 1014.42 221 183 161
336.306 399.486 1046.48 94 109 109
-331.528 241.549 1030.17 115 79 78
-472.975 267.009 1077.48 110 97 93
-406.153 130.654 982.592 216 183 167
258.357 178.722 968.254 158 128 104
-324.858 260.163 1033.55 228 216 207
280.069 -87.6265 871.625 97 108 101
-359.62 358.394 1103.14 147 140 122
217.986 154.683 946.915 172 133 128
187.141 228.309 981.969 217 219 186
180.526 -91.5002 879.28 151 163 156
316.487 34.489 842.024 214 228 220
223.694 -56.9745 793.327 214 227 218
-548.277 33.0265 929.014 239 238 214
-320.595 47.5532 926.042 255 242 194
-352.394 104.568 935.511 200 174 141
-398.664 181.748 966.225 154 164 154
292.09 393.737 1063.1 74 110 122
-360.293 63.0519 915.779 115 72 55
94.0723 -80.512 914.872 107 99 95
252.063 162.54 951.171 217 192 180
-290.83 262.052 951.18 239 229 209
179.705 168.012 943.317 179 156 143
156.149 94.3114 985.433 238 213 191
310.079 -9.97591 802.484 204 217 198
186.912 168.182 944.211 211 185 181
-329.293 246.896 1031.23 204 182 176
-236.561 318.099 1122.29 182 181 173
183.8 231.937 1017.99 196 194 159
-265.07 -4.47587 1105.78 45 46 39
121.092 -43.5503 887.712 143 152 148
-551.795 77.4762 971.817 253 246 237
227.812 -15.5836 831.733 173 161 155
-516.613 85.1896 916.795 244 242 240
-291.731 68.797 1103.17 85 64 55
-333.758 236.485 1029.05 210 200 194
179.056 120.127 900.59 226 194 203
273.775 66.1252 914.025 237 236 206
-389.981 170.376 949.555 253 246 240
-246.601 179.814 1049.56 95 62 46
140.6 87.109 915.386 232 202 177
-449.166 330.349 1025.93 107 96 89
164.454 3.91334 842.524 177 155 135
203.931 138.527 897.641 246 234 224
257.819 330.409 1053.41 86 108 113
-333.825 259.453 1055.89 151 133 127
135.438 35.0843 912.018 250 240 240
-418.147 578.84 1372.64 54 75 64
-275.737 192.063 1258.8 191 163 151
169.907 97.971 952.381 235 216 188
221.817 151.276 961.523 54 31 30
-329.219 273.006 1058.05 156 125 120
335.231 336.41 1004.48 93 112 123
-445.281 199.971 950.162 157 123 107
-440.92 86.0836 906.835 255 254 246
223.747 -132.491 942.801 83 74 64
184.555 37.4175 934.23 231 207 175
356.564 107.13 906.434 212 232 205
206.658 -135.094 953.731 131 127 118
361.422 66.4029 862.888 232 233 219
147.517 39.0013 946.203 207 192 189
-369.213 142.518 1032.53 132 95 78
178.124 -3.24381 855.894 174 156 133
-491.499 110.959 953.636 134 122 120
270.78 43.3908 911.844 191 172 149
239.071 -14.6151 847.751 153 141 138
-292.067 32.5521 1076.52 174 142 123
251.524 343.496 1116.14 116 148 155
-395.496 455.632 1138.26 99 99 92
-251.574 184.782 1048.58 141 115 103
224.757 -126.971 893.244 48 52 53
-476.704 252.965 1058.01 180 170 170
-477.014 263.497 1058.76 253 243 231
137.119 204.756 973.677 78 68 52
249.271 123.484 900.599 248 219 204
375.884 127.135 897.038 233 247 230
-479.235 264.249 1028.03 191 164 158
-289.361 34.3995 1054.69 117 93 82
-387.844 39.7113 943.764 253 234 211
-460.161 100.319 924.19 248 222 201
101.12 55.1065 908.608 227 216 218
118.914 117.23 965.24 217 201 184
103.508 37.2402 887.143 149 132 131
-374.18 221.23 1114.78 121 110 96
123.34 -52.624 875.498 161 154 135
-305.187 -8.9825 927.945 148 130 109
329.966 49.0909 844.279 238 250 228
196.817 -65.6251 896.216 17 18 9
358.151 12.1504 867.537 242 243 223
255.206 -52.1397 845.865 130 109 107
344.33 80.8724 836.664 231 246 231
346.334 98.1561 906.191 200 225 213
218.093 -13.3123 806.978 63 47 36
130.528 194.127 935.426 61 53 37
-442.369 218.727 976.634 175 169 159
-269.252 237.826 1173.63 166 155 145
-261.076 85.8958 1112.96 141 129 116
342.586 117.334 861.213 200 218 181
-292.87 41.256 933.042 137 126 119
112.673 64.2044 910.606 148 117 109
293.227 -57.1184 810.12 105 120 97
-366.401 60.6262 913.967 244 207 197
156.698 -122.509 1088.49 174 164 165
-387.744 197.757 992.114 175 158 145
116.513 40.1092 879.693 157 151 152
-339.49 125.855 1002.18 192 140 113
-358.723 75.2378 953.862 151 120 112
-258.238 235.553 1176.61 59 35 28
292.379 409.315 1104.55 83 113 128
219.76 -3.25248 832.325 210 203 178
-351.884 370.687 1128.54 138 117 89
121.696 44.0094 910.752 243 240 238
-498.68 204.407 1015.05 154 132 112
-497.11 240.578 1065.82 169 160 162
-474.338 196.714 949.614 170 161 141
276.289 158.248 953.301 187 173 153
132.017 190.041 972.013 100 96 76
-270.601 184.232 940.753 200 179 154
317.303 -64.7313 836.675 201 209 178
-258.66 67.1029 1163.63 159 148 135
-292.185 71.2467 1099.38 119 107 100
197.596 208.775 964.574 116 99 91
-254.921 71.9149 1089.74 56 46 37
227.949 215.192 1038.49 248 230 188
236.274 137.969 1036.11 138 116 112
-500.276 80.8695 971.786 246 235 231
-352.026 56.4257 954.926 201 155 130
330.222 251.404 919.114 201 196 175
356.053 143.631 910.452 223 242 212
263.956 134.086 918.586 206 192 176
-217.418 189.518 1203.53 107 85 74
163.844 168.954 974.938 177 172 158
-289.658 202.934 1020.37 249 232 204
335.199 18.1541 884.79 188 198 183
-505.562 156.557 965.45 242 241 221
-420.746 89.7618 879.039 221 202 195
153.445 -107.591 971.678 211 152 145
390.67 185.444 917.004 115 105 90
-243.089 180.566 1149.61 144 111 87
145.839 117.663 968.895 181 156 145
214.876 56.5872 851.055 217 190 171
329.359 68.858 947.181 172 168 151
-251.423 174.342 1047.85 140 114 97
-316.977 321.866 1085.86 205 149 118
313.303 -130.764 1033.02 48 78 77
129.101 151.196 969.02 239 238 235
171.857 310.448 1040.49 99 90 83
-235.243 166.398 1177.85 91 66 50
84.5507 -0.132904 860.455 125 119 102
134.346 160.923 905.708 167 151 137
309.564 98.1029 981.322 163 150 114
-532.925 188.091 1060.89 210 186 153
-324.705 125.75 965.863 255 244 238
-517.387 195.54 1038.9 248 244 215
281.414 -122.978 897.273 58 109 105
286.116 70.1967 870.213 231 231 199
292.027 85.6906 965.204 138 134 113
201.104 154.338 944.957 72 45 37
337.48 35.799 869.429 214 241 223
364.213 83.9491 876.13 227 235 230
279.306 95.7517 916.954 158 150 124
286.042 149.566 987.381 255 249 226
305.748 320.283 1020.78 107 138 157
-500.007 171.304 968.733 248 245 226
221.74 199.892 934.68 246 249 242
221.317 202.22 950.537 228 229 223
-520.505 126.959 957.456 248 249 249
257.596 -43.9768 846.718 119 114 112
171.113 -109.177 952.906 220 143 118
-444.428 50.4799 869.599 178 131 117
224.458 209.866 985.361 231 229 223
