139.704 285.427 1931.05 252 252 235
264.03 338.397 1760.07 52 68 64
255.387 -101.647 1673.51 179 176 169
-11.774 58.4685 1238.93 100 3 0
272.29 -37.9926 1686.55 255 248 237
24.1629 88.6431 1156.36 156 148 124
-55.9876 47.2848 1160.25 25 6 5
-86.4438 455.688 1235.03 255 252 252
-50.742 47.0377 1188.76 253 234 224
280.876 350.322 1833.47 108 127 142
-69.1669 434.049 1131.18 93 68 45
-79.326 465.842 1209.98 249 234 212
-182.791 488.999 1155.69 184 181 176
-46.1148 452.087 1185.81 236 229 229
-35.8475 492.724 1191.87 116 125 127
-15.4086 230.85 1315.99 120 79 63
-51.9371 439.403 1183.25 228 227 222
-84.8606 343.147 1198.91 76 73 49
23.613 494.026 1312.23 75 77 74
-119.014 118.415 1057.37 237 182 166
253.158 68.6613 1601.53 103 104 102
-52.5348 483.767 1217.53 124 130 127
39.2016 170.037 1218.83 113 99 82
239.723 99.8889 1536.3 137 133 131
-34.5114 386.51 1214.13 249 247 229
-17.2306 241.801 1296.51 99 84 72
-80.8605 384.792 1053.66 230 209 210
-62.7333 356.572 1324.83 224 196 191
-108.915 168.747 1062.37 237 216 205
-72.3894 489.149 1183.25 211 201 190
-13.2923 205.882 1235.28 255 241 213
-7.17625 491.076 1228.2 246 250 250
-73.5178 528.159 1215.72 160 139 129
-45.6212 404.535 1146.68 255 253 244
-106.823 246.863 1089.08 91 72 66
-77.4568 447.393 1200.67 77 66 58
-49.0949 377.19 1100.06 175 164 139
-47.2704 474.655 1165.64 123 97 83
-118.97 107.908 1056.8 255 203 177
-118.992 113.173 1057.08 154 67 43
297.206 499.663 2130.93 74 99 102
155.751 -106.46 1652.34 86 83 85
-66.6589 523.349 1187.66 226 227 215
-78.7074 356.543 1124.95 166 141 140
-46.5076 431.754 1215.04 238 232 230
-112.237 175.252 1054.43 125 33 23
287.503 441.901 1885.92 100 126 122
-189.741 557.322 1306.63 188 191 182
-97.576 318.147 1070.73 113 115 110
-16.3707 193.416 1233.65 255 245 214
-16.2908 252.168 1238.12 251 241 223
-51.7665 322.091 1171.01 94 71 66
-16.2743 264.573 1239.02 151 144 134
-50.2609 33.0119 1160.35 135 119 111
-159.612 146.704 1027.17 157 134 123
-63.6386 55.7048 1128.14 200 174 159
-1.94445 252.71 1263.43 130 125 117
-4.01519 240.316 1239.9 252 255 253
-47.2279 386.257 1159.7 253 228 211
288.731 272.04 1752.49 31 30 21
-202.352 502.854 1202.66 120 115 109
-15.5354 190.628 1179.36 130 85 48
-27.0036 490.523 1193.67 175 178 190
603.446 -248.553 1307.18 83 82 78
-59.202 353.748 1180.06 138 102 100
-97.5619 226.514 1113.92 131 80 62
-28.6189 201.137 1198.54 253 244 226
-127.366 241.147 1157.65 36 23 22
-38.2947 37.6297 1090.35 156 122 104
-121.485 97.4101 1055.65 237 217 198
462.863 -195.269 1033.16 63 65 63
-109.079 216.402 1064.85 192 197 194
272.262 44.789 1597.89 246 230 220
-174.541 492.849 1158.28 130 132 124
-19.441 181.011 1232.01 176 123 102
206.627 370.052 1911.45 74 89 97
278.548 -7.04717 1795.52 201 179 170
267.329 87.7202 1624.79 220 213 211
-79.9979 185.398 1090.42 140 104 94
-253.843 130.685 1117.91 68 21 14
-51.3567 454.647 1151.52 252 252 251
-2.93768 237.467 1290.36 175 157 144
-245.109 308.226 1243.44 69 16 5
224.173 405.139 1866.65 74 95 95
-132.087 178.419 1057.73 108 57 46
-83.9024 198.356 1087.84 143 115 102
-100.523 286.773 1140.03 252 239 225
370.659 178.35 1789.3 255 255 236
-93.2701 134.879 1063.9 160 160 162
-48.224 377.222 1227.82 102 92 75
226.509 103.453 1620.8 179 162 156
232.786 14.1589 1687.22 166 136 121
313.507 47.0004 1673.46 159 144 140
-74.1827 317.732 1018.76 179 148 157
266.635 96.815 1610.01 255 253 254
-48.1409 314.658 1220.21 88 58 57
-132.671 241.219 1106.76 144 124 106
-119.136 147.311 1058.95 193 123 95
-72.34 384.808 1223.1 255 244 223
273.822 -0.484129 1694.91 250 242 241
-19.6538 7.87594 1217.16 71 52 28
242.971 -12.1809 1566.11 163 151 150
304.008 97.2241 1720.3 145 122 112
283.343 44.6995 1919.61 235 193 171
-129.278 96.0514 1098.8 186 166 146
10.9429 108.024 1108.27 255 236 212
295.055 92.8677 1718.01 251 245 238
-113.395 126.483 1104.33 121 133 111
-7.48598 287.879 1302.51 172 166 152
300.669 20.5547 1703.49 252 236 224
-80.808 415.734 1174.19 254 254 252
301.964 433.788 1943.09 156 172 170
233.237 73.9142 1438.78 136 109 112
5.44664 624.953 1297.97 113 130 120
301.854 263.507 1753.11 117 105 88
278.386 44.999 1539.65 246 234 229
-107.115 127.677 1037.77 123 95 85
-108.814 49.0498 1201.02 91 66 48
-50.0119 298.466 1152.42 194 143 142
-176.163 172.343 1194.04 138 122 116
-89.43 238.01 1116.4 242 231 201
-80.988 130.124 1111.75 161 140 137
255.596 351.218 1748.31 135 150 146
-84.4434 462.592 1296.87 161 159 156
-80.0318 14.258 1261.21 122 141 154
285.699 -25.5605 1691.27 240 238 233
-71.5883 381.938 1294.63 240 231 236
310.669 185.444 1835.9 223 212 194
-84.7634 487.822 1231.61 209 204 205
22.0119 139.77 1359.46 255 242 234
357.397 181.418 1842.06 254 252 229
339.49 27.8822 1903.21 254 239 227
-19.7578 168.434 1197.13 246 210 186
-65.7454 203.146 1201.91 118 71 54
-65.6411 551.971 1256.25 228 227 228
307.22 326.737 1866.41 151 166 162
310.885 54.4979 1712.29 157 135 133
-108.224 129.95 1035.51 228 164 151
-66.6969 171.164 1138 250 227 207
8.26687 219.058 1240.9 171 149 132
333.642 -168.887 1751.37 186 208 209
24.8946 256.7 1307.04 177 166 167
-55.4657 148.787 1138.43 255 250 255
-119.58 81.5895 977.514 231 206 182
-103.975 129.73 995.305 211 140 115
-75.785 408.63 1278.44 177 140 129
-66.7511 193.966 1139.98 220 156 134
-108.089 143.119 1106.57 160 158 136
-40.2221 349.789 1176.6 181 157 151
-231.362 312.318 1189.38 72 16 9
170.526 331.244 1841.14 49 68 68
351.129 -166.19 1792.57 175 181 169
347.846 4.01278 1797.48 255 252 221
-119.325 201.99 1146.06 241 233 233
26.5646 154.249 1431.3 255 228 219
-96.4514 286.615 1167.73 214 195 172
-31.5201 413.378 1245.29 212 212 186
-71.1676 189.6 1106.81 244 205 171
-93.921 115.306 1052.79 182 190 178
195.788 362.778 1961.2 124 138 159
343.729 98.4758 1820.3 199 171 154
-37.9265 381.975 1284.1 233 203 199
26.6284 281.23 1578.06 173 158 143
-83.9947 274.232 1090.44 168 139 116
-86.1048 300.389 1193.6 248 226 206
-38.8207 160.514 1172.33 231 197 185
-54.7963 127.37 995.468 194 158 139
-146.327 290.506 1056.81 109 88 74
