-3.77193 366.456 1249.24 209 202 200
2.46535 379.438 1251.41 241 234 228
15.9428 -46.1131 1166.96 84 63 49
-70.2064 42.1168 1156.97 34 29 24
-44.6693 358.919 1184.16 245 230 211
-3.27323 346.127 1140.81 255 250 246
500.866 -156.067 1602.05 245 239 231
52.4417 -35.7964 1261.47 77 47 33
47.9308 91.721 1238.51 97 54 31
54.0704 132.275 1261.2 149 118 105
42.9444 81.8816 1182.94 247 232 215
-91.4077 47.1054 1179.94 254 254 241
394.355 134.683 1741.62 200 199 188
65.0493 -28.9929 1242.45 127 48 17
-7.52683 321.97 1215.1 149 134 130
-47.4142 53.9741 1162.76 73 64 52
-50.4902 340.719 1181.86 189 182 183
487.006 -1.631 1554.09 243 236 237
596.877 -20.53 1823.13 237 235 235
-56.0882 128.926 1166.64 83 38 14
455.648 -41.0465 1522.17 234 232 230
-1.42475 -37.4534 1164.45 31 16 2
62.1874 -39.9223 1205.75 125 46 15
-56.1664 195.978 1171.44 245 237 207
-34.5292 369.257 1213.39 123 92 77
-95.242 61.5184 1096.78 128 29 15
-99.4374 29.8389 1077.5 255 223 195
94.9702 114.451 1249.39 130 105 81
45.1408 144.131 1242.65 117 94 80
529.161 -42.7755 1725.7 48 45 43
447.391 -66.3143 1538.21 232 194 179
-28.5362 357.433 1213.69 255 250 235
519.258 -59.705 1721.49 248 230 226
50.8835 118.478 1214 235 206 191
-30.0847 256.126 1181.1 135 134 131
31.1988 96.2975 1181.89 108 82 66
484.083 210.32 1592.14 21 48 59
-30.0062 422.704 1190.66 233 230 215
-1.72553 330.816 1272.37 221 192 183
485.725 -20.7386 1550.29 255 245 245
-95.6943 61.6967 1152.86 249 220 207
355.944 123.9 1950.28 90 91 79
491.086 60.3948 1566.14 193 174 153
-50.4057 205.035 1173.32 255 231 195
70.1896 164.692 1308.53 255 254 254
537.068 -31.9381 1717.19 154 132 135
536.363 -40.3375 1715.08 255 248 251
435.897 -336.562 1973.31 202 208 197
557.263 -13.9517 1637.23 255 234 233
43.8753 158.639 1273.58 255 247 224
655.617 -238.459 1700.84 235 248 239
-17.6137 -31.8565 1270.53 231 213 190
1.79219 418.503 1225.37 114 115 109
-91.7229 89.4322 1107.01 255 239 237
51.1325 107.228 1240.53 249 233 218
490.636 -123.437 1613.36 185 168 157
-70.104 139.765 1114.99 123 95 83
-34.5246 403.123 1216.22 203 183 175
35.6985 119.15 1238.59 225 215 197
43.9729 610.914 1456.88 77 108 94
-70.6422 256.86 1172.29 89 83 78
-80.2204 59.0187 1125.12 125 123 107
53.9276 183.727 1307.1 88 62 42
32.9255 120.576 1134.26 255 235 214
41.9637 131.657 1240.93 141 94 76
-50.3292 111.737 1166.59 112 83 72
48.797 70.2545 1183.06 128 79 59
70.2568 163.565 1249.19 157 152 142
2.40583 361.813 1311.13 232 208 194
-10.0837 -34.6126 1163.03 194 165 150
-0.702379 434.419 1315.52 126 98 78
537.19 -123.341 1692.65 117 115 111
45.2818 168.948 1244.8 255 243 234
460.77 -41.1573 1469.99 252 249 250
19.6415 299.054 1218.65 247 248 227
594.3 -69.5623 1711 252 236 225
-66.2742 46.8474 1168.01 253 246 243
496.9 199.418 1760.01 58 82 93
491.075 -115.576 1614.69 84 72 70
114.749 26.1495 1302.34 252 240 227
-64.5577 59.4393 1159.54 78 79 75
118.817 181.199 1384.29 128 102 80
-12.9799 229.196 1154.91 244 224 207
554.751 169.441 1763.67 105 108 97
-81.8787 62.0934 1130.77 150 151 135
116.78 402.454 1364.57 59 62 61
62.8217 114.874 1274.57 169 115 75
452.936 -292.421 1767.9 218 183 159
59.7873 146.447 1276.03 123 91 69
51.017 635.896 1520.94 181 195 186
573.17 -69.7369 1625.64 154 134 118
428.754 -203.425 1438.63 163 152 142
-21.3412 226.956 1181.03 137 124 102
386.449 -234.149 1582.04 38 41 45
-102.998 76.1487 1179.01 245 214 196
13.7782 169.454 1184.16 188 160 147
65.5296 412.891 1355.51 72 52 48
-6.90646 394.854 1246.68 183 181 177
-81.0838 167.108 1114.37 95 76 66
55.8465 386.407 1262.92 141 135 119
530.844 -4.09584 1666.97 88 86 90
46.7241 79.7623 1295.36 230 180 165
7.21496 212.85 1207.65 247 219 205
442.055 -3.59234 1539.36 142 137 137
57.8896 188.067 1248.89 152 140 128
111.193 -93.345 1330.05 255 251 227
570.282 -93.5286 1721.24 244 227 211
63.8542 144.691 1246.32 208 179 159
604.324 -51.2227 1732.62 228 196 194
557.175 -156.052 1708.1 218 211 197
-128.55 467.035 1425.87 161 159 149
19.7418 178.6 1260.09 113 87 70
-48.0595 29.7673 1112.05 152 152 159
455.909 -101.514 1610.59 152 131 130
-78.8411 90.766 1158.81 44 31 28
-99.465 40.4929 1078.01 196 126 106
-15.9392 240.669 1269.6 187 178 170
-70.8997 210.508 1223.29 239 234 216
-104.903 18.139 1099.29 230 201 173
21.0144 324.087 1251.72 213 208 180
100.236 18.7685 1241.08 254 241 220
-108.482 7.29866 1092.09 121 97 73
449.587 -102.118 1458.32 208 209 204
-28.6306 404.436 1151 239 220 204
-112.714 104.284 1152.15 99 54 41
-94.8167 98.1372 1162.85 76 22 19
-94.6037 144.487 1109.96 69 48 36
655.735 -175.952 1685.34 247 254 235
-82.7893 182.517 1218.36 195 202 182
483.202 -114.984 1531.61 243 245 246
-82.8069 188.622 1218.83 255 248 225
484.211 237.308 1872.19 64 90 87
-86.8274 154.096 1207.82 142 127 112
100.34 28.1335 1242.02 255 248 228
-49.9689 244.713 1148.46 234 219 206
649.764 -152.049 1717.67 255 255 232
-24.0789 4.08546 1230.08 216 155 130
1.85596 88.1197 1080.29 255 245 232
-15.2927 387.921 1192.02 255 249 247
-48.663 260.903 1254.59 160 73 60
542.798 4.21396 1602.33 255 251 234
-26.0188 85.4695 1120.43 255 234 219
-27.2514 115.292 1171.73 111 67 40
-47.5561 281.656 1178.99 155 141 136
-32.9693 116.459 1140.44 153 92 66
-114.721 475.537 1430.36 182 174 166
115.212 61.7474 1306.35 255 249 228
-44.3274 46.3383 1273.89 255 225 211
-13.8592 167.724 1311.79 160 131 106
464.647 -70.1986 1581.02 185 140 127
704.062 70.6335 1842.46 240 241 219
-24.2399 256.44 1182.36 237 241 238
-83.7359 139.314 1112.02 240 239 240
-9.47099 36.5851 1196.97 255 254 242
713.907 73.2846 1990.9 254 251 232
596.429 30.1253 1746.26 255 250 231
-86.7723 484.83 1438.81 127 120 110
-34.6294 336.161 1240.52 170 152 154
36.9864 72.9467 1181.09 244 191 178
119.444 48.4987 1344.46 255 233 199
568.398 -55.4734 1728 238 232 231
-61.8742 163.606 1167.91 222 209 183
-13.6419 166.149 1325.78 131 108 87
-33.0409 112.23 1170.29 237 200 182
-183.506 9.66873 1128.22 155 129 111
-46.854 335.34 1237.73 250 249 251
-47.0593 -44.9093 1240.16 80 56 45
-107.329 156.119 1157.13 187 156 139
49.8583 -36.7919 1079.99 254 235 206
-62.2122 246.627 1081.97 188 184 182
494.923 -286.212 1769.39 86 80 73
-64.1343 288.538 1253.93 181 177 182
25.524 185.73 1322.78 193 175 166
510.725 248.21 1594.95 169 188 188
-101.92 462.753 1387.5 180 175 164
81.5106 131.335 1220.58 155 121 102
671.048 -160.459 1717.73 252 255 241
-101.693 156.249 1158.46 181 150 129
610.896 -119.108 1699.01 244 243 213
545.718 -92.9159 1639.07 233 202 180
430.572 -252.841 1565.9 187 169 155
-181.696 193.596 1252.39 59 10 2
-50.4229 228.535 1174.9 164 93 78
123.274 68.4127 1378.8 255 243 222
590.364 -59.7599 1729.6 129 108 111
734.097 -175.945 1855.03 239 243 225
545.709 -53.988 1627.61 217 204 210
459.908 -80.7071 1404.9 133 120 94
8.55165 99.4374 1204.48 197 139 128
-91.792 111.473 1108.44 190 172 173
155.312 121.941 1428.19 246 235 215
-14.4176 285.105 1264.82 187 176 172
100.477 40.4542 1243.26 247 229 190
-140.09 543.389 1653.41 115 110 97
56.2171 285.659 1224.61 189 177 169
-26.1623 22.6667 1087.97 255 187 169
-27.8116 -24.1318 987.004 217 191 173
18.0126 244.333 1388.21 199 141 121
110.138 192.311 1318.9 255 249 234
597.224 284.168 1829.78 168 189 187
-27.3173 5.42354 1162.98 255 242 217
578.35 -9.75985 1639.42 188 173 165
-78.6694 154.875 1006.32 164 127 113
54.6449 298.911 1317.41 172 172 157
33.2542 258.84 1249.58 190 178 177
-21.4137 153.43 1175.81 160 122 91
-38.8076 65.7042 1165.48 188 139 131
-50.4167 219.742 1174.31 250 223 199
-92.8306 -37.5867 150.606 131 132 123
-131.818 72.2094 1096.91 146 121 109
-17.7411 161.518 1250.31 214 176 146
5.34044 77.9937 1149.57 212 150 119
511.903 290.568 1887.79 94 127 120
462.129 -124.448 1447.62 217 214 218
-76.2509 11.8863 1129.25 232 173 150
-51.9397 422.503 1182.32 120 109 95
-96.1782 266.415 1338.64 236 224 215
368.95 -245.104 1454.01 129 98 86
673.033 -126 1827.67 249 250 233
130.251 75.1098 1284.59 237 215 193
104.05 649.484 1616.06 147 183 171
-79.0138 157.158 1163.66 220 197 165
505.375 170.482 1985.17 62 71 63
613.966 -101.82 1724.13 216 181 165
