-380.326 133.83 1462.05 247 253 252
-386.645 234.663 1395.43 11 0 0
-360.694 103.412 1387.22 245 229 216
-437.439 99.8815 1415.98 210 198 187
147.668 -32.3924 991.814 7 6 1
-444.522 117.043 1434.42 255 237 233
9.92135 -8.87533 985.176 255 255 251
-118.878 78.1203 884.151 224 219 208
75.2822 199.238 898.652 191 160 152
-434.49 107.038 1417.93 26 5 1
-92.8171 3.4086 1055.52 34 31 33
-87.1158 -4.75265 1095.87 8 12 12
8.18369 235.062 842.246 254 254 244
-465.674 74.0682 1501.07 246 237 230
-462.233 13.2752 1267.93 206 194 182
-401.381 109.011 1373.07 240 228 221
-50.7445 57.7156 870.754 4 29 28
137.637 -29.9337 990.626 214 228 222
6.08194 230.764 841.813 83 79 68
70.9947 226.865 930.896 197 186 179
-405.857 107.912 1428.81 181 169 164
-16.6394 46.1135 921.28 252 253 250
95.3918 265.027 915.868 203 187 177
-470.491 13.2069 1264.69 170 163 143
-79.0887 -2.06203 1097.58 252 214 207
79.2359 264.252 913.398 175 169 162
-42.3187 99.8111 803.097 181 185 176
-384.09 107.447 1524.93 221 217 210
-442.472 -9.33102 1341.01 171 153 141
-80.8701 -11.2328 1078.84 250 246 243
-482.108 31.8341 1262.29 208 194 170
-564.694 40.6135 1370.15 158 141 133
-482.066 337.203 1453.43 252 243 226
-461.905 3.89755 1266.94 156 147 135
40.052 -30.7224 1014.68 192 199 192
-90.2723 98.1739 821.368 222 217 212
55.331 -25.9269 1017.47 52 76 69
-85.7355 65.7734 878.355 70 77 74
-217.785 189.769 1084.83 189 188 187
-507.631 131.662 1264.16 255 239 213
-355.655 265.031 1410.51 199 183 177
146.815 491.614 1037.99 84 116 124
-407.82 261.596 1471.29 245 221 203
74.3292 426.061 940.364 82 78 77
-506.723 37.4639 1304.15 181 165 139
-102.558 294.125 1027.59 249 239 233
-45.1144 24.374 1002.39 121 75 63
-204.009 79.2457 920.349 190 178 160
-82.1098 69.9137 890.695 236 232 233
-115.662 82.6443 873.451 80 70 67
-72.9999 9.97017 1081.5 241 215 207
-519.308 76.7971 1380.64 190 178 161
-421.359 271.708 1467.61 207 177 163
149.775 294.117 1004.46 154 142 134
-29.41 132.052 781.396 255 254 249
-490.022 25.5145 1258.36 182 163 133
-561.952 157.816 1422.19 252 241 216
-92.82 23.6811 955.481 41 30 22
-380.715 282.482 1456.96 47 26 16
-352.508 98.1126 1466.81 115 88 77
-110.004 38.6876 1074.97 73 74 59
-415.313 239.739 1529.88 123 79 65
-145.47 293.71 1061.22 255 247 248
-81.6064 111.195 797.097 222 228 225
-488.452 190.154 1350.27 47 47 25
-213.299 194.573 1074.08 101 99 100
98.7861 223.002 924.115 223 214 195
76.7179 430.93 940.915 192 190 183
-373.852 21.1297 1371.24 162 192 187
164.23 306.725 1034.95 154 141 134
-360.086 82.7525 1384.63 150 117 100
-349.009 48.7011 1442.72 54 54 50
-147.582 76.6564 967.758 149 145 137
-90.4656 16.6671 955.667 241 244 242
202.695 109.364 1088.67 55 33 19
-188.779 140.002 909.495 241 235 229
-459.972 332.056 1393.29 146 126 108
-40.9795 104.651 778.71 176 180 162
16.9755 178.443 870.323 154 146 143
-338.14 208.713 1348.64 70 51 43
-463.371 312.964 1376.82 153 124 109
-101.376 300.534 1010.42 231 210 200
-2.63317 -17.0297 969.973 195 189 172
-6.16976 155.968 852.294 120 122 117
-141.332 73.1471 889.089 142 117 117
-541.188 32.5395 1305.77 38 25 17
68.2639 416.875 948.966 134 135 119
-137.289 187.838 952.112 237 225 218
-187.651 189.569 1003.25 160 152 154
-79.8774 59.1508 910.796 126 162 159
-338.577 27.104 1314.73 6 8 10
-534.159 107.956 1300.45 240 230 201
-416.899 284.599 1559.21 128 99 86
107.639 221.799 969.851 181 171 160
-80.9236 156.16 870.528 203 200 185
23.3657 116.355 868.72 33 45 38
-38.3477 115.832 804.336 250 249 232
-57.0918 8.29413 946.617 253 214 206
-573.71 209.369 1518.95 251 236 204
-545.814 31.0707 1235.86 153 139 126
-107.528 286.356 1026.19 241 233 224
-12.6848 122.361 843.726 152 142 131
-38.5096 119.813 818.814 185 187 166
-394.114 -7.34964 1169.77 167 154 138
-520.365 89.847 1398.18 189 181 178
-69.9266 27.453 972.001 147 132 118
-409.787 95.7167 1618.36 153 125 105
-71.975 311.768 994.46 238 231 222
186.465 161.008 1030.62 52 51 49
-468.36 256.771 1376.14 113 99 69
-59.3063 33.2366 1022.39 127 100 90
-220.631 86.7098 952.411 85 87 89
174.176 495.568 1095.06 171 196 207
-490.152 173.795 1276.39 251 246 220
-84.2024 34.6796 909.045 111 101 100
-373.269 285.662 1418.44 158 137 122
-2040.99 -183.793 4043.01 130 132 124
-54.7797 17.5807 947.5 215 194 190
-104.283 58.8664 906.159 195 217 221
93.7563 210.799 946.534 189 177 162
-59.508 31.2985 947.206 213 191 184
-498.307 216.736 1349.99 139 107 87
-103.028 85.7668 827.94 155 184 176
-342.73 28.2117 1383.35 76 78 72
-34.3703 127.907 805.401 226 226 210
-373.09 89.8488 1624.38 106 97 89
-438.883 203.904 1190.96 234 219 205
-117.696 196.186 943.476 255 252 238
-553.534 127.049 1372.34 203 183 158
-46.8418 220.017 891.348 217 217 205
-511.204 187.889 1397.1 183 166 144
-416.745 54.0752 1505.31 149 128 110
20.7486 190.379 919.33 162 152 148
-45.77 162.398 831.298 245 250 249
-19.449 -16.7769 967.18 227 195 187
-395.545 50.7059 1574.11 62 51 54
-407.982 270.382 1270.11 218 203 194
-344.78 126.614 1400.1 143 155 156
-493.166 234.304 1354.44 172 145 127
-589.372 122.964 1447.71 154 132 112
-503.537 302.427 1458.99 255 254 243
-84.834 94.1822 831.319 75 79 69
-127.376 287.536 1022.19 233 213 203
217.628 289.319 1083.39 90 47 32
-681.077 134.415 1494.27 171 149 143
-72.3722 308.861 977.174 166 157 149
-454.154 267.274 1301.48 174 159 142
-112.785 86.2296 854.885 189 180 182
22.4649 333.19 928.101 249 255 244
-52.0507 -21.072 1102.39 199 141 120
-115.894 38.5168 988.997 245 173 169
-675.084 35.2583 1393.55 204 207 195
-92.691 496.212 1237.98 141 139 133
-653.572 116.985 1411.12 151 145 147
25.6437 14.8895 960.826 52 114 108
-90.176 258.659 951.758 193 179 178
-116.928 86.1425 854.15 176 159 156
-119.871 383.672 1117.73 243 246 227
-103.059 141.311 878.265 120 116 104
-138.586 30.7445 1068.2 249 247 246
-462.001 312.55 1464.19 247 231 230
-655.364 191.816 1526.03 239 229 211
-599.828 159.779 1373.87 255 249 228
132.598 269.06 954.648 152 155 150
102.353 211.083 932.165 180 162 144
17.7629 16.471 883.712 25 74 64
-37.6989 19.4779 1003.51 244 212 208
259.682 276.512 1172.52 85 58 49
-147.438 189.618 988.184 243 242 234
149.199 507.149 1091.4 108 149 167
-375.263 -13.4761 1440.58 104 106 88
-1349.02 166.04 2033.16 110 104 95
-944.588 77.7352 1442.62 122 126 122
-1242.33 105.903 1919.53 215 218 218
-79.6771 144.695 798.781 225 227 210
-80.8763 237.184 952.764 180 172 152
-40.3117 149.548 805.31 239 246 228
-192.257 197.602 1033.2 254 249 249
-39.7868 159.132 847.264 170 172 154
-104.387 360.156 1073.45 183 183 176
-394.495 -77.6858 1411.57 98 88 71
-169.337 93.7771 907.319 191 178 158
-55.9881 153.914 829.284 238 249 236
163.425 215.625 1044.4 35 35 22
19.1787 457.83 1025.98 139 139 119
-634.153 209.651 1492.57 175 168 158
-149.226 231.527 1014.65 252 248 225
184.568 187.919 1046.56 114 100 91
203.241 163.434 1091.36 126 122 114
23.2796 357.396 963.295 239 252 230
-38.8724 185.111 861.42 252 252 239
-690.211 104.492 1453.53 255 252 248
-458.913 195.985 1236.05 121 92 39
-154.256 46.8197 1044.57 199 166 151
-39.6149 172.911 832.672 220 227 207
-63.3614 215.095 835.314 175 175 161
-2279.57 201.824 3568.75 153 154 149
-42.3177 123.724 803.984 248 255 233
-34.3356 167.778 806.866 248 255 233
-88.922 443.243 1107.65 222 222 216
56.3467 285.709 910.513 147 132 121
-46.8984 405.886 1044.06 207 204 187
-1254.73 131.945 1962.23 194 194 189
185.529 546.46 1163.82 150 164 175
-647.505 211.576 1534.66 215 202 187
1.14181 23.4084 974.197 39 79 70
-92.5756 317.865 1030.77 173 161 151
53.8693 368.457 945.651 73 74 62
-129.418 232.237 979.583 249 249 225
-28.1892 213.24 864.237 250 254 244
-18.9352 210.859 837.416 247 254 235
220.261 236.778 1022.69 148 113 98
-677.58 104.834 1406.45 255 250 246
-561.207 51.6449 1299.64 166 145 108
177.631 169.941 1064.61 154 126 114
164.26 149.743 989.067 77 59 42
-35.6646 146.538 852.529 170 171 149
-39.6246 242.177 944.736 126 128 108
-631.509 100.986 1586.92 82 72 54
6.32333 -28.316 921.434 163 161 155
-612.558 -34.1283 1189.95 121 122 114
-428.458 181.315 1140.08 254 249 198
-34.6018 195.856 862.599 251 254 243
-55.9902 158.118 829.412 217 228 214
-600.555 217.069 1467.43 184 165 151
-118.516 242.236 965.803 245 242 229
-555.533 85.3346 1381.77 35 18 12
157.545 154.773 973.996 61 33 24
-2053.44 -147.439 4129.59 94 98 88
-499.34 92.6164 1199.06 197 167 126
141.675 192.103 939.164 36 32 25
-31.3801 179.447 834.231 242 246 224
51.518 534.064 1159.75 224 237 219
-1404.73 158.935 2215.68 130 134 128
-597.966 224.74 1470.13 254 247 237
-585.245 205.868 1388.4 253 251 244
85.1499 242.742 848.271 192 183 177
20.0258 443.317 1016.07 190 189 163
-109.99 278.174 1025.4 186 176 163
