59.2465 -45.9542 926.371 32 31 27
75.9322 14.2601 1021.17 254 253 244
-764.132 299.196 1671.26 22 25 18
-523.273 405.429 1672.94 251 252 245
6.43978 -68.2662 987.325 254 248 235
55.6648 -79.8985 938.8 252 253 249
-6.38458 -170.21 1208.06 41 44 43
134.548 -36.2004 904.646 245 251 231
-26.0219 -151.304 1127.36 253 255 246
-620.909 96.1898 1533.73 255 238 220
-91.4899 24.3156 1077.02 215 203 199
73.5597 -34.0974 963.386 240 246 242
-557.464 83.3604 1364.32 75 49 34
-491.098 179.776 1659.52 34 10 2
-132.141 -44.974 1083.06 203 199 187
157.402 0.486764 977.003 196 201 190
330.764 414.941 1376.71 30 45 46
-486.711 155.246 1658.34 218 189 174
-596.582 158.258 1550.24 131 108 90
-601.807 103.075 1493.67 126 82 68
35.8332 -8.7873 1028 255 250 242
-488.307 20.9853 1532.81 213 200 198
45.1668 -77.1594 922.566 86 92 86
-657.004 167.349 1476.3 108 110 107
-508.15 13.2165 1523.67 66 41 27
136.534 120.177 1060.35 97 97 78
-566.517 285.254 1640.34 110 75 58
225.929 191.872 1095.03 209 208 193
141.918 120.25 1061.16 98 107 88
16.7934 66.5752 1117.93 252 254 232
-451.768 9.58183 1338.43 196 175 163
224.729 254.441 1144.65 253 251 253
-615.009 115.356 1538.2 249 238 227
127.389 -60.327 916.126 244 251 242
2.4215 66.9663 1098.12 251 245 234
-610.207 77.1735 1486.74 206 183 162
-101.455 25.2477 1046.27 235 226 226
61.2494 3.61285 1040.29 70 71 57
-532.82 276.408 1542.97 255 246 233
-729.228 468.687 1858.94 94 101 97
-504.407 293.059 1501.13 247 227 206
89.3478 -174.274 1072.45 230 237 227
164.316 44.0013 962.776 196 209 180
-641.623 43.4128 1519.1 210 193 169
-490.222 20.3757 1700.97 38 28 18
321.634 394.499 1335.53 167 174 175
200.172 134.872 1045.49 251 251 243
-516.79 -27.6722 1515.32 203 179 158
155.997 171.017 1066.69 102 109 104
-2716.4 160.212 3594.45 171 175 160
-116.319 -53.2768 1086.2 142 139 123
259.789 313.574 1260.35 219 222 212
28.1781 163.1 1123.31 255 240 235
133.765 -49.3844 918.361 99 95 88
-11.1957 -133.177 1104.14 233 219 224
-470.122 222.279 1673.45 50 33 31
163.019 2.92427 1007.45 105 112 98
-465.459 184.873 1560.18 208 183 161
-578.544 163.781 1511.01 252 242 225
215.437 125.155 1122.06 92 98 71
-698.859 103.872 1448.38 255 249 236
-342.343 305.344 1590.86 147 145 136
-67.9664 49.8849 1131.41 246 241 237
-68.2979 -62.2224 1095.79 101 102 90
-538.936 256.763 1538.33 238 223 203
-3.35531 -63.2293 986.048 183 150 136
-14.4059 60.7033 1162.84 255 252 243
-8.10997 54.2408 1050.54 255 255 245
17.8195 19.2466 1076.59 98 90 88
68.5661 -35.4856 896.368 237 245 239
-418.72 291.766 1830.88 214 207 181
-25.8778 170.849 1147.07 231 208 204
232.306 -194.111 1029.04 51 50 39
-14.9948 183.257 1223.83 226 211 197
73.2108 -56.7808 920.085 61 61 43
27.3668 -9.60628 1012.13 222 225 213
-1974.85 128.343 2618.95 25 25 18
-639.544 106.454 1382.61 119 89 64
20.2668 -114.851 1046.43 199 190 172
-66.5614 -59.4336 1013.74 120 122 107
57.0234 199.369 1118.17 136 121 113
11.7968 206.533 1210.47 119 103 88
-536.103 21.3965 1619.26 181 170 157
335.519 539.677 1457.34 91 121 133
171.134 47.9849 997.653 251 255 234
-668.747 85.7233 1409.46 150 127 107
187.423 123.807 986.451 220 224 199
37.1909 146.535 1158.3 255 251 247
-461.213 154.058 1558.64 73 48 34
120.619 -53.7828 901.919 108 117 90
-762.706 356.663 1721.32 206 209 198
-452.613 -2.05866 1652.39 76 51 39
-530.47 228.191 1842.65 116 88 72
65.1863 -64.4249 976.675 34 56 46
-642.659 113.204 1381.96 246 225 194
-449.795 160.846 1674.46 163 135 119
92.156 -166.621 1098.96 72 66 51
-454.675 36.4754 1548.27 150 139 128
-7.30589 383.203 1412.35 108 109 99
-16.6859 -143.785 1102.61 38 39 41
168.468 35.7962 996.664 254 254 233
-8.4364 107.515 1098.13 255 249 239
-613.816 24.0013 1427.96 222 199 163
72.6839 205.256 1222.5 247 239 230
-90.6261 89.9945 1109.69 250 243 230
3.04623 173.604 1118.88 179 178 163
137.916 14.0695 991.333 248 255 246
-54.5835 -92.7191 1034.32 192 178 161
237.533 252.904 1081.29 220 216 203
-825.838 698.874 2330.94 117 118 114
142.287 -9.58891 954.338 135 135 104
-104.394 98.205 1200.42 255 250 245
-800.847 266.91 1716.3 101 100 97
-596.897 66.2568 1438.89 142 101 83
-493.177 -12.9829 1696.3 146 126 119
75.48 -59.8454 927.751 178 199 186
336.389 525.165 1411.89 95 121 116
226.076 542.394 1470.21 130 159 164
-494.248 1.37849 1755.98 204 188 178
13.4621 -41.9594 953.876 152 146 141
-46.2565 -110.167 1078.71 211 214 209
88.7544 -92.1677 942.814 192 206 203
130.357 30.2881 1012.8 231 233 224
-403.112 129.902 1431.34 127 109 96
-503.404 224.573 1659.75 187 163 147
120.04 15.1977 963.93 232 246 235
198.579 102.205 1067.9 219 219 206
211.592 223.423 1122.79 239 239 226
-806.43 109.173 1690.74 175 154 134
-37.9991 258.666 1283.55 246 245 227
-723.439 281.933 1605.36 255 254 239
-35.4419 77.3954 1070.73 246 228 205
-459.59 8.11706 1712.79 153 160 153
-545.592 -2.63534 1363.71 124 118 111
-90.1978 88.6124 1128.78 177 149 145
23.2623 12.7094 1054.12 228 214 207
219.819 265.579 1195.74 253 254 250
-734.66 124.888 1538.42 251 237 212
-737.804 378.922 1697.49 84 87 70
23.4404 179.054 1110.05 235 202 190
-509.431 183.046 1652.09 174 137 135
132.165 -46.8399 917.394 224 225 205
-11.7267 -114.863 1061.33 62 53 49
-377.136 159.821 1703.4 91 71 61
-848.81 -44.2318 1404.74 240 230 216
-802.624 491.714 2088.75 139 139 131
80.3938 -95.107 960.101 168 190 190
-647.783 99.3255 1378.15 225 201 185
125.647 -14.1635 904.997 255 255 235
-845.18 16.0661 1454.12 255 254 246
121.275 5.65556 905.675 241 248 228
82.2984 -87.2107 926.887 95 109 104
123.398 13.6065 919.06 218 230 223
17.7724 193.348 1174.18 251 238 228
182.933 149.809 1069.24 250 255 247
-16.1002 -103.657 1040.81 211 171 161
-23.6469 264.447 1297.39 108 109 91
188.672 421.873 1382.72 126 153 161
141.123 70.2457 1017.18 249 253 244
43.9627 137.896 1109.66 162 142 142
7.47471 -110.14 1019.47 179 184 169
-896.55 -6.34382 1542.39 251 250 247
-49.4751 -100.267 1034.92 75 69 59
-474.401 242.92 1674.09 124 104 95
-629.684 344.278 1855.21 164 138 124
-543.395 344.733 1657.63 234 194 169
238.746 537.111 1440.84 223 239 249
-82.475 65.5764 1110.88 142 108 111
-721.611 352.2 1619.92 253 250 246
-570.671 122.822 1509.73 38 27 16
-800.969 204.835 1635.22 125 132 115
-92.5484 81.5997 1171.21 254 250 243
-691.508 464.883 1781.78 80 85 80
-769.569 -52.7473 1446.29 235 225 210
144.791 -151.221 1062.9 38 84 90
-69.6828 35.2968 996.74 251 243 242
42.3658 -82.9797 903.628 181 205 193
-763.787 213.524 1728.36 184 178 176
256.248 472.423 1438.99 105 132 135
121.556 335.508 1319.27 255 252 223
73.2782 256.576 1058.48 249 243 216
88.2271 -65.2707 1018.61 93 106 86
-512.328 167.878 1356.04 255 245 229
-530.001 383.188 1667.84 255 253 224
-411.198 137.834 1615.78 146 104 81
249.513 252.394 1130.22 205 194 187
-40.0237 125.32 1141.69 255 250 243
327.81 528.163 1455.26 125 165 176
-20.4107 110.959 1121.89 202 200 184
-457.499 38.6008 1655.62 119 124 119
125.489 -27.3786 904.134 240 255 227
-6.12609 272.764 1291.07 238 239 218
15.9521 7.59125 1097.35 132 113 97
-3.54768 189.361 1131.03 235 213 199
-594.738 -69.5056 1460.15 113 99 84
128.049 35.8923 991.023 216 222 206
117.638 353.184 1389.61 250 247 218
83.7289 -64.909 977.753 88 123 110
-758.762 57.1928 1411.85 254 236 231
202.135 149.399 1030.98 221 221 207
-3.14352 10.3508 1093.96 231 216 192
183.164 158.053 1149.57 230 243 241
-59.0972 132.443 1115.46 236 231 226
-629.442 48.2358 1423.33 255 248 234
-673.641 133.704 1464.3 238 229 216
-707.323 -19.0784 1428 174 75 72
-869.573 32.9491 1514.45 246 252 249
81.0546 -171.628 1096.96 173 164 152
203.479 226.284 1144.11 243 250 232
-707.437 128.17 1532.73 167 145 125
-543.412 -65.1569 1323.17 140 125 116
-742.984 166.784 1600.03 243 243 231
186.908 55.1269 1070.49 139 139 125
-732.352 317.783 1607.82 232 233 223
-544.893 -15.7692 1357.36 158 142 126
-723.761 152.202 1548.13 176 160 137
366.908 525.445 1493.98 157 182 195
-546.204 -67.086 1301.2 134 115 102
15.968 1.01595 1068.25 137 122 108
-820.601 85.3303 1485.67 250 251 250
-640.117 -5.04827 1630.05 133 124 120
122.025 66.8877 1109.85 205 189 169
-80.74 61.1869 1105.61 251 244 251
-771.174 86.9477 1575.68 231 200 171
-784.927 205.782 1644.22 151 128 122
-514.001 -112.175 1413.94 130 124 100
-81.9133 165.604 1269.63 239 229 223
-795.1 213.419 1639.97 214 193 187
7.97144 -1.41885 1066.69 180 174 159
221.676 240.087 1143.6 193 201 185
2.07319 206.686 1238.55 212 185 170
224.81 292.296 1177.75 224 228 216
-34.2738 110.498 1119.12 255 220 204
-563.088 418.644 1785.85 170 156 136
39.4362 3.91933 988.851 215 217 199
-764.289 622.684 2127.24 142 145 139
-21.3427 16.5117 1191.62 162 160 139
222.383 215.032 1193.69 213 235 215
20.7555 167.83 1210.05 254 239 229
7.13443 35.2654 1075.85 209 176 162
-12.6973 99.4743 1010.16 255 251 238
247.491 286.199 1110.59 219 222 210
106.003 -169.76 1100.8 86 92 87
256.389 453.565 1396.24 134 165 173
-794.986 262.904 1648.74 179 170 172
-883.575 377.868 2023.5 244 246 228
-388.639 127.011 1527.8 48 16 3
-62.5095 147.66 1138.04 229 223 227
226.1 283.632 1197.51 237 246 232
251.404 52.3845 1137.04 171 149 134
104.419 27.0611 1026.22 154 155 137
-531.001 224.115 1480.81 138 115 92
166.819 380.781 1254.32 140 166 172
120.11 -60.5399 933.533 192 206 187
-569.861 247.17 1467.41 163 151 135
332.304 495.842 1382.88 155 180 193
134.781 -25.2402 972.251 183 188 161
-603.897 1.55317 1366.42 248 205 156
-738.813 201.923 1547.8 231 195 190
88.358 108.787 1052.31 255 254 233
-859.382 -1.85811 1472.78 133 137 130
-106.55 41.4977 1122.51 248 245 244
130.719 48.4629 976.854 229 233 213
-448.167 12.3886 1718.01 13 13 8
-545.119 241.284 1534 211 182 169
-481.396 367.955 1685.62 172 181 166
-649.247 47.0622 1444.94 243 224 217
122.251 -139.175 1079.68 52 91 84
117.287 85.7282 1073.61 233 230 209
2.6558 36.6283 1023.75 113 79 61
109.834 57.3519 1028.6 182 171 154
133.242 55.309 992.732 246 248 223
-145.225 -47.2955 1080.04 107 108 101
-725.537 225.308 1486.69 253 253 250
-575.437 232.07 1462.88 179 153 140
-110.209 83.3202 1198.4 240 231 231
-82.4778 -72.3471 1107.36 52 48 33
322.307 472.163 1338.16 164 189 203
-25.9291 89.1247 1142.49 221 199 176
-622.783 42.0859 1383.1 255 254 239
-13.023 109.691 1257.39 199 197 161
-726.046 136.761 1544.63 234 226 209
162.97 78.3104 1061.13 238 254 234
-475.245 -93.9391 1630.39 58 71 68
-435.385 -114.176 1445 46 37 27
-792.259 271.316 1651.72 255 250 247
90.6791 191.614 1148.99 198 199 184
146.208 74.8974 1048.32 214 225 216
-673.917 64.6123 1542.72 249 234 222
306.076 647.289 1669.24 237 237 234
-7.80239 10.2699 1007.12 201 187 170
-580.625 223.549 1517.1 189 173 162
-975.988 509.805 2297.04 118 123 99
-793.212 735.041 2354.51 158 171 164
-39.3967 102.77 1061.29 165 116 91
-597.983 36.197 1340.55 247 237 203
-789.31 10.5798 1443.35 253 245 229
-681.297 105.282 1623.05 167 131 94
-681.759 310.677 1714.92 174 171 173
-27.7292 14.0964 986.815 170 156 136
61.6168 57.1837 1044.27 216 206 182
-106.605 58.0297 1123.42 255 252 252
-713.072 299.115 1520.36 176 176 168
-859.034 174.736 1670.93 244 238 217
-444.412 40.4234 1552.81 153 156 152
266.168 571.47 1480.2 141 145 146
176.081 121.639 1041.52 251 255 238
141.401 -16.7332 954.602 176 182 163
-552.569 -85.6112 1381.83 105 89 74
-654.324 -33.767 1452.23 106 72 29
204.527 259.302 1102.62 214 223 208
30.3727 187.414 1137.53 160 132 119
-537.919 319.515 1491.17 214 189 158
-598.847 24.4745 1308.24 252 246 224
-52.09 -86.6812 1098.04 150 136 117
142.847 422.918 1345.24 165 183 180
113.202 102.955 1136.5 255 255 228
-469.668 96.6109 1218.44 67 41 36
-59.716 153.263 1138.96 184 183 190
14.096 146.164 1153.8 234 209 199
-855.379 267.658 1778.9 171 173 171
-954.324 31.7989 1737.13 249 243 234
24.9311 266.231 1308.41 182 185 170
-21.0864 143.962 1221 212 196 197
132.38 -20.55 972.278 225 231 203
70.542 205.573 1146.35 133 116 99
174.555 -199.019 1156.57 62 120 104
184.398 160.654 1044.42 249 255 233
-915.265 226.83 1798.04 255 251 243
-439.752 -93.5779 1184.09 91 90 77
116.809 -111.353 958.982 159 153 152
217.679 380.281 1293.33 236 246 240
-73.2686 -55.8041 1017.85 142 154 121
54.6285 146.865 1161.63 244 211 200
160.801 130.409 969.663 227 240 218
158.35 151.074 1021.39 120 138 124
31.2097 -140.141 1123.44 167 139 139
-823.685 250.812 1661.78 254 252 250
14.279 237.954 1158.43 159 147 124
-24.8526 48.5705 1070.77 255 251 224
-628.528 68.6064 1455.4 205 170 158
-683.513 25.6124 1445.77 211 181 165
9.32019 147.649 1227.54 243 224 208
-92.0059 45.4785 1160.9 251 251 250
-552.338 82.5423 1289.18 246 216 188
1.96874 -182.173 1237.37 52 49 42
22.8536 -127.426 1046.21 138 92 65
-24.7588 52.8226 1109.35 181 168 149
-407.231 81.4582 1037.36 151 116 107
-791.29 15.8321 1481.94 255 246 231
-473.468 -50.3631 1700.93 29 23 17
-441.847 -75.8126 1521.53 51 53 44
-572.548 299.087 2073.53 108 85 76
-770.79 15.6895 1492.23 195 188 179
-483.853 -87.4231 1692.51 106 109 100
-695.087 336.029 1846.25 218 192 178
91.4209 -50.6557 945.359 151 152 136
154.117 59.4895 1049.04 197 211 184
