-288.488 69.8044 972.678 36 15 6
-62.0895 403.524 1238.1 229 224 213
-256.379 161.158 1071.15 240 229 204
-190.208 172.042 1088.89 63 30 9
524.425 -170.63 996.19 236 241 232
-323.834 81.2476 1121.66 110 75 58
-116.705 404.307 1169.83 248 246 248
-353.958 357.209 1140.47 104 83 79
-278.464 211.407 1136.08 254 235 225
449.311 72.8206 1185.22 238 221 218
648.882 391.329 1364.89 19 47 56
-310.638 22.3555 1004.69 118 93 79
-320.315 363.7 1152.23 98 93 87
-234.388 158.118 984.058 250 232 204
-261.344 158.283 1069.64 88 54 26
-270.705 163.164 1041.51 255 246 234
363.45 -71.1816 1071.7 252 248 247
-260.595 135.007 1042.24 255 234 211
-276.675 349.548 1115.53 242 234 220
514.458 43.5127 1186.45 247 234 228
-189.036 464.313 1313.98 42 36 28
-300.214 407.641 1163.75 204 200 195
386.178 86.3301 1148.66 242 242 243
496.248 274.253 1229.47 212 234 244
475.775 -63.8286 1123.59 242 233 207
507.421 -185.432 959.351 40 41 38
-273.398 223.148 1138.66 255 247 229
-416.97 176.864 1123.04 109 95 86
-276.867 180.684 1085.71 255 239 227
464.345 69.8826 1186.07 247 217 208
-244.318 213.79 1126.18 252 245 227
-308.126 387.69 1143.13 223 229 221
365.575 -205.266 1151.35 216 190 176
358.02 -10.9674 1120.97 254 250 241
-251.578 180.085 1073.57 100 53 34
523.863 -177.786 995.204 247 249 235
-285.443 164.263 1111.41 98 74 55
-324.261 285.269 1129.04 109 68 61
620.785 -31.5257 1133.59 80 95 73
-165.951 61.934 1088 244 228 196
-279.999 142.007 1037.35 254 248 224
-305.222 373.478 1142.75 245 237 225
-305.895 159.385 1156.98 136 106 91
-157.745 436.3 1188.57 154 170 180
742.617 122.902 1258.69 215 223 210
-159.361 69.9552 1045.46 255 248 231
-365.14 400.101 1180.03 255 251 235
618.548 -128.002 1076.39 245 249 235
-292.95 281.973 1138.28 106 104 107
-346.413 402.207 1186.27 97 74 65
-332.163 459.612 1254.97 130 124 120
460.336 -50.6089 1080.42 241 232 223
-231.715 158.172 1032.77 144 105 78
-253.282 141.88 1026.37 113 70 44
499.873 -185.111 1112.98 193 196 194
-314.323 315.119 1106.57 255 253 254
-317.446 355.095 1152.12 229 196 182
-344.809 396.475 1148.25 176 149 141
-253.511 129.365 1069.99 140 100 81
-247.332 30.4858 1021.94 122 30 17
-302.052 409.085 1123.69 151 149 145
-315.711 15.4341 1046.02 246 223 213
-274.999 273.17 1107.79 135 129 124
-438.43 92.1202 1026.96 232 238 230
370.492 -31.7007 1076.28 255 253 252
390.923 52.1245 1177.92 215 202 201
-229.289 336.88 1127.9 241 234 200
347.856 -50.0409 1072.59 242 239 228
659.435 -12.1108 1137.06 246 255 249
-325.325 432.12 1195.78 145 146 142
546.609 306.092 1294.61 49 84 94
-174.479 85.1883 1042.79 255 234 225
-147.872 105.5 1095.05 219 198 184
-184.787 63.9704 1180.72 255 249 236
734.932 72.7178 1251.23 201 217 207
436.917 6.9403 1140.66 245 236 210
-258.429 174.941 1026.8 151 122 104
489.199 -205.452 1012 91 115 110
474.653 78.4514 1139.72 253 231 221
582.718 -120.492 1036.03 201 208 199
398.004 147.043 1157.48 187 175 150
428.535 -166.562 1110.4 169 169 161
-269.667 435.341 1212.94 228 240 209
374.067 -48.2072 1034.36 248 246 248
-254.523 32.9598 1020.22 101 52 42
603.969 -64.7401 1128.7 234 231 207
-410.284 102.434 1068.99 128 130 121
-166.752 232.105 1073.8 249 242 219
379.664 -2.98693 1170.84 173 146 148
-314.581 317.574 1134.98 124 113 115
-315.797 283.883 1096.46 124 102 96
-100.348 251.348 1137.36 255 246 226
-404.983 87.0144 995.269 104 103 97
369.125 -65.9564 1072.67 252 253 255
665.581 231.799 1338.45 214 219 209
400.936 -156.887 998.863 38 42 30
517.354 306.006 1293.66 58 85 109
-93.1559 263.143 1109.61 255 236 219
605.289 -164.778 1033.18 111 128 105
375.326 -8.31452 1122.77 247 239 238
1344.47 -298.575 1805.03 89 86 80
514.886 356.464 1303.06 170 204 225
-134.458 109.509 1004.64 233 207 191
654.838 -130.766 1158.01 243 253 237
-404.616 179.148 1045.86 132 118 119
-219.764 210.35 1058.77 142 133 120
-450.695 98.4121 1054.63 90 93 84
464.74 -2.89386 1130.08 235 211 204
-291.63 305.569 1091.7 126 102 100
-407.527 83.9495 1068.61 164 156 154
-165.273 213.139 1051.88 95 91 87
608.639 418.839 1479.05 92 124 133
-278.937 237.14 1138.31 144 139 131
421.564 -66.3393 1166.82 239 221 222
625.106 221.067 1266.69 164 166 156
-153.498 246.741 1051.21 213 209 192
368.156 61.4398 1106.67 190 174 168
-171.368 153.927 1166.66 161 127 108
-257.245 21.0163 1062.46 151 82 57
681.233 100.718 1161.05 187 188 177
-358.704 344.96 1137.4 148 123 116
-408.056 236.499 1097.21 254 253 235
-325.823 285.843 1093.49 135 131 122
-303.654 474.164 1224.24 110 110 104
-149.384 85.6549 1048.64 244 216 202
-134.858 146.814 1100.68 255 249 234
523.157 80.7937 1155.45 115 99 89
-335.991 288.251 1077.05 255 242 244
-370.692 309.676 1168.94 134 136 134
652.829 238.617 1339.46 239 244 237
565.249 -77.4411 1008.6 213 231 208
693.045 105.481 1182.79 81 86 73
-284.137 337.4 1112.02 210 211 192
645.172 -12.0766 1136.78 211 229 221
554.738 162.579 1202.72 248 247 225
-149.473 101.251 1049.5 255 230 209
-341.814 21.2388 1017.44 211 200 195
-303.058 114.896 1072.64 163 148 145
-235.268 68.8522 1071.12 195 140 123
484.809 -57.8221 1089.65 245 221 214
-401.012 104.466 997.824 132 132 132
343.05 -31.5497 1074.01 249 245 245
658.138 377.335 1363.14 217 248 252
-370.246 432.22 1252.57 255 246 237
300.519 -127.559 1021.08 135 137 130
468.665 -75.1453 1168.84 243 215 187
-83.1501 333.565 1228.88 228 199 182
-163.718 272.627 1150.93 122 104 87
-119.473 186.854 1095.6 230 224 215
-278.412 638.961 1427.6 94 94 91
365.204 -26.4141 1076.38 115 97 99
-103.467 265.407 1188.38 255 248 235
-218.133 61.4821 968.93 229 175 165
484.751 -199.085 1107.29 152 137 131
-184.431 76.8271 998.712 255 244 230
-393.473 237.688 1102.23 216 203 179
-332.599 313.07 1129.03 162 148 138
-361.553 139.223 1056.6 246 211 186
-199.139 69.3094 1036.02 255 238 234
-323.901 316.961 1052.72 255 235 219
352.73 -65.848 1071.4 218 210 201
543.5 -236.875 1104.24 168 200 194
-397.228 159.157 1077.22 139 107 95
628.871 373.08 1341.39 123 168 180
510.512 -190.459 1112.19 224 223 220
667.639 52.6526 1145.88 218 227 216
-134.401 130.411 1054.55 241 223 190
427.924 -228.562 1147.02 138 120 108
597.35 -114.721 1041.18 215 233 209
591.225 84.5736 1014.02 114 121 119
-136.846 369.545 1218.23 166 105 84
-350.3 322.455 1137.44 240 216 195
602.653 -147.968 1067.47 222 237 221
490.489 72.223 1152.85 197 161 160
-124.731 181.131 1093.77 253 241 228
-217.002 203.747 1163.85 174 143 125
730.858 29.4493 1244.56 220 246 226
354.381 -161.654 1061.6 160 148 129
-363.214 304.709 1083.44 157 142 137
-277.538 306.324 1145.04 166 168 166
441.016 64.5063 1091.3 205 201 193
509.954 20.8391 1145.71 214 192 192
-133.009 591.844 1346.57 60 84 72
437.832 -61.0076 1077.93 215 199 174
-181.304 -1.98073 1036.31 214 193 161
401.43 43.5669 1143.9 194 191 195
-428.623 184.182 1068.81 247 247 244
520.154 78.0851 1202.01 152 118 115
-120.077 265.869 1070.88 181 134 102
381.471 -216.058 1106.14 193 172 160
-350.801 325.755 1124.46 151 100 113
-242.522 19.7391 982.092 72 33 21
-389.265 153.691 1057.59 121 107 105
-178.258 95.7515 1060.72 226 168 130
-340.202 329.221 1141.63 252 243 235
383.021 -60.7812 1074.26 255 244 244
-407.718 216.547 1058.19 252 255 236
641.429 380.314 1424.32 135 167 169
499.923 -211.331 1027.74 175 202 195
379.9 2.77399 1171.51 236 218 211
647.164 -89.6743 1126.09 236 249 225
432.007 20.9603 1142.48 234 212 203
-345.551 54.3419 956.428 221 188 167
-143.8 222.864 957.992 140 132 112
527.982 45.3564 1239.28 255 247 236
693.014 41.6591 1197.21 221 234 227
512.206 -142.737 1071.99 169 156 158
-178.99 114.954 1136.59 255 208 157
630.803 96.9239 1369.51 169 155 145
-378.364 109.354 1032.95 255 251 243
524.833 292.732 1342.79 92 129 154
-247.612 50.1117 1066.75 238 192 168
410.255 28.4301 1098.83 254 253 249
-328.968 265.564 1158.07 250 254 249
-389.665 89.9254 1000.48 247 239 236
304.81 -185.373 1143.46 77 79 85
-93.5789 285.593 1168.54 188 160 134
329.139 -26.1571 981.496 247 238 238
-236.393 29.2091 927.203 164 130 122
306.845 -245.256 1239.24 76 60 54
350.395 -55.3377 1072.27 158 150 151
363.985 -141.653 972.092 153 141 133
-155.381 183.382 1045 255 246 226
-377.892 380.56 1173.91 251 248 247
-230.622 43.3052 1026.85 140 79 49
-396.619 104.611 999.273 167 171 163
-365.27 194.93 986.863 188 189 167
355.887 38.1893 1102.8 229 203 200
475.731 25.9595 1114.23 202 179 173
657.848 -85.5006 1163.05 216 230 212
448.174 66.9809 1065.06 187 156 154
-226.211 5.17312 985.396 255 236 209
395.394 61.2747 1131.67 126 130 135
-181.641 0.573689 1029.83 248 227 191
550.152 -26.09 1095.7 230 225 210
-281.621 305.658 998.113 243 207 192
-127.045 185.637 1104.85 249 234 213
382.096 -52.3898 1118.59 229 220 228
557.457 -129.619 1079.3 143 145 142
434.624 30.598 1131.68 253 253 255
671.413 385.092 1410.2 107 142 156
-139.504 132.865 1053.54 255 240 213
-395.522 132.177 1053.03 154 132 111
-184.465 81.7809 998.947 237 220 212
422.416 149.831 1115.25 199 200 172
-260.239 121.271 1023.45 255 246 226
503.177 138.358 1210.76 253 254 250
-206.108 394.921 1140.09 215 221 185
-125.193 233.449 1262.44 176 164 151
540.561 -211.889 1153.39 136 152 160
443.113 122.491 1080.51 151 145 131
-382.921 285.126 1090.72 253 254 243
-138.418 232.741 1095.8 165 143 135
519.396 -137.106 1078.16 96 87 80
522.292 69.2896 1153.65 254 236 227
-80.1802 352.303 1230.8 254 239 210
-377.567 368.611 1172.79 240 237 235
-249.821 247.611 1147.75 169 159 151
-245.781 335.364 1156.71 186 192 171
474.506 95.166 1155.48 177 161 136
-170.891 122.381 1064.55 255 242 205
485.597 69.9045 1187.65 103 88 85
527.744 117.537 1195.97 254 252 243
602.402 309.374 1396.59 132 163 165
539.604 -51.3658 1180.71 227 205 186
-381.951 266.457 1108.83 135 100 79
673.744 -33.0909 1182.37 239 255 251
351.224 -10.2216 1055.98 174 163 154
-246.798 451.879 1254.01 226 220 202
281.459 -209.637 1146.02 74 59 45
-245.501 17.6503 1007.43 251 204 180
-414.874 222.254 1093.47 234 239 216
553.274 57.7796 1152.74 165 154 141
597.615 79.5377 1304.14 170 144 136
496.596 36.2514 1241.38 220 202 207
581.739 163.036 1217.85 249 248 224
-304.227 13.1208 944.063 67 47 42
496.482 144.376 1085.66 176 176 147
604.91 147.712 1216 242 243 213
449.89 252.071 1231.58 63 60 49
381.864 -57.867 1117.97 157 158 158
341.101 -216.923 1191.78 183 188 194
-204.72 61.3489 1078.47 255 247 217
384.227 72.5025 1131.77 237 231 226
606.747 -140.982 1074.52 185 216 207
490.518 -5.73851 1131.34 254 248 229
361.468 -222.06 1143.71 190 123 117
594.976 -139.838 1037.28 195 212 200
-349.616 85.5869 991.123 254 251 247
673.858 -53.0996 1275.5 177 182 158
727.087 126.018 1258.81 219 227 219
633.74 -25.5641 1250.62 241 237 199
687.76 58.1652 1203.47 207 224 215
-397.214 94.261 1050.43 199 183 182
603.648 -146.184 1073.79 170 198 183
546.577 -45.8688 1052.07 239 241 209
438.394 -12.0996 1094.68 207 197 173
456.11 25.9631 1180.39 227 207 205
-128.392 357.24 1206.48 254 198 168
-172.93 113.538 996.003 255 235 195
-380.74 87.7111 1003.19 247 255 254
363.457 -17.389 1089.9 208 188 186
-28.0608 437.582 1473.2 108 101 89
554.676 -157.895 962.65 194 217 187
-163.798 636.177 1408.44 198 239 223
-344.638 441.979 1190.7 147 147 137
-350.633 289.725 1072.67 239 237 237
-184.253 218.572 1114.09 253 251 253
464.506 -60.9818 1123.28 200 197 181
-200.397 91.9672 1129.52 253 240 241
-318.409 266.938 1133.44 168 104 96
327.67 -210.91 1144 106 87 95
488.105 7.67479 1047.23 189 167 162
-232.77 15.3667 1024.82 251 208 169
-278.371 307.986 1162.12 254 252 254
-340.15 268.066 1086.9 160 106 76
602.111 309.073 1435.2 84 121 133
322.848 -236.64 1241.55 133 119 117
516.143 -125.594 1129.54 164 160 157
620.405 177.51 1327.49 229 234 215
-209.856 63.9361 1077.34 233 201 179
-350.438 461.422 1207.02 138 135 121
491.274 127.035 1160.92 244 250 249
-202.77 -4.51041 990.494 255 239 198
-454.835 119.325 1055.22 225 218 206
-276.796 115.64 1018.77 208 189 185
504.957 17.7706 1129.04 189 159 155
