160.183 440.742 1025.37 4 3 3
-25.9554 -52.5457 1157.35 255 255 245
-277.986 292.53 1520.53 255 248 232
-331.056 68.2964 1392.32 224 215 208
167.738 241.62 994.065 237 211 202
-25.7079 63.4716 921.737 245 246 226
-357.077 203.417 1400.73 73 42 36
61.5491 284.338 1002.31 102 104 102
-329.416 183.947 1268.73 24 2 0
-54.8975 44.4659 949.634 36 26 20
-371.711 200.444 1369.28 194 181 173
139.349 186.82 952.347 222 209 208
85.6609 135.848 868.471 195 189 182
15.0157 15.4948 894.343 0 14 8
-14.3289 27.2559 922.004 255 252 250
-37.0939 -23.1852 1110.35 99 73 65
50.7994 2.54744 898.989 247 250 250
-302.052 68.8204 1402.31 219 210 206
-387.824 74.1017 1372.73 227 216 207
-341.182 88.846 1391.49 211 197 188
-483.943 83.7283 1267.43 250 231 213
-37.0929 -45.0394 1108.75 206 224 219
-338.524 201.406 1486.42 219 196 180
-46.6924 -4.30435 1023.46 255 234 224
-20.2601 24.535 814.051 54 57 57
-388.136 78.3789 1449.5 199 182 175
-14.1113 17.4577 934.727 29 50 52
84.9152 219.976 922.049 254 253 246
13.1335 157.431 899.893 254 253 239
-398.919 36.5406 1363.65 218 202 188
-15.362 78.0078 862.389 240 250 233
33.1114 67.7819 841.242 241 239 218
-148.725 41.6225 931.212 180 159 135
-38.1453 -35.5066 1064.62 40 39 34
-36.5881 -29.2243 1023.83 255 245 244
155.104 241.099 992.289 196 193 187
-364.875 23.6725 1309.45 187 161 150
-453.316 -3.75744 1269.39 171 149 144
-486.443 77.514 1265.68 99 64 51
-429.117 300.105 1386.78 104 78 70
-345.083 79.2788 1465.66 61 54 49
-407.815 224.214 1529.22 214 200 187
-403.443 380.934 1406.1 206 207 201
77.3766 205.339 870.61 87 86 77
27.2834 55.5466 803.7 239 246 243
-544.705 437.603 1627.83 77 78 78
-77.0236 -6.65628 970.273 74 73 78
-488.934 71.187 1263.95 223 213 195
-345.306 188.564 1458.33 244 222 214
-345.287 243.069 1409.89 36 15 6
-70.8672 40.3306 912.804 197 157 142
-533.309 4.2013 1289.84 139 110 75
-97.5809 49.1884 908.221 229 222 206
-349.475 184.418 1375.43 82 60 39
-368.841 196.1 1474.58 241 212 195
-373.954 237.67 1399.05 181 161 151
-386.963 273.848 1325.5 140 138 137
123.813 353.308 965.163 247 246 240
-330.051 98.4144 1454.17 164 153 159
105.482 349.454 929.64 224 225 205
-149.58 117.646 1050.49 252 244 242
-80.434 34.9885 944.46 133 132 124
-496.479 55.2544 1259.08 255 227 192
116.708 320.495 942.741 225 220 205
-362.237 364.119 1469.58 145 149 142
-40.8465 234.938 960.182 254 251 242
47.086 115.983 834.781 115 114 105
34.5163 81.6775 794.888 187 189 171
-41.5673 44.3923 829.064 126 151 136
-33.9788 278.082 1040.51 126 111 109
-236.835 252.831 1267.8 41 35 30
138.937 161.97 918.31 174 168 150
-342.464 54.9502 1445.14 164 129 125
-410.807 57.4645 1420.59 97 69 57
-463.656 134.972 1281.43 116 83 58
-445.682 187.029 1294.45 254 243 235
221.885 545.379 1124.46 208 230 250
-351.347 228.498 1405.93 112 83 70
-314.366 366.46 1798.55 101 99 91
-265.431 386.017 1628.86 81 74 63
205.74 572.456 1168.45 65 119 138
-46.9037 93.7011 898.423 254 240 228
-142.98 109.038 971.062 247 241 239
-347.813 -13.8601 1375.56 160 187 184
219.333 484.511 1119.59 41 64 79
131.274 484.595 1086.72 74 105 121
-116.049 33.3509 901.878 38 31 27
-119.466 229.091 1063.27 245 243 239
-59.2625 -9.241 1020.79 121 123 119
16.4496 -16.3816 994.993 126 82 72
-121.545 38.7112 972.463 167 162 150
-11.1142 54.8265 862.163 161 169 150
-59.046 265.509 1017.08 255 247 234
-21.6866 45.8016 870.377 71 94 91
-334.619 82.0627 1392.9 78 65 57
112.082 308.069 913.253 56 47 38
-443.047 193.61 1296.22 150 125 108
2.2334 -33.5396 1142.5 121 113 111
-64.2788 -6.74613 1019.98 252 213 206
-355.433 361.032 1471.63 29 35 31
-467.909 2.21318 1201.96 157 144 128
-76.7625 -9.26498 1017.42 210 201 201
-413.663 45.2931 1167.67 128 123 108
-83.136 257.69 1072.61 225 212 198
-464.153 -9.98413 1264.47 144 129 114
-297.163 60.2557 1403.94 71 67 55
-461.348 -1.03768 1101.83 149 137 120
-473.979 112.465 1274.73 235 203 183
-43.1883 21.2291 950.619 168 223 211
-56.1983 -3.0711 999.906 205 148 137
77.3358 198.799 870.315 70 69 63
57.3456 78.9339 834.365 153 149 136
-1.82166 -33.5644 1045.9 255 174 167
-322.61 62.4833 1452.87 67 42 30
91.2382 75.977 877.875 59 62 58
-481.551 93.2903 1269.49 147 113 95
-13.0474 270.088 988.405 254 248 239
-53.5259 45.8697 854.946 220 185 174
-479.035 99.6534 1271.24 236 207 195
-122.298 142.439 1035.56 255 248 238
-88.6809 33.5664 909.254 173 172 161
-37.5568 229.467 997.753 253 243 241
-428.276 311.028 1485.87 46 39 34
-10.2319 -13.4758 954.511 194 137 129
-331.788 96.0301 1395.71 189 187 185
-40.7765 -14.6364 1065.5 24 23 20
-45.8542 274.458 1060.95 248 224 213
-452.014 40.2769 1274.91 199 183 171
-108.048 53.3759 939.955 207 200 176
-453.626 -23.511 1334.56 140 135 117
-301.551 47.9625 1399.73 72 57 37
-488.895 -3.75844 1255.35 23 15 12
-558.362 108.965 1308.51 255 248 232
-440.405 200.396 1297.96 240 232 212
-398.465 -41.7845 1285.68 179 154 131
-440.928 276.792 1478.55 97 103 96
-1421.1 -230.092 2419.73 225 229 224
-476.511 106.084 1272.98 143 110 94
-498.94 49.0856 1257.34 144 95 57
-28.9885 -11.7106 1026.27 115 66 50
-548.916 189.304 1400.65 152 161 162
-379.934 228.965 1475.3 234 201 184
22.7643 121.84 841.644 241 246 243
-562.83 168.737 1387.39 144 137 128
-81.3542 151.081 985.864 218 214 202
139.613 219.879 953.726 48 28 13
129.701 358.177 1001.83 237 232 226
-66.2288 159.75 971.988 236 234 204
-303.514 180.743 1495.69 82 40 24
-312.29 89.5817 1401.57 30 28 28
44.484 96.3498 889.58 241 238 229
-534.687 136.208 1322.6 171 142 125
81.914 229.75 872.24 249 255 239
-292.692 364.161 1714.96 99 102 90
-245.22 267.618 1527.9 116 110 85
-448.199 177.11 1292.36 157 107 92
-408.282 307.339 1337.31 148 106 87
-590.369 158.095 1445.21 169 157 138
-47.3924 258.923 997.013 250 226 217
17.7811 7.12052 926.172 63 86 83
-99.8285 54.4689 938.689 216 221 202
25.6518 117.437 870.242 253 255 246
4.16007 -19.2849 1031.67 143 120 105
-14.2142 123.003 926.269 216 212 202
-54.9721 153.233 954.414 165 146 118
230.57 465.512 1120.28 170 193 210
101.421 356.19 976.051 246 255 248
-43.8878 101.834 920.214 152 136 122
-40.6906 166.389 942.441 245 225 205
144.457 220.056 954.403 47 28 15
-444.352 -22.5396 1270.73 143 138 110
-443 256.869 1376.02 255 251 228
-70.8991 249.949 1030.68 250 225 208
35.0432 213.82 910.322 109 109 94
-421.3 262.061 1325.48 232 203 163
-116.617 256.116 1111.32 251 249 251
107.886 419.568 1082.89 210 222 206
-64.71 150.431 930.504 141 130 101
-15.6334 49.317 911.599 101 117 117
101.134 155.169 966.041 138 139 127
-11.0051 142.519 865.336 253 251 227
-426.872 254.806 1322.26 175 147 128
-360.647 367.303 1512.11 206 210 206
-45.5361 35.2091 950.881 106 161 146
-551.513 182.147 1398.35 225 219 204
-322.505 -13.8404 1384.37 91 91 86
-362.517 -46.4974 1512.07 86 82 67
-349.402 257.173 1420.47 153 124 116
34.7374 156.926 891.236 254 255 240
72.3821 109.672 865.252 39 33 25
-15.286 242.988 1002.47 129 114 104
-111.683 218.824 1064.48 230 228 232
88.8641 316.228 972.343 252 255 250
-445.791 249.641 1374.03 139 113 74
-331.521 14.7964 1251.41 151 125 119
-300.986 180.688 1424.08 146 120 99
34.3802 126.575 871.846 227 236 222
-54.0612 178.383 1074.65 235 212 196
73.6091 250.573 932.943 245 254 238
26.81 194.888 922.814 200 194 169
63.1103 247.61 943.347 243 255 244
124.355 250.009 939.867 178 160 147
-39.3484 106.55 921.203 135 120 111
-91.6188 4.18783 993.35 171 148 121
-568.378 570.117 1854.85 184 184 175
27.8806 137.071 871.263 237 243 242
-532.871 79.8937 1190.79 179 176 174
-7.27395 153.298 928.643 143 129 109
-310.013 1.32091 1325.18 84 83 72
-139.75 178.284 1056 252 243 236
-124.52 205.08 1060.89 129 114 97
-636.376 349.904 1658.8 158 157 141
-108.966 213.777 966.299 138 134 130
-125.607 145.258 953.438 255 253 255
-304.961 54.8905 1399.49 152 124 103
84.4344 462.638 1142.55 212 213 202
120.647 204.591 917.474 183 151 134
87.7407 367.375 1094.78 170 171 166
28.1731 118.066 815.705 163 169 164
-24.4018 -18.0405 951.902 66 8 0
-1443.06 -115.035 2638.62 147 150 140
1.63801 -8.89366 956.706 211 195 187
89.1932 372.888 1095.22 96 100 93
-712.227 -5.56271 1552.29 251 245 233
-123.937 41.705 936.288 193 187 155
83.0866 -25.3676 917.46 35 97 96
-18.0457 -13.8546 989.331 255 234 213
-477.232 498.775 1567.37 160 160 156
-4.82757 61.1797 824.661 157 159 139
80.9447 222.328 881.656 224 235 218
-438.822 152.012 1292.91 58 51 33
34.4078 135.21 872.163 251 254 243
-449.517 132.455 1286.54 139 121 103
65.4228 300.416 920.627 225 223 228
81.064 406.523 1033.23 175 170 154
-444.148 -28.7791 1270.1 146 131 107
-384.449 76.6478 1304.14 147 134 123
-622.773 24.7557 1266.89 232 207 196
-123.85 26.7045 971.421 80 80 70
-35.9369 246.185 931.329 136 132 122
-72.9621 141.871 935.03 252 254 236
-68.166 28.6754 929.579 129 150 136
94.0005 263.009 905.06 198 202 190
-420.455 208.178 1306.23 162 147 118
72.5393 424.98 1050.35 180 181 173
9.50463 55.1417 786.176 203 212 192
70.1618 114.382 837.903 150 134 122
-60.8985 313.538 1037.89 238 239 216
-696.556 76.2846 1475.14 255 250 234
99.0234 83.3282 909.609 177 172 170
156.747 538.9 1126.4 204 234 237
80.7844 345.863 1042.69 93 97 91
-13.6148 291.124 1027.6 144 133 118
110.01 92.5835 922.63 112 112 105
31.0963 148.894 902.452 236 237 229
-87.9789 123.007 898.839 242 224 204
-5.72032 250.591 988.721 172 160 150
-93.4757 206.342 1067.81 245 233 221
-90.7671 194.722 1021.77 255 254 239
-514.831 243.202 1545.54 169 143 110
-597.999 94.7841 1288.6 253 253 242
-318.636 332.627 1568.05 169 169 153
-601.064 53.1628 1281.25 254 249 254
68.6652 71.9524 834.199 98 96 85
11.3193 130.938 909.034 188 195 184
124.907 565.08 1180.89 165 186 186
-59.6845 183.999 954.752 236 220 196
5.31953 51.6062 740.061 248 255 244
213.245 544.706 1123.15 188 217 235
73.6568 88.5886 876.028 84 86 79
-362.065 61.5605 1324.01 149 125 116
-124.574 218.328 1061.56 206 208 200
29.2023 117.129 859.454 250 255 241
78.9864 74.027 892.987 67 79 72
64.229 250.144 931.459 245 255 255
-606.712 208.887 1450.39 184 165 159
-4.20282 64.8508 844.652 229 235 216
123.302 252.499 940.513 131 116 104
-409.771 435.782 1360.26 64 66 63
-383.962 207.197 1160.13 243 228 216
14.815 178.685 889.101 232 228 205
-436.634 61.3175 1171.6 38 28 10
-0.343024 158.192 929.998 231 220 197
2.09699 -54.8289 1008.06 175 134 110
5.55982 116.958 828.746 93 99 85
-10.6384 242.915 987.388 255 251 248
-629.332 1.42938 1322.77 235 231 216
-351.577 23.4732 1587.12 57 53 45
-8.96516 324.274 1138.16 158 146 129
81.0585 65.0773 849.962 37 50 50
-153.101 126.986 1025.65 157 153 151
99.5959 434.336 1038.14 248 252 243
207.736 472.395 1117.28 85 130 153
-329.468 6.72159 1409.1 31 34 29
-313.524 9.97215 1390.62 98 92 85
-487.961 118.281 1269.89 255 249 237
148.327 525.086 1092.02 146 172 179
-611.296 304.532 1553.47 236 235 231
-951.611 -123.975 1641.7 135 140 132
36.6172 143.867 872.811 238 249 236
-2.72957 205.143 966.018 183 183 153
40.2288 178.375 904.946 242 244 236
-485.023 72.5057 1315.8 97 86 68
-92.2499 208.131 1025.62 255 245 244
5.12218 113.68 842.607 163 168 149
-561.421 259.755 1406.23 255 253 247
176.743 506.698 1114.11 156 180 179
71.3445 -28.6257 1002.79 25 77 79
-535.098 84.7666 1465.92 24 13 2
-62.0454 211.02 992.264 166 154 144
192.185 233.031 982.527 126 122 123
-385.27 352.442 1423.68 201 194 183
171.793 540.09 1140.43 152 178 183
-71.7707 233.249 1052.81 232 211 204
-237.787 256.475 1528.74 192 186 170
-294.67 236.709 1741.79 110 100 92
-612.855 320.035 1621.85 232 235 210
-76.5161 143.784 986.511 202 179 160
-372.957 17.5245 1445.86 127 101 93
