52.5592 -25.7592 957.097 239 244 239
-1.98788 -55.97 915.302 253 248 238
-476.93 351.451 1447.58 245 245 235
-488.889 20.3612 1480.29 182 173 171
-25.5455 -171.257 1260.73 39 39 34
-554.186 67.1475 1302.2 245 235 218
52.4201 20.8852 983.315 255 252 241
12.4778 -1.99487 987.204 255 252 245
-44.2038 -164.68 1257.94 244 242 239
-503.085 14.4802 1451.01 71 48 36
-23.0152 -112.708 1166.43 22 21 14
253.738 -214.69 1190.45 25 20 14
153.864 59.7705 1012.77 214 214 204
-146.532 -39.7621 1057.99 232 223 214
124.681 10.2488 914.72 251 255 245
-401.349 6.84498 1342.13 253 247 235
265.152 476.102 1255.35 24 41 46
-451.193 -1.39098 1578.71 53 31 20
-509.537 -24.6908 1438.14 175 159 144
167.713 105.542 1019.41 241 241 234
-31.6029 69.1761 1184.44 255 248 235
-592.055 136.358 1275.17 227 224 219
128.678 176.553 1044.28 114 120 117
-689.392 164.48 1500.32 92 89 86
42.5676 -81.1392 1033.89 245 247 232
200.658 201.673 1097.73 241 250 237
-400.609 122.206 1357.6 169 148 135
-508.662 243.929 1404.37 113 80 61
34.4934 -80.9438 1047.74 139 129 109
-683.588 77.3042 1396.93 149 121 101
-568.978 93.9939 1368.35 102 78 61
-20.9737 71.1386 1063.08 252 242 230
-6.74349 69.1886 1053.51 255 248 241
-30.0653 209.551 1210.75 255 244 227
-504.873 20.214 1473.21 225 217 202
-551.899 73.6698 1304.52 134 90 78
5.9473 178.858 1166.34 240 231 225
81.7374 -171.397 1176.9 62 72 57
-545.183 96.5109 1312.02 251 234 211
-682.903 286.153 1460.94 244 244 233
-446.005 158.03 1439.37 39 16 11
215.84 468.93 1389.37 117 126 127
107.636 -49.6194 961.685 102 107 84
-483.698 255.432 1355.62 125 102 88
108.772 -52.5281 929.623 231 239 227
-597.24 371.26 1467.64 96 101 98
34.4474 -88.551 1047.06 46 43 43
67.1442 11.1999 984.752 211 199 192
-480.829 204.66 1508.43 155 134 127
90.5909 -171.609 1178.12 67 78 72
310.575 532.113 1411.22 50 73 77
7.53612 -64.5673 1053.71 37 59 56
-528.676 143.598 1328.41 255 248 230
45.329 -72.7288 941.216 110 118 108
185.264 249.266 1074.89 244 245 238
122.475 -30.795 965.207 223 226 206
-36.2414 193.205 1249.6 255 245 238
75.9354 -92.8805 1022.83 164 184 177
47.3059 12.5175 1100.04 225 209 201
-32.8132 -107.409 1034.65 201 199 190
162.832 65.33 1062.09 128 128 119
-46.5764 170.183 1110.03 248 238 233
-446.717 38.8626 1554.77 124 128 123
-419.785 36.1116 1384.05 181 178 179
186.017 165.507 1065.87 246 239 227
-123.912 30.9048 1068.52 207 192 194
-759.255 620.28 2065.13 97 99 95
118.56 -25.1527 933.229 133 143 124
51.1276 -63.3736 1013.03 226 251 245
188.51 524.109 1390.24 91 122 141
5.11567 -2.09605 986.047 235 222 209
-133.146 -49.3047 1068.29 175 154 129
-28.7503 -141.02 1201.57 220 191 189
-35.3605 61.0922 1047.53 255 246 235
-21.0715 209.868 1212.7 243 237 222
-928.155 -48.6272 1513.15 252 248 231
180.7 116.578 1086.26 190 198 191
-17.3 -149.468 1163.53 108 76 70
197.117 239.632 1170.21 243 247 241
-9.12996 -68.0386 1067.72 252 241 226
90.8782 64.5504 1041.85 194 190 174
-417.373 289.571 1723.37 45 49 39
224.313 274.396 1123.9 149 152 142
107.681 39.8695 1004.89 248 250 243
40.2185 190.577 1094.04 255 243 230
132.169 13.0822 958.943 129 127 126
102.738 -54.2968 960.677 226 240 230
-657.206 122.761 1607.56 133 95 73
-442.791 18.628 1478.76 66 61 49
219.997 313.321 1203.34 238 244 237
-447.379 202.904 1522.23 72 55 51
265.549 481.219 1298.04 68 109 130
-502.25 -29.2267 1062.42 250 239 206
14.4637 215.058 1242.04 166 148 142
-469.856 186.138 1465.65 195 162 151
161.328 158.022 1067.97 246 252 253
7.43186 -139.264 1324.07 230 223 214
-455.763 335.275 1518.71 156 159 150
149.412 94.1597 931.15 105 100 91
-688.893 -6.27392 1153.08 251 246 240
-23.8557 15.6308 1028.84 255 249 226
-425.359 137.934 1592.49 185 147 127
34.1769 209.467 1130.22 158 142 130
192.31 245.373 1123.91 206 211 205
176.519 490.8 1245.47 118 149 153
192.04 189.783 1069.37 243 248 246
-508.348 25.1679 642.091 102 100 91
116.179 24.2838 1029.76 171 173 171
-417.723 130.261 1593.41 64 29 13
191.676 141.463 1135.4 133 137 117
144.856 35.7068 997.281 155 149 131
-370.378 294.728 1602.25 48 48 38
-79.0409 136.08 1099.44 243 240 241
-575.031 487.821 1587.69 97 106 99
-632.214 -44.8271 1156.09 146 136 130
59.7407 11.1675 983.67 193 183 175
-111.922 134.841 1182.37 255 249 234
22.3029 8.0858 1036.51 127 124 110
-79.0885 147.066 1100.61 233 222 222
-11.3375 207.535 1166.47 138 119 104
186.028 225.126 1113.18 241 243 229
-669.073 -47.7205 1232.71 255 249 239
-54.6584 114.734 1102.27 255 247 221
-498.767 -58.2356 1175.29 120 106 94
-97.7338 124.705 1094.1 133 117 106
-68.6677 -79.4661 972.014 188 165 133
-37.9521 110.594 1050.83 168 156 146
215.487 472.609 1296.7 106 126 136
-857.625 12.3115 1448.43 255 252 243
225.636 63.345 1130.46 171 165 149
115.218 25.27 1069.41 247 254 254
-460.046 190.572 1513.89 108 73 64
152.999 42.1851 1036.27 213 207 192
-636.431 47.0151 1415.51 249 239 240
-529.01 -79.4702 1286.97 148 133 113
-566.527 400.603 1717.37 164 158 132
208.263 246.61 1053.06 203 192 188
-569.119 -30.3266 1216.31 148 123 83
137.593 148.427 1020.09 237 249 239
-115.984 98.8006 1120.56 255 250 234
-600.741 94.3201 1259.64 166 124 93
256.702 362.013 1182.53 171 180 175
172.999 127.743 1046.55 244 250 242
-6.83834 27.5466 1050.11 244 241 227
-602.197 56.1582 1343.31 141 106 95
-0.370667 174.606 1046.78 222 203 186
234.54 512.91 1397.18 123 140 145
102.028 23.4127 990.63 239 251 247
54.6924 -56.1486 954.662 176 195 187
-370.741 246.406 1524.1 180 177 149
-627.354 91.0027 1300.7 255 243 219
-623.715 104.324 1306.81 243 221 188
-30.0526 259.757 1173.79 253 254 226
122.3 -1.06349 956.602 136 142 115
182.949 147.855 1070.43 231 234 212
91.2604 93.0377 1045 255 251 227
168.148 133.867 996.144 227 224 198
215.815 449.615 1342.36 135 159 166
58.6444 -56.3133 999.121 106 108 95
-530.813 -3.38773 1299.89 157 148 138
216.133 454.787 1235.59 93 117 126
191.235 271.23 1077.95 119 117 113
22.5265 146.94 1120.9 146 141 139
-35.5775 -103.153 1081.94 231 160 148
-641.006 262.13 1409.97 229 229 213
-636.254 239.497 1341.68 159 159 150
-731.442 80.6555 1457 238 232 220
-112.453 91.53 1168.85 237 234 221
237.007 584.932 1487.62 133 141 135
-30.1386 115.179 1107.28 254 250 238
166.021 224.83 1078.87 244 255 247
145.814 398.327 1269.06 119 142 143
115.238 -3.24239 912.302 227 233 229
-21.3845 -60.2275 1024.66 145 121 107
14.1648 149.54 1119.67 235 228 227
-550.564 234.097 1484.38 233 207 193
-569.69 4.62306 1252.46 238 190 147
-20.2305 -61.9418 1012.07 146 119 105
113.059 59.8191 1007.67 245 247 236
-103.099 166.198 1231.03 243 236 230
-67.3397 -45.5222 1036.51 65 56 54
-612.833 65.6853 1245.65 139 109 93
122.613 132.367 1093.41 123 128 112
-657.078 33.8033 1212.44 249 241 239
45.0378 67.4207 1086.66 237 218 202
-492.673 1.18523 1070.57 157 111 68
94.8328 -206.965 1331.44 113 108 101
55.4032 8.33479 936.257 99 92 83
-360.619 223.286 1642.13 99 73 51
112.27 126.923 1037.92 149 151 123
-383.967 8.93583 1390.97 46 45 37
-470.492 181.697 1517.69 191 158 144
-619.906 87.2344 1247.61 243 231 216
-54.6473 109.199 1101.67 246 243 219
44.5155 215.187 1138.58 165 154 136
-88.5244 -58.7455 1097.45 141 140 122
-649.878 242.775 1398.6 251 248 232
264.164 548.529 1305.93 116 131 139
63.5643 -93.0795 1012.31 165 198 200
-709.404 232.115 1483.43 160 153 157
-79.675 158.717 1146.04 148 141 143
-592.277 -35.0127 1032.96 255 251 234
-611.687 161.998 1330.92 182 186 186
140.98 138.592 961.245 236 245 220
7.93939 -135.265 1188.66 242 206 186
-161.446 -43.9182 1062.43 100 99 93
-14.2069 6.09181 926.142 212 202 186
-909.151 48.7797 1180.22 216 220 212
294.36 412.67 1330.85 97 123 118
-672.329 508.79 1775.45 198 199 194
112.912 -21.2625 965.073 245 255 230
300.285 499.899 1361.66 180 204 222
270.895 459.97 1253.43 164 190 210
-59.8845 130.739 1146.98 250 236 221
108.297 16.6535 1028 232 233 228
-659.965 390.217 1645.8 160 164 156
-520.887 107.391 1325.07 82 56 48
32.2743 167.021 1261.02 250 238 227
-594.397 -64.617 1415.15 122 106 85
198.05 299.557 1167.29 246 255 251
-126.168 43.2432 1079.16 155 146 147
-88.9381 55.2678 1080.83 208 205 205
171.59 201.046 1052.4 222 235 223
-892.74 352.063 1925.27 216 220 196
-671.539 331.289 1484.65 87 87 78
277.017 453.674 1253.11 157 188 204
-639.017 103.596 1298.22 248 229 207
-658.657 162.194 1305.76 125 119 114
-430.646 211.719 1454.6 144 127 114
285.021 488.516 1339.85 77 105 126
-360.716 -68.8335 886.579 157 136 124
-678.126 314.263 1474.68 229 231 226
18.3575 108.232 1264.93 255 250 229
-762.992 51.0887 1390.78 248 220 204
118.468 79.8469 1010.48 241 245 230
69.1958 300.2 1146.62 237 222 198
74.7795 31.2403 965.3 176 162 153
-389.094 -8.20898 1384.25 114 104 92
-1.38144 -89.7436 1112.03 163 201 185
-669.962 144.861 1401.04 238 240 235
-586.978 -129.497 1571.61 127 108 93
-519.238 -112.78 1366.09 144 129 114
-414.605 278.146 1221.06 186 145 112
-379.116 151.932 1615.05 97 83 74
130.095 -148.142 1099.47 34 89 84
-526.034 462.631 1476.75 146 154 147
-476.088 16.3833 1456.44 89 73 69
198.123 398.606 1317.28 242 250 237
-519.856 312.827 1519.85 219 172 149
-106.919 73.1516 1129.73 173 162 159
-55.4062 106.27 1021.18 158 119 89
-55.2898 42.9127 1015.49 219 194 172
-50.7711 4.26386 1040.15 215 195 179
-530.712 215.738 1412.81 205 184 170
-503.958 -79.3168 1234.15 132 111 101
153.95 164.517 1111.05 212 224 219
-475.828 -11.2841 1597.23 101 80 64
76.463 -43.6867 992.315 173 177 159
-796.864 26.4199 1359.67 227 225 219
-444.382 157.196 1590.07 126 84 69
-101.376 67.5696 1130.33 227 232 234
-465.503 -117.951 1500.44 64 64 50
-352.917 299.765 1546.96 97 96 85
-497.13 289.151 1422.02 189 151 131
-371.042 107.423 1423.07 73 54 43
52.4095 173.883 1191.87 232 207 190
-15.9515 143.187 1146.25 255 243 231
-409.314 -71.7523 1358.75 63 66 56
-624.48 246.046 1297.88 167 171 157
-578.298 127.263 1279.77 132 123 111
145.499 -184.094 1137.64 150 188 177
-438.917 302.107 1385.3 191 181 165
-8.06449 148.94 1115.41 241 216 211
-444.23 -44.83 1531.35 66 61 49
-676.751 130.376 1393.33 255 253 243
110.358 -140.657 1137.69 58 79 78
183.792 264.298 1145.25 215 223 211
-51.1081 274.605 1313.28 100 99 93
112.176 424.654 1320.88 172 177 181
122.075 -124.383 1141.07 177 174 174
66.3905 198.152 1344.98 186 170 154
73.5479 28.1884 943.175 83 78 70
-510.966 16.0916 1033.28 249 238 216
-90.0186 180.001 1182.84 204 202 201
132.702 365.605 1174.62 164 182 181
-625.928 45.8869 1177.46 249 243 242
-790.828 75.0361 1420.35 241 239 229
-403.705 292.261 1362.86 211 205 189
-43.8092 136.984 1106.96 177 164 160
-565.008 39.9139 1210.39 238 221 204
-17.2591 131.658 1155.88 255 239 231
-4.85462 173.772 1200.94 239 215 196
-470.5 277.751 1366.58 133 83 59
54.6629 282.037 1142.04 226 223 201
-94.8722 -53.2005 1067.98 152 156 125
-714.718 40.4789 1232.84 238 232 227
251.03 -206.097 1191.41 21 24 18
-848.231 32.5035 1556.19 165 146 145
-612.255 109.687 1257.67 255 252 228
-339.315 189.389 1517.56 55 41 34
-6.99247 -39.5622 1044.54 172 165 154
-788.614 368.534 1706.97 136 136 131
-49.0892 22.0087 1093.13 206 192 172
18.9461 -163.727 1325.67 115 96 95
65.2675 113.514 1043.22 246 245 220
-2.83484 256.966 1222.75 190 183 168
-511.03 -13.8244 1224.98 125 110 91
-126.582 62.5194 1114.91 252 250 249
158.604 164.144 1024.48 222 239 213
-7.82901 236.351 1125.09 154 145 122
116.756 67.7257 1033.64 222 232 212
82.3706 -171.691 1199.35 171 147 145
121.499 57.6985 973.938 215 237 208
-657.838 126.421 1237.47 234 233 204
58.0521 57.7756 952.17 240 231 203
141.571 86.2821 1060.5 228 238 212
131.808 401.84 1321.23 160 182 186
-5.24952 -129.671 1262.67 177 169 161
139.45 137.726 1063.3 250 254 255
-103.375 146.938 1185.98 243 241 240
-10.8323 -116.591 1121.75 127 117 120
166.953 174.106 1069.75 248 255 233
-417.492 286.569 1329.39 187 182 177
104.188 80.2578 1156.22 205 197 179
-584.807 -18.7224 1137.75 170 86 61
-94.8488 -58.3994 1067.57 122 118 100
-588.317 334.197 1575.45 211 157 129
-90.9007 164.316 1144.12 246 246 245
-114.341 51.4246 1174.78 252 248 251
-70.1746 -81.5097 1077.93 204 152 125
60.1043 -83.2429 1059.36 229 241 240
188.604 209.726 1141.04 221 238 211
-628.538 180.641 1224.33 252 246 244
29.0007 7.74962 998.444 221 215 200
125.862 64.806 1009.86 232 251 233
-773.839 19.9664 1372.83 252 240 232
64.4589 122.005 1159.36 181 176 158
128.323 98.5747 1050.8 233 236 228
50.6493 -190.669 1309.26 87 86 71
-738.206 6.10994 1322.09 253 222 203
-691.33 97.6044 1584.8 224 181 161
151.862 132.577 1044.11 245 255 242
-658.725 -19.5716 1295.95 215 127 98
-50.3358 147.585 1169.01 254 253 251
-799.618 -3.70956 1346.89 212 211 206
-107.368 -70.3916 1156.8 36 31 20
80.8823 103.234 1044.56 254 254 235
162.937 184.082 1147.96 227 237 217
-110.225 46.0955 1117.19 176 170 173
-20.6342 131.753 1098.48 179 158 151
137.865 163.761 1021.67 179 193 175
-119.528 56.6652 1292.16 204 195 197
