-257.025 363.652 1155.05 236 231 231
-260.867 339.585 1118.28 217 212 207
-263.743 310.729 1099.32 13 0 0
-213.123 117.56 993.844 251 237 216
-266.905 349.42 1101.39 53 56 47
-194.708 133.394 1040.44 89 59 47
-222.636 115.516 1052.68 87 42 28
-197.119 125.572 1039.45 253 221 199
407.982 -111.463 1070.79 239 233 229
-222.775 252.491 1105.84 70 70 68
-177.749 152.292 1020.9 244 233 216
-220.972 211.794 1016.05 85 80 82
-204.369 141.304 1014.39 120 90 71
-121.668 180.008 1105.43 20 2 2
-129.092 119.842 1013.19 70 23 10
-20.9095 351.438 1226.27 222 222 205
-248.939 352.103 1060.41 235 232 231
-233.985 284.443 993.779 248 243 235
-206.865 112.411 1036.38 78 28 7
-139.463 124.589 1052.94 81 41 18
576.636 -207.589 1016.13 183 202 190
-323.778 54.5252 962.54 98 81 76
-253.639 322.694 1103.07 231 218 205
-201.111 88.2557 995.352 231 202 179
-241.489 330.468 1018.16 55 58 50
-227.528 104.961 1051.04 82 40 25
-118.374 169.661 1034.54 75 45 38
501.422 -2.97321 1088 255 235 225
-239.082 350.84 1037.42 239 231 225
407.465 -53.0412 1123.68 245 241 238
373.211 -224.707 1056.51 218 201 198
-344.123 133.313 1000.85 39 25 19
-383.195 48.4436 1006.74 209 221 202
-210.074 102.769 1055.23 96 52 23
501.741 -90.9143 1078.03 243 242 227
-241.774 38.1991 1001.73 255 235 225
-216.847 132.697 1034.96 245 222 206
-211.972 135.429 1036.31 61 32 18
-117.489 185.813 1039.21 223 217 203
399.164 -45.2517 1102.34 117 105 101
-184.671 118.162 1042.06 88 52 36
-196.964 111.328 1015.04 220 183 161
-86.8696 69.5373 975.422 255 252 228
-109.904 27.7085 1075.01 253 248 215
-108.655 99.1222 1058.38 122 68 54
438.709 43.5621 1180.87 205 206 206
388.727 -53.4892 1075.59 255 245 244
-184.85 138.242 1001.5 46 35 28
-209.672 153.561 1037.82 236 210 198
-215.116 215.474 1039.62 119 100 98
666.966 55.9789 1108.77 226 243 238
-188.517 292.088 1095.62 255 251 232
-237.692 293.286 1105.21 230 247 211
-82.7767 99.6492 1063.93 254 254 233
421.981 -53.1185 1125.18 249 240 226
409.24 -74.861 1057.79 255 251 255
-238.136 103.14 1072.3 208 150 144
-287.684 319.327 1047.54 232 218 196
-333.689 39.4033 999.113 115 100 106
-307.31 347.283 1138.89 63 45 22
-258.2 366.146 1153.85 44 37 40
487.187 -181.17 870.029 12 26 17
-336.927 59.0708 959.095 45 36 34
-286.737 261.42 1043.71 255 244 236
483.236 22.1765 1134 250 234 227
-165.55 162.868 1024.02 129 112 96
-154.779 145.049 1050.52 100 70 40
-267.37 44.1612 1084.95 117 77 81
-233.4 33.8862 985.086 109 70 45
517.053 -19.0963 1086.98 229 223 218
397.996 -102.269 1030.83 212 210 209
397.411 -42.9281 1077.3 95 94 89
-339.006 51.93 958.209 253 252 240
-92.3723 252.36 1049.13 220 209 201
-327.781 264.659 1105.28 100 86 87
-179.312 -12.0424 957.849 115 26 9
697.358 69.7604 1154.73 186 189 182
494.746 26.6794 1090.83 254 232 229
416.928 -89.7593 1033.25 236 232 234
629.385 -52.0019 1045.32 242 255 238
-228.5 -17.5607 1092.16 75 36 27
-121.413 44.7072 1011.12 242 212 192
556.998 241.714 1321.18 179 217 245
-243.08 95.0376 1070.53 226 179 158
-258.045 223.726 1048.15 88 46 42
-184.881 146.671 1043.5 236 214 196
-82.7637 94.3712 1063.63 108 89 70
-48.1792 224.748 1124.23 250 239 225
575.903 251.355 1295.09 96 130 146
-263.527 296.873 1098.3 218 207 187
482.615 -43.1064 1082.58 240 222 206
-287.639 263.631 1042.2 129 96 94
402.324 -175.616 938.241 200 203 194
-204.836 164.083 1039.56 227 208 191
498.048 -13.7229 1086.64 237 218 211
-261.473 -20.1836 955.419 180 168 149
-333.388 39.7716 978.253 130 63 77
-284.41 232.512 1089.05 253 242 224
-114.243 391.146 1195.16 176 174 183
-201.82 476.742 1148.49 90 89 86
579.294 332.145 1363.38 54 89 90
-294.254 279.239 1042.85 138 131 126
-144.057 38.6115 1047.18 245 205 194
-177.51 162.533 1046.09 206 200 186
-121.434 49.71 1011.36 184 120 97
-233.326 246.684 1015.08 131 91 78
-338.247 114.765 1022.38 143 110 103
520.908 35.803 1166.1 232 212 202
383.083 -92.6326 968.984 207 193 197
-235.345 27.6058 938.332 137 97 79
-199.942 87.2768 1057.05 137 88 52
-317.558 259.829 1107.96 245 225 213
-249.566 29.9665 1014.91 44 18 11
-338.37 124.908 1022.78 108 72 63
476.871 -97.611 1035.51 204 197 175
683.325 347.583 1405.09 69 95 127
407.034 -3.03481 1125.91 116 101 100
-139.67 25.2842 984.288 252 228 210
-72.4051 131.658 1067.91 222 209 190
-241.533 321.186 1156.23 213 207 184
346.336 -221.828 1128.63 27 25 28
-261.327 236.174 1063.3 126 112 106
-228.272 65.3747 965.987 154 136 133
-308.159 254.639 1037.09 140 124 121
-369.274 67.9164 950.269 248 226 212
-223.03 63.2429 1007.16 97 65 57
-166.831 -29.8888 961.498 251 224 185
396.799 7.73609 1082.32 169 157 160
-319.648 179.437 1010.23 209 188 156
406.868 20.2693 1107.79 163 147 138
446.525 -192.948 986.391 180 180 171
-170.191 9.18537 952.094 255 237 213
439.252 -32.8191 1051.49 234 208 181
-333.464 47.0234 978.491 255 242 240
-213.034 -9.51427 1096.43 144 65 51
-264.569 239.28 1048.33 254 247 246
425.531 -18.3477 1040.97 224 219 200
-64.4821 147.013 1028.01 255 242 206
-106.136 15.6517 990.825 249 247 209
643.574 -51.3341 1086.96 224 246 227
-165.377 17.2137 943.115 162 114 103
-383.744 88.3055 1008.26 217 216 205
449.543 -3.21409 1227.4 243 234 233
-170.309 20.3203 977.582 247 209 188
-105.719 206.056 1018.97 240 234 226
-37.0706 259.076 1128.47 255 229 206
615.444 -128.389 1035.68 220 229 214
-133.92 36.0871 1049.3 253 239 214
-111.099 227.463 1110.56 71 62 57
-287.728 282.398 1069.27 255 221 207
-117.326 253.988 1217.3 233 223 214
-333.526 109.841 1023.48 99 61 62
-339.362 40.7697 920.551 245 231 225
-246.9 195.233 1008.25 255 251 241
-93.3456 282.165 1137.4 190 182 166
-84.4491 85.4827 1020.87 246 218 190
470.697 -109.208 1074.5 190 166 148
-269.508 271.565 1094.7 116 94 96
-259.167 103.625 1166.01 72 13 4
442.815 -13.6849 1083.43 253 252 247
-275.432 228.823 1002.74 159 140 133
393.533 -84.5702 1032.33 247 242 246
489.514 -20.591 1176.93 255 251 239
-81.7288 282.74 1070.7 69 29 25
-213.621 83.3697 1010.13 121 68 45
-309.33 315.141 1086.51 249 252 250
621.274 308.483 1292.5 93 130 142
-90.4343 77.8909 1037.1 253 224 192
-196.967 167.665 1000.01 128 108 90
-233.488 65.4766 1003.54 113 94 89
377.788 -84.4691 1031.29 242 231 227
-271.64 275.161 1143.19 154 135 131
-42.6363 244.698 1126.52 232 217 194
-166.366 6.59955 926.041 172 111 91
-335.753 181.133 1005.78 248 249 229
564.877 321.53 1361.36 152 185 204
525.134 231.04 1289.08 30 71 96
421.195 -182.62 938.874 73 72 63
-95.1747 357.038 1120.77 235 238 240
551.111 241.955 1279.39 159 201 223
-85.0859 312.383 1171.41 147 81 47
-368.347 123.876 1014.27 159 162 163
500.452 29.3942 1091.43 152 120 113
-268.54 -18.6584 936.848 138 124 117
607.977 -115.76 1025.74 204 219 206
-221.151 24.5995 914.685 244 212 198
-48.7598 235.185 1161.78 171 140 126
-305.244 262.29 1136.26 250 239 237
364.354 -56.0776 978.882 103 70 78
-75.0353 338.82 1102.12 246 243 234
509.528 230.908 1175.15 20 53 80
704.909 347.907 1406.39 199 221 229
-108.414 388.592 1196.38 60 67 70
402.434 -53.5458 1076.56 140 122 120
641.384 -141.212 1075.13 231 242 223
-117.853 64.8625 1074.92 219 180 149
-276.629 223.051 982.835 130 114 107
-360.425 46.2465 986.932 102 94 92
414.544 10.8986 1127.28 71 43 48
-336.62 40.3249 936.462 229 226 207
-174.878 382.423 1233.67 191 199 165
-152.533 194.924 1053.61 255 251 221
386.836 -56.631 1034.64 215 185 186
529.736 105.906 1100.88 221 220 199
-311.972 219.012 991.915 117 139 110
394.196 -81.5654 994.992 227 230 228
-21.2323 337.167 1186.89 214 207 187
-280.136 258.465 1163.12 204 190 184
-190.757 -9.07932 1039.72 249 183 158
-265.776 82.8929 1177.49 175 149 141
452.219 101.217 1140.06 62 65 52
-350.523 167.555 1021.25 247 243 220
613.825 -148.502 1033.15 205 219 203
676.181 -73.4725 1117.29 237 249 235
-374.971 108.586 1011.69 243 242 234
-272.228 262.462 1047.86 255 236 225
453.785 105.501 1111.22 207 208 182
-334.964 242.032 1101.67 150 145 118
513.108 38.2361 1152.66 156 127 95
-313.885 322.455 1165.98 111 71 67
-308.445 61.9188 967.032 242 207 196
-360.475 46.2448 1013.23 143 149 143
-230.62 67.883 1020.51 254 241 232
-323.191 230.362 1031.48 243 248 239
-267.615 -135.016 1179.44 29 33 27
-404.621 50.4195 1021.14 64 39 26
-185.163 185.669 1045.44 147 114 100
606.927 308.828 1364.75 92 133 139
-340.025 244.448 1100.32 125 113 84
-319.667 419.488 1253.37 220 210 200
-332.074 86.4579 1001.89 157 108 96
542.687 -176.838 1057.83 173 165 161
-344.097 112.141 938.01 241 240 240
-110.426 11.2491 1030.34 247 225 195
613.136 -100.734 1083.47 192 192 183
520.489 16.5888 1135.53 88 65 57
522.183 297.233 1285.64 129 158 173
320.163 69.7637 874.211 152 153 136
506.176 -16.4086 1086.76 145 130 125
-72.4194 139.628 1068.35 237 228 207
-249.502 221.334 970.153 255 250 254
425.943 101.036 1137.91 130 121 95
501.633 -105.466 1119.95 245 244 218
-292.848 295.42 1068.61 113 87 86
423.805 14.8055 1108.97 182 178 185
-138.111 262.096 1106.2 252 253 252
-304.444 321.075 1088.42 103 100 91
629.444 302.556 1274.28 171 202 212
470.053 77.7989 1052.93 251 254 255
-131.593 77.7568 1052.15 252 241 216
-125.122 -52.4416 984.511 236 224 187
-143.448 261.797 1104.92 186 192 191
653.218 305.051 1541.62 36 76 78
390.459 -241.643 1098.09 66 35 29
517.513 -85.853 1064.61 223 206 186
466.892 66.8848 1065.73 230 220 178
472.027 79.3568 1073.8 145 143 138
479.567 -44.8002 1126.14 253 248 222
-266.575 213.82 1001.99 249 232 220
-167.727 -32.7476 976.341 153 94 63
418.572 -0.299043 1083.15 195 186 194
-191.006 275.47 1094.13 169 174 149
-272.817 208.902 1002.17 139 80 64
475.056 90.0031 1140.65 184 191 171
-274.438 252.148 1092.57 255 252 253
450.608 -105.234 1117.39 146 125 123
434.465 -263.946 1135.81 200 164 149
-339.224 250.54 1153.12 146 66 50
547.712 36.3593 1139.21 132 99 83
-291.992 87.1793 1104.07 255 251 249
-367.662 61.0458 990.277 154 158 153
401.045 -8.59713 1124.85 196 174 173
664.435 -34.8865 1120.55 231 254 240
597.392 297.278 1299.52 111 143 151
-295.086 397.905 1146.85 100 81 67
-115.123 151.588 1127.31 240 216 197
639.146 -67.8441 1215.84 168 171 151
620.359 100.715 1200.07 255 253 223
524.967 -146.152 1103.14 155 152 150
-174.37 -0.178248 997.356 128 53 21
-145.865 376.414 1186.09 132 118 105
-208.788 164.716 997.059 180 175 164
-320.547 79.2607 1004.79 237 206 182
374.204 -69.4358 1055.19 97 74 75
-58.56 187.742 1094.89 244 231 213
-280.432 257.356 1171.17 255 252 241
-384.733 114.278 1040.37 133 136 134
431.971 -244.807 1099.88 169 168 182
-131.242 54.6055 1009.52 249 204 173
489.466 -19.0788 1085.6 226 203 188
-304.265 83.5724 969.109 255 245 234
-286.462 45.9719 934.712 255 248 239
-114.146 69.8601 1013.92 243 194 157
-122.749 -55.2066 947.637 172 148 110
494.956 24.9995 1135.03 171 150 147
-191.387 -21.3656 1011.43 144 65 36
-94.2849 42.4315 1016.63 190 164 148
-299.964 94.7465 1011.28 218 157 132
-348.525 232.744 1115.83 143 123 97
519.82 -95.4932 1084.69 180 157 143
-326.83 168.737 984.383 167 151 125
-156.28 191.896 1010.53 253 250 210
499.01 -7.29573 1140.81 94 70 81
456.688 18.8023 1102.49 204 171 165
370.386 24.4256 1002.84 135 124 119
-89.3581 211.771 1114.57 251 219 204
574.825 -64.8782 1004.31 115 124 95
525.676 -85.8935 1065.09 201 183 160
-179.473 -20.7506 922.254 125 62 40
648.251 174.449 1271.48 199 205 199
-171.905 43.2251 1033.35 192 154 125
355.707 -79.7141 943.085 197 192 209
-90.9479 268.575 1093.8 63 42 26
408.086 27.1287 1057.75 233 232 236
369.101 -245.537 1141.84 181 172 180
532.365 -59.7126 1067.68 241 223 212
-332.125 222.901 1101.24 159 98 69
607.345 151.232 1154.76 236 244 227
-75.7383 229.116 1118.55 176 119 105
-129.846 -64.489 983.112 190 170 140
-75.8072 212.556 1026.01 147 105 94
361.149 -296.101 1282.34 49 47 41
-75.8424 287.962 1121.69 252 186 157
483.054 -33.7006 1127.63 140 94 79
653.671 -122.908 1077.64 197 225 190
548.878 304.241 1288.29 83 120 129
-175.472 -142.227 1098.9 50 44 29
-291.035 44.865 960.041 243 200 180
-323.814 54.7643 890.581 246 250 242
337.329 -245.048 1139.67 74 68 61
407.078 -72.0649 1074.94 226 218 223
-288.549 -28.5611 1051.28 37 21 9
571.058 264.183 1387.51 47 93 107
-130.337 -53.3473 1052.2 186 166 128
473.193 -13.7012 1085.28 188 171 177
-258.676 209.901 1063.17 101 57 56
-57.1351 219.153 1215.82 209 181 160
470.159 64.3255 1067.01 155 140 93
512.849 -43.1615 1084.05 167 130 116
-123.457 28.7281 1062.96 199 153 113
495.852 18.612 1022.17 173 150 136
388.717 -74.4116 1033.02 200 188 194
-286.882 274.885 1141.96 243 228 224
-62.0548 244.652 1033.02 252 218 190
