-8.17336 271.681 938.396 234 231 223
133.098 31.6024 911.584 214 225 223
-0.166905 322.081 970.709 248 243 240
177.799 370.167 1025.53 246 232 219
13.1378 -15.1675 1097.55 240 246 243
89.2898 3.92781 1007.65 253 253 250
-24.6237 9.57759 1131.74 255 247 249
-70.7868 210.312 887.308 205 202 201
84.1626 -3.53337 1006.41 255 255 245
-138.891 -13.8245 1600.98 175 169 170
40.0431 285.049 963.186 214 196 194
18.9366 -17.2735 1170.1 253 253 246
81.6143 336.155 972.451 208 220 214
-72.2253 22.7327 1061.8 255 245 242
-18.1902 479.309 966.442 60 59 57
1.46197 -5.72849 1220.34 190 213 210
42.733 22.7316 1018.49 252 253 249
235.987 504.503 1195.05 211 207 186
145.883 202.19 896.024 244 225 211
-176.216 44.3326 1027.65 59 62 61
46.2511 -28.0715 1125.39 221 216 203
29.1672 338.162 999.976 198 180 183
60.9434 4.69886 1085.03 235 229 222
-105.697 -10.3038 1700.31 251 240 238
-27.6057 9.96457 1069.71 101 98 100
-114.297 152.918 895.263 154 151 148
92.4426 362.48 1011.98 209 214 216
8.34518 265.442 974.548 179 149 137
-100.165 191.528 913.194 194 209 207
-89.2188 191.15 901.184 188 176 169
-142.856 74.4116 969.757 192 187 180
19.2088 328.147 974.262 199 197 197
50.3766 20.292 1019.64 76 94 81
-36.1179 -30.0818 1626.01 178 145 129
-46.1623 72.0142 918.628 233 232 232
-44.1386 -30.0221 1623.96 183 154 139
-48.4279 81.0529 918.609 226 230 223
182.976 365.295 1026.03 55 18 13
44.5708 -11.3016 1081.13 103 46 36
13.7392 322.198 960.374 73 74 75
-70.4179 37.7266 1084.01 75 69 74
33.6665 267.996 974.814 196 181 167
243.007 407.855 1017.81 106 96 86
-11.6816 15.1491 1073.05 255 218 204
-96.8502 176.828 855.61 64 70 59
-71.1187 222.864 919.782 197 195 195
-7.11949 17.0544 1168 252 216 198
-51.3173 22.8058 1065.98 19 1 4
23.2372 92.2761 849.434 144 142 131
170.978 241.362 1016.93 183 180 177
15.5056 111.19 949.242 151 153 144
71.6459 323.507 936.268 177 186 184
-137.438 120.529 859.027 72 79 74
-52.4288 327.359 948.382 195 171 162
43.5009 -16.9767 1125.8 154 144 136
192.498 185.681 995.202 56 26 23
49.6582 15.8882 994.632 107 107 102
-2.06738 104.242 845.903 151 150 135
-114.631 77.1458 975.812 76 92 90
100.154 266.398 985.477 172 167 166
120.599 356.548 1016.22 217 166 152
80.0155 2.0728 1087.92 125 134 114
47.0417 524.404 1094.55 198 210 206
257.32 421.46 1061.33 84 77 68
-44.4529 36.1315 1044.79 99 78 68
40.3673 106.814 1001.99 18 19 11
144.269 234.535 993.804 207 202 190
209.772 319.473 975.189 185 132 117
-96.6882 78.8101 943.38 93 126 120
-62.0779 215.241 889.022 164 152 158
99.0199 -16.6864 1089.45 182 167 162
-96.6761 74.1711 943.179 188 230 230
-197.71 -30.2372 1443.15 158 141 136
-131.442 92.4797 844.243 193 217 222
-278.934 2.63605 1721.75 237 220 211
182.835 230.185 995.991 160 160 151
60.0505 533.278 1121.38 203 214 207
-6.84295 271.632 900.271 216 182 157
10.7735 105.751 897.637 42 43 36
162.612 94.5466 951.304 70 35 26
-143.2 131.289 914.503 208 211 206
221.37 297.415 1027.38 73 45 37
130.136 8.77716 1013.78 54 57 45
-236.962 27.281 1494.99 160 143 127
167.323 366.996 1023.85 197 140 132
-86.5789 80.264 911.613 194 219 214
-65.8199 -33.7913 1521.07 160 140 132
-215.93 20.7794 1342.79 215 189 171
-253.155 13.5489 1570.09 149 127 115
113.506 -17.6696 1186.5 45 43 37
61.9647 266.623 932.239 106 82 68
-62.0229 142.95 856.817 46 66 68
-92.3571 171.565 882.115 54 58 52
1.56619 522.597 1066.23 191 180 171
-61.4474 69.2723 901.141 176 166 155
-2.99144 304.294 956.569 135 115 107
-50.8439 154.305 876.894 46 59 58
-19.4138 301.504 966.647 169 132 121
195.712 300.88 1080.87 23 23 16
-27.6278 466.472 994.967 101 100 97
49.7592 297.719 965.438 181 176 156
50.9211 316.908 1150.04 162 138 124
43.4353 259.731 916.7 206 192 184
-33.4628 295.939 873.878 97 75 65
-82.3196 156.187 842.667 65 65 66
98.5823 302.858 973.573 20 37 49
51.5073 -7.3125 1017.83 189 157 145
105.931 298.38 974.479 16 42 56
179.403 287.86 1021.12 111 138 141
140.597 118.522 927.651 32 0 0
94.3628 247.46 892.079 61 60 57
125.423 224.979 939.594 64 33 23
-31.3463 317.585 936.921 198 181 172
-123.292 160.088 886.285 52 48 35
128.009 246.335 941.112 149 129 110
39.3434 -28.8987 1172.83 131 128 114
-102.744 72.5578 978.016 75 113 110
145.113 256.17 977.964 169 148 134
100.664 338.183 928.674 178 179 179
-57.0682 300.824 946.307 207 181 163
97.707 314.843 1066.23 45 68 63
91.7735 270.41 948.84 40 52 58
-35.2344 39.3809 1005.55 244 219 213
66.3941 204.328 953.266 122 76 46
83.7505 285.002 970.335 37 59 58
1.85542 109.976 896.374 61 62 51
-20.4599 35.0808 991.714 255 222 213
115.471 482.303 1060.77 144 153 148
-30.1631 304.337 987.299 197 170 159
127.595 238.275 974.399 109 93 83
-197.284 44.1005 1353.03 177 152 131
-31.3437 168.35 880.963 118 117 120
-57.4233 279.764 881.032 140 122 108
-74.4439 146.724 872.289 27 64 67
136.824 172.523 951.674 187 148 132
133.209 307.191 979.029 21 45 61
-30.2433 20.2466 1069.9 110 41 19
87.5732 233.899 982.287 24 3 3
-1.60074 256.731 891.326 200 201 190
-41.643 168.703 923.284 122 121 118
-101.294 83.4154 942.674 100 126 121
96.299 218.538 947.73 142 107 92
122.36 174.076 894.645 176 140 123
-135.448 82.9809 935.76 201 227 223
30.4884 306.298 962.573 158 154 156
115.569 371.592 1016.15 88 94 96
167.591 327.464 1080.57 13 35 32
-17.9844 52.002 993.084 245 208 199
31.3546 -15.7952 997.527 37 36 23
187.353 237.638 1017.05 18 25 18
102.207 292.24 939.633 25 45 48
21.537 20.8675 998.112 196 161 148
-28.9767 39.2331 1029.43 135 98 88
143.277 319.995 981.163 37 57 65
145.434 107.866 934.985 72 31 16
-79.3716 33.686 1019.41 243 158 142
179.897 394.453 1155.32 142 171 181
72.9332 274.872 981.511 45 35 17
-187.324 33.4404 1272.27 165 147 126
-98.1408 75.8889 858.222 218 241 235
52.8647 207.415 896.591 113 23 12
-86.0959 7.96499 1102.67 51 32 19
160.937 264.035 1017 130 119 119
80.9474 231.364 966.988 178 152 145
58.1388 188.755 940.776 202 134 112
-78.1821 147.794 843.086 147 150 140
62.9806 186.674 908.766 129 83 52
114.527 351.743 1054.27 61 81 87
135.03 248.291 990 56 32 15
147.733 268.542 979.055 130 135 131
28.5339 23.2209 1080.85 203 176 166
-45.7939 284.995 900.699 185 158 140
-14.5249 291.599 906.839 85 56 48
144.697 36.1969 913.271 63 61 55
29.5311 -27.8005 1051.68 159 161 156
-151.632 65.3015 1023.69 127 129 126
110.482 314.116 925.368 94 128 130
-1.1302 26.9861 1121.11 221 185 178
144.243 182.594 973.255 110 81 76
196.402 323.113 1001.32 144 94 84
240.87 373.619 1090.26 131 117 115
