-486.835 411.776 1038.92 23 13 11
-499.125 388.007 1061.01 64 56 38
-473.528 416.257 1043.82 255 251 249
213.081 155.21 1074.87 248 239 237
-254.673 408.335 1063.05 229 232 224
383.789 68.6738 1045.9 56 60 41
459.36 203.033 1123.74 239 243 229
442.13 208.533 1081.14 253 255 245
-423.003 214.022 981.994 73 51 36
166.958 -115.896 1071.16 251 251 249
-475.517 396.171 1021.78 239 236 231
310.159 -87.7974 920.992 224 216 213
-313.46 144.787 947.881 255 250 234
-482.556 449.841 1071.34 22 12 9
-340.832 108.711 978.888 255 249 235
246.298 -90.1513 948.137 252 235 218
150.808 18.8135 1017.1 255 249 249
213.355 -66.2212 995.39 243 236 222
-336.49 118.499 980.45 253 245 226
-440.941 404.393 966.895 233 227 220
-349.92 199.236 941.522 62 36 24
-442.912 178.998 995.007 236 222 205
-520.031 469.257 1133.65 36 32 30
-311.769 110.753 890.656 254 244 219
267.67 -103.054 916.565 215 227 223
253.497 33.4943 972.375 255 248 245
320.044 -72.0377 922.959 235 241 235
-334.229 166.942 1025.92 255 249 230
254.192 122.963 1017.5 221 200 189
-305.331 241.393 1191.53 215 192 172
317.009 -125.266 985.735 211 232 229
-490.32 399.894 1064.87 218 214 196
-481.33 383.357 1038.08 219 209 186
305.672 -80.5481 902.783 126 104 97
255.406 39.532 1031.25 255 251 241
177.824 32.6185 984.249 249 250 248
227.04 26.9649 954.593 255 251 234
277.214 -104.805 901.401 87 105 94
194.274 -111.06 1075.08 209 200 195
-430.396 211.961 1000.51 218 198 176
364.242 -21.9435 930.041 251 254 245
171.001 81.4044 986.411 239 205 186
-500.88 371.695 1059.07 255 242 216
229.889 174.345 1078.31 224 205 192
-400.228 233.258 966.738 244 237 227
313.099 459.008 1271.74 51 81 82
154.307 156.643 1008.15 224 223 218
296.517 363.147 1157.62 53 82 99
305.935 379.615 1268.78 218 236 241
-461.325 58.2065 921.646 235 223 204
-425.346 70.0497 914.628 109 83 70
257.93 -8.36743 955.302 238 231 215
-441.712 228.629 998.015 132 122 107
-353.742 304.572 1052.31 98 77 66
237.932 85.3939 1032.59 237 215 183
158.118 52.0037 982.979 236 228 231
157.892 -106.353 1028.89 232 199 210
151.041 58.9468 977.511 104 70 62
265.068 104.652 999.016 237 225 221
254.098 -87.2462 916.62 225 218 214
401.099 119.125 1069.39 86 102 93
370.796 -3.5856 965.107 232 253 233
-402.359 159.272 924.703 101 65 47
-478.136 118.698 980.82 146 113 103
296.397 -111.543 950.617 214 235 225
-536.761 380.735 1065.82 116 81 62
133.438 71.2389 995.449 221 213 198
176.883 21.4501 1080.86 191 175 175
-350.068 130.877 1019.91 239 229 218
-299.74 235.786 1192.82 193 171 152
232.508 -8.19445 920.153 230 208 186
149.079 135.638 999.983 220 204 198
228.596 144.558 1010.93 158 159 153
180.902 142.3 1087.26 228 221 229
-520.526 535.534 1237.33 39 39 46
-344.479 304.224 1030.43 214 193 184
-522.863 316.69 1000.23 245 244 239
222.265 31.6751 954.385 210 200 181
-417.198 175.024 941.355 97 59 42
207.47 140.642 1027.7 246 228 234
141.231 79.3385 1019.72 124 103 88
-488.753 60.099 950.259 224 210 191
143.834 110.823 998.399 255 249 238
-352.764 107.112 997.101 248 241 204
-293.19 369.959 1145.15 233 208 193
-324.295 180.27 1009.17 255 244 199
-496.969 309.189 1008.28 114 111 102
-274.347 313.105 1029.71 222 199 187
-471.535 230.074 1054.63 126 109 93
-470.561 113.896 941.354 111 84 75
-358.311 293.651 1050.3 125 102 94
169.489 -105.759 1010.32 223 151 138
210.528 144.202 1008.61 211 165 156
289.016 -116.08 949.675 168 182 177
157.213 76.9395 1038.38 209 183 186
-409.589 112.052 975.616 244 219 199
-429.912 192.928 938.477 246 228 208
-460.313 182.949 989.864 245 204 194
-311.301 226.934 1034.74 241 212 196
382.236 453.817 1261.65 64 109 125
-358.785 129.92 974.811 150 124 104
-500.188 300.022 1023.41 217 184 169
131.543 -133.62 1109.81 200 206 195
220.903 234.139 1103.05 219 213 185
190.181 88.3287 1067.3 247 219 201
199.673 -128.085 1051.21 224 222 202
-246.116 357.008 1158.05 49 44 41
-312.298 143.658 1183.67 176 169 160
-427.963 243.122 982.249 218 206 192
158.268 132.973 1065.81 221 213 214
145.527 81.5064 1001.09 164 131 121
325.199 409.544 1335.09 183 204 227
226.579 98.4234 1048.79 235 219 190
205.068 19.7941 951.737 234 194 161
-333.894 254.599 949.498 244 246 224
-288.246 320.718 1071.65 137 102 83
165.654 33.2466 937.792 255 254 255
169.274 28.8144 943.828 179 161 152
-418.334 77.9695 955.682 155 64 46
-461.139 139.137 868.474 252 253 240
233.79 250.628 1159.52 208 217 186
136.047 81.1208 981.741 253 242 231
306.209 241.34 1091.86 252 254 228
-479.142 493.534 1150.73 251 250 247
-358.262 41.3156 952.374 236 220 181
451.484 217.123 1124.81 247 255 248
-320.098 116.996 1179.73 177 166 150
-311.385 234.641 1035.05 255 246 213
-426.011 202.516 940.201 236 208 180
138.869 -66.0933 906.568 169 158 126
-319.83 190.573 1010.97 255 250 226
-535.242 251.498 962.717 234 217 190
-550.61 113.908 869.582 199 202 188
287.336 109.027 983.718 252 239 225
-313.624 221.637 1033.89 140 109 88
-296.372 238.425 997.818 254 232 200
1058.75 -142.16 1585.24 67 61 59
221.948 75.0093 1029.97 234 227 191
-289.688 287.488 1142.1 163 146 138
236.462 154.752 1012.25 234 203 175
-463.799 148.728 965.016 159 157 153
320.888 -139.857 1021.85 168 168 171
-285.609 195.314 923.218 255 242 225
364.574 -12.7624 930.796 222 241 224
-341.298 129.831 940.115 246 213 194
245.175 31.1078 972.682 121 98 82
230.696 31.5318 1019.56 101 88 70
-284.554 128.635 606.952 136 112 94
294.628 -33.6146 973.244 102 91 77
-328.778 172.568 1007.49 231 204 185
380.65 -3.58743 965.798 222 244 224
-420.784 263.313 1047.52 145 143 130
103.673 -125.003 1106.19 208 204 188
250.194 -75.755 900.477 166 163 154
289.544 164.759 1059.36 109 79 63
236.772 167.658 1037.72 104 83 58
-342.257 309.608 1031.49 102 77 67
107.769 -96.7158 1063.96 81 70 71
263.419 -87.3264 917.397 166 173 178
-312.373 316.384 1255.69 179 169 163
-446.271 290.63 979.661 172 165 163
-319.54 343.002 1014.27 191 177 160
380.484 436.637 1206.09 153 187 218
-506.352 340.739 981.372 163 158 164
173.517 24.5229 998.975 247 239 234
-313.118 290.782 946.548 187 167 161
198.699 219.093 1057.35 72 71 52
371.575 17.8858 966.915 238 249 240
-321.721 337.68 1013.14 108 77 63
244.779 121.804 1095.28 116 102 105
202.593 105.825 1045.94 254 249 231
259.53 151.061 1055.16 217 172 167
274.864 85.9383 1054.23 129 108 98
264.688 118.623 1078.87 238 219 211
194.336 -119.492 1032.72 112 61 58
-486.976 325.474 986.62 251 240 233
394.398 80.5944 989.17 242 250 234
185.042 105.353 972.585 239 239 225
257.503 182.785 1112.8 209 194 173
-542.194 181.11 953.652 114 95 84
-342.657 157.767 962.14 255 216 195
223.631 -131.013 1053.53 146 115 101
-383.056 302.669 1116.38 168 150 132
191.557 85.6675 954.147 252 208 194
163.072 185.485 908.645 202 197 168
381.79 -13.4905 1000.48 218 229 221
248.824 153.236 1079.37 99 81 81
119.064 -136.339 1208.36 78 70 61
-474.733 277.019 986.507 255 251 239
-328.351 120.889 943.195 211 197 185
-362.252 110.693 933.817 255 249 243
181.143 -71.0693 977.489 168 167 141
318.445 -27.2744 959.214 164 158 151
407.045 148.159 1033.28 218 237 220
302.417 60.6148 947.103 250 247 228
-414.091 442.058 1114.41 233 244 207
-528.601 317.364 1022.17 138 131 125
-349.104 234.845 1024.89 254 242 234
172.93 122.797 1026.76 184 178 182
-501.669 321.424 1007.67 235 227 224
-533.527 180.164 924.784 171 160 149
-449.051 166.27 950.446 249 226 212
-500.017 345.094 1057.14 121 117 113
-400.871 463.744 1137.14 172 169 165
265.039 159.019 1056.15 159 131 118
-531.634 417.112 1071.71 94 88 79
223.934 202.038 1012.07 92 83 61
-324.377 358.314 1040.31 130 126 99
141.346 89.4649 1020.36 236 222 209
-461.119 359.067 1023.55 205 209 187
-374.103 129.454 970.522 231 208 204
-346.803 48.6707 935.858 223 200 150
362.442 536.11 1354.78 115 142 140
259.467 145.83 1054.95 138 110 106
121.803 -48.3428 1008.59 138 139 139
440.637 178.648 1077.81 187 194 195
-339.581 180.851 907.751 134 105 90
-493.888 305.919 1026.23 173 134 124
281.329 347.354 1138.84 179 209 236
290.983 204.655 1104.7 166 167 160
254.348 129.969 1013.58 212 202 192
-326.363 120.833 1147.56 162 153 146
203.51 -4.8903 964.837 151 142 130
-362.328 143.847 996.251 170 119 95
99.0432 -45.3217 918.029 70 62 46
-344.582 328.91 1056.48 124 110 100
-356.374 113.101 974.804 254 228 188
246.306 108.567 1035.16 255 238 226
-286.594 246.586 1116.28 93 63 46
-648.604 140.168 1039.81 224 233 230
-363.365 144.284 974.125 255 236 217
211.13 219.227 1010.83 209 210 184
224.261 -136.101 1095.42 125 91 78
148.827 110.459 985.125 140 109 99
256.252 76.8418 989.963 185 145 127
-407.141 65.911 919.741 125 62 47
-335.61 328.539 1034.84 181 174 167
242.362 -131.253 1055.42 215 175 170
-426.134 468.928 1129.1 87 96 82
-469.278 313.565 1064.84 176 172 170
-402.967 355.261 1016.47 230 224 213
143.234 34.3288 995.312 254 248 247
195.577 219.92 1048.93 78 76 66
330.262 -105.674 972.128 171 207 200
236.05 -8.40386 953.142 89 59 39
276.037 354.933 1206.8 66 102 115
-500.601 64.2823 960.106 235 230 218
-340.911 66.9902 1170.37 187 165 145
356.755 297.327 1124.6 229 235 226
-551.187 126.69 915.825 239 239 233
-564.991 311.418 1031.58 161 165 157
365.352 -17.8674 963.534 207 211 206
401.427 480.579 1295.7 106 149 156
-511.583 179.555 888.427 232 219 207
-366.392 105.944 932.523 244 226 216
-476.631 331.716 990.664 131 113 102
182.521 137.622 955.775 253 245 242
398.412 18.6807 1004.5 240 254 231
-488.566 420.873 1008.77 119 120 108
-565.751 147.803 997.624 250 223 220
353.182 336.693 1164.35 143 177 172
-537.668 326.808 1012.53 150 144 142
330.505 -23.2508 995.708 154 151 143
254.522 -73.752 932.828 123 132 128
-560.215 150.981 892.953 231 226 223
-274.054 281.017 1122.01 80 63 58
216.391 -22.4602 950.147 180 161 144
314.461 -160.371 1085.2 53 95 100
287.2 44.7595 1035.03 223 194 171
-473.666 332.065 1017.58 166 158 156
-418.616 156.327 919.986 239 195 180
-562.191 122.843 929.126 146 151 142
-478.471 283.417 1110.44 111 102 91
304.796 231.827 1049.39 240 239 221
348.158 9.77591 980.717 174 170 152
119.906 -146.225 1180.01 109 97 80
428.867 123.808 1054.07 232 237 207
332.796 48.533 981.679 254 254 224
-417.375 74.7197 917.113 209 185 178
-289.06 238.091 1115.02 181 151 137
316.323 143.167 1045.28 181 169 151
-452.461 370.374 1027.06 183 177 153
-268.858 361.58 1056.06 251 205 176
-529.437 234.379 923.42 253 243 215
271.375 213.067 1149.78 255 252 209
-312.33 115.927 1052.84 143 130 128
-495.37 327.163 1010.19 164 150 147
-498.576 359.919 1011.71 157 130 104
-620.771 221.452 1031.38 231 234 235
-398.325 159.211 1007.32 155 112 96
1095.62 -140.114 1483.73 106 106 97
390.649 -60.5684 961.494 141 144 130
353.131 -112.726 1026.82 93 144 148
-442.438 145.401 951.431 155 145 140
383.12 -65.3062 960.609 240 251 225
222.216 -92.2157 959.07 132 164 151
-422.518 352.911 1035.02 154 158 140
-454.287 476.35 1104.42 129 129 132
-371.462 155.865 994.201 254 235 229
-341.062 410.743 1134.16 201 145 112
352.547 227.426 991.328 254 254 235
417.159 176.492 1057.08 213 222 213
238.832 -135.369 1036.9 154 108 106
-256.942 392.029 1061.37 218 202 175
179.828 125.972 923.216 222 186 199
246.848 -100.849 1037.81 73 117 93
-398.805 192.476 947.792 162 120 80
294.58 -37.8846 991.425 100 89 78
444.31 326.019 1260.86 139 163 157
-435.88 382.038 1080.87 227 226 206
-398.536 57.0826 941.225 170 130 115
-258.388 387.373 1155.14 169 167 169
282.183 102.975 1018.49 238 214 215
149.472 35.4356 962.792 240 238 239
-346.109 398.603 1132.22 118 109 83
331.602 221.944 1051.81 255 255 221
304.478 43.1658 998.728 213 199 171
263.367 218.689 1114 253 255 245
102.57 -43.5619 903.518 158 172 169
400.869 364.885 1204.82 141 152 146
298.537 73.064 1038.38 253 244 226
-460.967 89.8768 1067.18 252 187 149
214.591 -13.4534 985.373 158 143 127
215.141 -85.1325 945.574 114 118 103
282.698 53.8391 913.566 233 225 211
-568.015 136.318 951.592 168 174 166
311.273 400.112 1173.72 105 138 149
-540.072 197.14 924.172 208 197 190
102.27 -135.926 1153.38 73 78 59
-391.891 -53.002 1118.19 67 62 50
-327.5 38.5603 1141.05 75 73 66
232.958 -93.549 999.888 14 33 17
-529.348 379.795 1021 237 241 238
-556.727 391.455 1110.76 187 138 118
408.242 56.03 987.312 243 252 239
-538.423 282.36 992.116 133 113 93
270.54 -78.1404 888.176 131 137 132
-360.073 180.03 937.372 160 116 95
343.714 36.3913 981.715 252 251 217
115.605 -120.271 1063.69 82 76 77
411.472 187.228 1037.54 199 207 190
217.003 -18.3088 985.285 124 109 85
-347.131 179.244 1002.61 232 201 163
-486.858 333.174 1013.42 249 243 240
249.828 195.216 1015.14 232 237 237
440.68 472.032 1353.15 125 140 141
-502.43 297.228 1001.45 252 246 231
-536.271 369.914 1064.8 254 216 202
178.742 -132.815 1091.29 205 152 135
-553.983 127.551 955.955 230 222 213
227.497 312.808 1010.86 200 230 232
369.319 37.5329 1042.04 198 194 167
99.7847 -85.8001 1042.06 94 87 76
-325.896 577.351 1174.01 99 134 119
-605.277 256.613 1040.11 255 255 236
344.468 428.633 1230.1 91 133 137
347.424 -93.0505 939.994 114 128 117
244.67 200.114 1014.63 253 255 255
-342.749 189.425 1004.43 181 128 105
-294.258 272.65 1168.54 189 163 148
-425.25 275.025 1028.85 168 156 146
382.926 -70.0625 960.173 220 237 205
121.299 -50.2869 996.97 40 37 37
-342.518 148.212 961.718 240 195 158
141.231 31.3933 918.674 199 188 191
470.834 173.291 1103.16 130 127 108
-394.668 235.957 1035.78 177 153 123
-345.835 425.272 1056.18 131 112 81
-542.732 389.123 1186.28 231 223 219
250.517 70.4034 1158.21 190 169 141
189.479 -45.5476 945.702 133 115 101
279.079 220.008 1007.98 190 185 157
409.706 344.017 1204.57 130 162 168
-343.803 171.674 980.601 198 139 119
347.724 326.355 1143.51 152 180 186
-552.564 118.701 932.384 171 156 159
438.87 140.837 1114.94 208 221 211
-319.442 435.955 1069.6 148 161 174
414.082 130.072 1031.84 241 244 238
-561.863 127.177 953.187 222 205 201
-231.398 443.425 1283.42 80 78 70
-518.291 321.339 1019.02 237 222 218
407.441 261.661 1126.09 154 152 130
-321.854 266.844 1098.63 196 177 151
175.406 112.631 1026.48 189 167 158
-508.791 107.167 850.481 250 248 240
-544.804 286.717 990.263 126 128 106
-507.505 68.9289 927.507 179 170 155
303.463 397.946 1146.9 106 142 152
-393.432 426.586 1024.89 151 152 132
-498.803 163.504 914.852 230 185 159
