-42.395 400.406 1089.46 255 232 203
-0.569437 499.124 1256.56 253 255 253
-240.98 541.67 1399.21 241 225 209
-7.36063 492.418 1228.12 95 101 96
24.356 34.3368 1190.88 88 10 0
-9.5173 22.1503 1195.35 255 249 224
21.2267 33.0865 1259.83 51 0 0
49.8054 461.433 1267.63 74 72 74
-18.3509 423.391 1192.39 235 227 225
-14.7734 457.238 1244.5 232 228 221
284.577 42.935 1706.83 255 245 238
5.68528 496.538 1257.79 79 87 99
-13.5946 12.0415 1218.25 180 156 165
17.7343 194.028 1211.07 131 106 90
-16.2347 405.81 1248.3 61 36 29
288.063 -26.6493 1691.91 202 185 177
-37.1997 451.896 1137.67 212 199 182
-64.5847 111.183 1067.93 92 74 73
-77.6962 121.427 1065.83 150 65 52
-6.6244 334.058 1190.21 115 89 87
-78.504 88.688 1053.83 128 44 23
11.9496 493.878 1259.02 163 176 189
-73.2392 117.039 1086.27 255 235 209
313.332 56.7686 1814.27 73 61 56
-162.905 512.954 1249.1 57 55 52
-82.809 86.7377 1062.65 242 188 169
-87.7948 212.506 1136.06 45 31 37
307.848 77.3717 1717.78 255 250 242
-16.1531 491.29 1252.83 118 94 79
-48.6273 257.459 1146.28 234 212 186
198.03 -136.432 1756.07 34 38 36
271.336 -35.0696 1602.73 65 42 25
-184.102 617.818 1503.38 220 222 221
29.94 229.048 1246.18 109 105 95
-67.1971 105.753 1067.06 252 255 254
-47.8557 180.933 1096.48 108 64 48
239.837 -5.28291 1592.82 165 142 135
-41.8994 499.382 1190.7 131 114 101
-34.5988 423.761 1185.41 255 251 244
-65.0064 315.764 1125.67 73 59 59
327.285 -48.0721 1782.67 255 252 248
-82.767 73.4877 1061.84 255 251 228
-37.1241 484.461 1116.71 203 201 193
-14.0499 398.003 1187.26 234 225 212
-70.4604 20.5041 1206.83 80 59 55
-20.6207 285.549 1110.24 251 224 214
176.604 -118.199 1653.84 56 64 57
-96.0334 158.121 1064.1 105 58 45
340.842 387.634 2110.65 83 106 104
-72.6502 204.778 1071.66 117 61 49
-35.7958 477.901 1111.31 238 235 225
-71.6543 149.228 1046.24 168 88 89
300.241 73.5842 1628 255 250 239
-145.032 120.356 1118.72 149 136 129
-55.9807 31.2177 1158.39 254 230 211
-42.9711 257.769 1147.48 58 26 19
286.73 237.604 1631.26 99 96 89
-48.0778 30.0842 1111.26 111 72 48
-13.12 421.887 1249.88 238 236 225
-196.004 84.1062 1156.13 168 130 112
-129.577 136.239 1100.73 174 158 147
259.297 309.037 1856.02 90 113 116
20.462 184.843 1240.66 246 234 210
1.5641 383.811 1221.74 236 234 211
-84.6421 97.8622 1099.4 196 118 97
-141.874 85.7782 1049.69 155 136 118
13.8639 221.234 1187.39 239 232 215
-44.5141 346.158 1157.15 142 133 124
14.6174 148.57 1208 251 230 202
195.904 406.361 1863.27 22 35 32
-85.3487 68.1466 1060.97 170 143 118
-53.9468 420.092 1204.93 231 222 217
189.622 -114.848 1758.34 154 164 154
24.5558 187.228 1300.93 164 119 93
19.2901 236.276 1211.96 121 121 110
-193.966 260.596 1142.05 63 12 7
365.306 519.536 2314.87 145 167 159
297.839 315.516 1827.48 230 254 255
28.1243 226.124 1273.86 237 225 217
31.2018 220.332 1305.36 168 134 129
212.939 336.147 1852.61 23 51 48
-12.5734 294.689 1186.65 212 153 151
-26.0719 33.107 1115.89 240 226 209
3.17671 158.379 1226.93 247 228 213
149.823 -101.366 1752.12 27 27 7
25.2259 212.054 1210.66 244 223 217
-53.1293 401.457 1159.27 223 219 207
-70.0506 221.053 1073.09 81 65 61
294.709 77.2382 1715.75 92 77 70
-54.3852 91.7166 1026.61 139 144 133
285.616 68.5926 1712.49 162 139 138
-70.031 210.309 1072.51 176 142 123
-54.5192 117.593 1090.16 174 177 175
-27.2566 296.713 1183.66 173 126 118
357.513 -182.503 1760.05 218 233 233
218.589 92.4124 1763.56 36 24 10
340.503 34.4215 1815.37 255 251 242
-21.5073 448.637 1169.35 144 137 135
-85.8037 281.589 1095.96 213 197 191
-15.1288 269.006 1110.13 100 77 73
321.118 310.768 1867.31 141 159 162
-69.8112 149.513 1067.1 142 121 118
-69.7946 97.674 1066.03 179 149 131
265.191 87.2104 1704.98 184 166 160
-9.1639 265.002 1134.69 245 212 214
-47.7303 196.688 1007.86 246 232 200
-79.3915 178.725 1136.39 233 221 224
228.466 89.7619 1801.35 154 141 124
252.711 414.09 1986.9 98 125 125
-30.2578 29.5731 988.599 192 163 138
-51.849 86.6519 1026.82 248 250 235
341.361 45.4989 1808.34 255 248 254
-43.7838 430.887 1102.44 58 43 32
-17.0208 376.457 1184.34 251 233 222
-78.5363 122.827 1054.75 219 159 140
33.3948 -130.34 1709.03 68 65 41
-150.69 119.1 1094.68 134 133 123
321.777 99.8535 1908.91 144 136 128
-24.3952 463.229 1169.67 222 213 205
-219.347 105.434 1124.94 106 51 29
399.267 165.405 1845.67 252 252 233
307.172 324.786 1854.3 210 236 240
50.6895 104.545 1256.66 210 168 151
-45.5831 331.26 1130.63 182 178 174
-55.3592 87.4884 964.395 251 243 236
-92.3421 206.307 1045.95 208 164 149
-59.3229 205.714 1120.77 172 140 122
171.875 68.2753 1431.58 44 20 3
-44.6883 174.262 1171.77 141 97 86
-42.5343 275.798 1104.95 189 158 138
14.2298 -12.9146 1197.77 111 91 81
361.564 77.3923 1819.04 178 159 145
-252.005 463.995 1237.54 81 60 41
28.1421 269.645 1309.01 189 169 147
-23.9815 345.564 1237.94 189 153 151
-28.8321 144.996 1123.24 254 235 226
-1.0361 602.531 1236.87 88 108 98
51.8658 1.70855 1326.56 185 157 137
-48.8696 271.206 1162.63 237 225 207
-22.0428 423.4 1110.62 234 227 225
-65.5821 17.2605 1301.85 137 110 100
-83.9729 173.63 1086.48 218 216 212
0.0768391 150.1 1287.88 206 177 160
199.602 -176.696 1856.35 193 166 147
-130.796 340.431 1162.62 153 126 122
-62.6809 290.103 1047.09 209 211 204
