-42.5297 -16.3237 1109.8 42 41 40
128.172 260.315 941.368 210 207 197
-32.8345 -12.9124 1067.1 255 251 255
-81.1446 69.9736 982.092 236 217 205
64.1611 248.868 953.515 210 214 207
206.737 -46.4945 1058.89 11 6 3
60.8165 -21.2361 1082.96 250 252 252
-78.9913 63.0497 897.449 190 171 164
132.189 203.844 972.589 231 224 214
57.539 232.416 898.073 49 54 44
-384.347 93.9062 1379.2 74 54 48
-338.998 98.654 1471.37 186 175 171
-384.288 57.8625 1372.31 243 230 216
-335.836 106.086 1473.66 63 64 64
6.01296 89.0213 837.84 231 233 223
-347.83 211.9 1413.79 251 240 227
-68.8708 81.7479 948.712 115 139 135
-376.581 226.741 1476.91 205 185 162
-64.2783 25.0741 1021.8 255 243 237
156.001 280.939 1016.93 212 201 201
68.766 -44.4929 1127.72 251 249 237
-270.616 329.731 1583.95 241 234 228
-30.2086 56.7721 920.587 72 82 75
142.296 472.704 1009.53 91 99 92
-38.8946 60.6564 1007.68 235 243 239
-431.621 506.924 1505.66 82 91 85
-521.597 117.153 1401.89 242 227 202
-382.676 108.241 1456.75 186 177 174
-68.392 76.2438 882.997 245 249 243
62.0989 241.599 899.179 12 16 10
214.419 542.687 1168.87 79 103 109
-431.212 2.97639 1278.87 200 194 182
-526.888 102.887 1397.31 253 236 203
-340.297 242.765 1580.08 193 162 143
-409.245 32.039 1434.71 222 220 213
-41.5585 56.6647 918.62 48 56 50
-504.72 28.7802 1321.06 206 192 170
61.624 -23.5661 1017.83 85 90 89
-328.12 95.793 1641.75 66 61 49
-446.415 1.46638 1337.9 171 162 148
-442.114 74.5464 1288.39 204 206 201
-75.4983 77.1429 965.184 78 91 72
-416.368 424.099 1489.89 196 196 187
166.787 239.025 1054.58 208 185 164
-18.7029 -37.1253 1161.13 241 226 222
89.9946 385.85 961.445 250 252 247
-353.079 84.6301 1547.59 178 152 135
-263.486 369.635 1629.86 2 2 1
-48.0826 92.6903 904.569 214 204 194
-48.0073 -2.63553 1109.71 218 181 179
-69.4015 88.0947 1024.35 218 247 245
-493.677 127.027 1341.11 217 191 165
-355.457 243.789 1416.64 243 219 206
-354.917 397.062 1520.82 76 89 83
47.2085 -31.9165 1079.93 208 205 176
-55.5345 11.6159 1024.61 78 74 64
96.7803 402.773 976.945 249 251 243
-44.5005 19.9144 1160.64 117 92 68
-75.881 75.5743 901.718 236 218 200
49.9432 -26.5945 1080.78 109 116 109
-340.395 131.552 1560.78 146 151 150
-304.342 77.2709 1480.38 62 45 36
-381.795 133.952 1636.94 172 170 168
-441.072 353.183 1479.52 249 235 225
-252.908 404.833 1640.95 162 158 150
123.803 438.066 1019.62 232 228 216
-467.771 348.499 1548.19 241 223 216
120.337 219.356 950.877 162 152 150
-524.248 109.993 1399.6 114 96 75
-373.629 30.2346 1281.89 86 86 80
-72.1718 28.5489 1062.12 241 218 196
203.615 521.435 1144.43 44 79 105
-350.457 280.389 1499.78 72 53 45
-300.871 212.156 1501.94 166 131 121
-99.0317 290.608 1094.21 238 222 217
-249.267 413.824 1644.05 40 35 31
-361.995 400.274 1518.85 203 210 205
7.82482 98.2365 855.08 173 177 159
-163.461 69.3742 946.391 178 164 147
-62.0904 309.508 1079.62 255 249 236
-349.765 120.379 1470.81 182 167 158
72.835 285.712 876.881 155 155 143
110.886 -36.0515 1047.27 213 246 240
-47.0545 -4.97893 1050.43 76 54 47
-410.568 67.751 1439.78 128 105 98
34.5924 108.399 832.393 158 147 136
-108.371 33.5915 1054.89 226 198 178
-609.87 -2.00871 1232.94 142 134 123
-403.007 294.318 1565.02 168 158 148
-426.317 -21.018 1419.67 167 151 134
221.434 534.662 1148.05 57 79 81
-462.191 367.52 1651.07 187 187 183
-368.089 253.61 1403.77 205 172 156
-102.646 64.892 977.559 177 166 159
-127.491 286.246 1110.34 221 219 215
166.63 228.415 1053.78 196 188 180
-32.4484 43.6132 904.608 238 253 251
-39.9508 107.266 876.35 242 249 246
-292.258 206.914 1505.77 49 26 17
-447.365 133.145 1229.01 235 208 184
-389.522 243.176 1477.69 179 168 155
-462.445 208.534 1362.68 147 107 79
-362.424 239.062 1462.76 114 89 77
-279.75 340.796 1617.79 49 48 49
-448.577 4.30185 908.841 94 76 60
1.72243 12.9933 1033.25 153 110 95
-30.0735 331.399 1067.8 140 126 116
6.49099 173.566 899.178 251 252 246
-327.406 93.9041 1543.3 92 77 67
-360.078 264.325 1493.03 132 102 87
-58.2784 284.409 1036.21 250 235 229
-371.372 308.926 1579.55 164 143 136
89.2517 377.88 974.767 213 215 208
168.216 -0.630633 997.04 180 164 147
-448.094 20.2184 1277.45 160 144 131
-390.626 53.8207 1445.29 196 173 157
11.3362 109.234 884.655 246 243 228
-62.0769 337.746 1178.89 255 252 242
30.8088 -32.5407 1147.94 154 156 138
118.298 222.209 938.009 35 19 18
-495.468 174.437 1401.4 255 246 222
229.777 508.847 1147.3 160 186 195
-131.749 86.5241 990.686 220 201 183
1.55056 156.745 885.682 252 251 250
-356.352 11.1382 1451.46 142 169 162
-90.9293 69.6336 927.555 149 113 103
-484.071 155.959 1347.01 246 228 211
108.03 249.174 971.741 160 139 134
-86.984 288.393 1070.73 252 240 227
50.9129 140.126 863.532 32 34 26
-352.975 -18.5801 1528.81 76 72 60
123.37 519.654 1087.73 122 141 145
-486.031 69.3095 1409.47 204 188 175
66.2292 172.043 896.544 132 122 113
72.5575 107.546 893.944 61 68 65
-480.513 226.943 1436.44 202 174 152
-39.1526 77.1169 905.306 221 250 247
-413.505 400.172 1417.96 148 145 141
16.4132 119.934 857.405 208 210 190
-594.99 219.875 1714.01 255 250 241
-474.975 97.889 1418.61 131 131 123
-502.141 23.7494 1395.34 184 151 128
-390.156 281.276 1337.67 87 85 79
-448.467 -6.80212 1339.16 166 151 130
-416.644 166.169 1247.31 57 35 26
201.162 291.91 1080.86 155 154 155
-52.8942 6.80932 1081.42 251 216 214
-442.839 151.044 1238.2 159 119 102
77.3707 346.017 924.744 242 255 240
-92.5653 19.6308 1074.47 226 226 235
-69.2064 133.856 987.502 217 212 201
-121.667 81.4858 974.462 188 175 164
-395.112 18.4134 1802.33 47 48 34
-15.3973 -3.78013 1087.58 185 140 136
76.6723 2.70054 1005.56 40 106 100
-80.5297 188.57 970.686 254 250 242
-10.5844 -2.97441 1218.14 112 89 75
-3.12292 1.54256 1095.34 255 241 235
-11.8173 169.805 928.347 118 124 119
-0.719517 222.635 952.575 249 248 230
-90.8211 318.141 1171.26 238 229 216
-486.714 149.051 1345 184 152 128
93.3602 -40.2009 1086.63 215 226 223
-26.6628 49.3807 954.85 201 242 242
43.2307 147.12 873.679 122 119 121
-411.098 82.096 1441.81 80 51 46
39.5396 -11.8858 990.556 117 72 60
-410.833 74.918 1440.79 53 22 17
-777.416 60.4272 1178.43 127 135 129
-25.0149 16.9275 1045.96 178 132 125
-31.6174 -39.0145 1172.76 83 79 69
-387.506 288.416 1340.12 174 175 172
-1073.07 143.156 1728.72 225 234 229
41.3927 -14.4907 999.058 189 178 168
-471.908 14.2926 1315.52 140 109 84
-463.797 283.447 1451.7 161 138 113
-74.3481 52.5711 1021.39 210 238 228
-597.247 231.464 1562.84 172 173 162
62.1875 259.536 899.983 186 195 172
28.292 27.4141 876.672 192 216 227
103.152 367.053 988.477 194 187 176
46.604 13.9527 1018.69 48 92 80
65.6197 268.417 911.341 247 255 238
-419.143 268.559 1323.94 169 145 126
229.528 324.981 1199.4 59 61 68
-458.957 385.416 1557.83 165 123 107
-652.864 122.744 1510.63 160 145 139
75.6425 338.805 939.959 222 233 215
-610.275 44.8483 912.976 209 218 214
-495.645 13.47 1396.49 146 130 117
175.912 566.014 1163.8 143 173 176
-649.622 77.0881 1394.26 250 253 251
10.208 -31.53 1167.16 186 135 105
-428.699 297.621 1467.56 168 162 156
-503.716 185.149 1487.04 215 198 178
159.309 222.867 1071.37 173 165 153
-485.731 103.44 1447.25 7 12 7
-719.837 -99.5946 1330.77 193 196 188
-316.892 36.8121 1469.68 66 69 64
-925.965 -113.877 1757.74 175 179 170
-525.979 637.283 1886.13 175 189 181
1.54154 152.315 885.471 244 252 238
9.85464 185.95 952.157 248 252 252
-657.68 -66.4934 1252.48 151 153 148
-47.1031 253.689 980.904 200 183 191
-296.146 79.3871 1329.68 24 4 0
-457.547 282.23 1311.45 164 166 166
53.2249 288.895 949.804 245 252 240
-155.828 157.758 1071.02 154 138 130
-41.5608 65.7536 919.011 240 252 252
-439.453 291.187 1393.14 193 165 146
117.873 249.614 973.229 135 97 84
255.241 100.566 1120.32 59 33 25
-106.674 60.3249 923.965 145 130 122
-717.306 -93.6188 1338.62 99 100 88
-68.1761 63.0685 931.491 58 91 73
-924.853 76.0992 1416.52 229 237 231
-150.935 190.369 1074.59 182 181 177
-410.317 94.5618 1236.66 166 179 171
-80.9362 22.5339 1081.03 197 133 126
-134.919 167.48 1009.56 255 251 251
-50.5903 327.049 1107.44 162 143 132
53.669 123.191 904.731 82 80 82
-107.271 235.324 1023.7 255 249 244
-13.0437 19.7545 992.04 224 187 185
9.4212 7.9805 1034.27 249 213 206
45.1358 -49.1952 1171.98 207 166 157
-620.521 521.644 2278.02 175 154 148
-421.476 207.325 1252.94 160 133 111
-489.995 19.8892 1190.14 165 156 141
208.214 293.733 1024.85 128 124 131
20.7153 215.184 935.444 248 255 255
-496.44 30.7666 1398.9 116 99 84
-52.1339 48.4461 986.551 139 128 115
-337.388 267.064 1585.24 112 88 86
20.5236 -27.5541 1026.82 163 138 133
-473.769 128.636 1148.22 255 245 238
-51.9067 7.2184 1173.67 115 59 45
14.8348 170.517 888.486 235 245 217
131.715 -48.3774 1091.59 83 91 86
-317.2 47.7681 1471.28 62 45 49
67.7161 279.724 889.502 239 248 228
-23.7406 324.122 1027.41 202 192 183
55.8325 300.168 979.247 171 180 165
21.5636 195.224 890.718 243 255 249
64.7044 314.154 902.357 245 255 248
-54.0173 263.121 1017.95 240 236 234
146.447 221.441 964.964 174 162 155
-555.857 191.209 1396.49 219 201 196
-9.44309 19.529 1048.99 176 153 139
-59.4728 214.535 1032.64 244 235 218
-609.513 -41.0565 1182.52 116 119 111
-827.586 -52.154 1631.8 196 201 192
-703.599 136.473 1581.67 251 250 245
-73.3984 188.87 972.134 250 241 233
-826.404 -88.7375 1573.78 163 166 160
-81.9377 198.167 1048.31 183 155 137
5.60919 113.898 828.361 243 251 220
13.257 175.209 878.699 183 185 183
-478.1 32.088 702.048 143 155 148
87.6225 404.739 1012.48 244 250 244
-291.327 22.4065 1266.39 34 26 23
-73.2878 360.917 1092.92 251 251 233
-518.066 -9.38887 1026.84 187 189 181
60.9612 0.0949961 1084.59 22 73 80
-93.6377 76.2227 969.059 132 100 86
69.4846 347.107 970.408 217 234 221
77.7699 370.418 958.614 216 232 222
-588.7 358.68 1593.46 191 194 178
80.7173 358.383 984.72 183 196 180
-467.291 278.757 1513.43 165 138 114
-837.224 71.9831 1282.85 190 198 192
-111.154 244.502 1112.1 252 244 222
-548.493 93.4905 1246.18 179 166 169
-471.175 3.40095 970.979 212 194 171
92.2201 -31.8718 934.727 208 226 224
-430.683 77.0761 1357.41 128 112 108
229.053 309.561 1085.5 80 40 34
-576.3 99.5972 1505 200 172 132
-551.026 326.19 1507.14 232 234 217
-344.153 30.9477 1541.19 138 134 126
-344.832 252.118 1770.41 191 144 121
46.0389 281.274 948.131 233 246 232
-78.5902 -11.6171 97.6804 99 105 100
-678.356 131.329 1567.8 255 249 234
-411.835 26.03 596.851 204 216 209
40.3647 311.123 983.084 165 173 169
-582.959 136.693 1444.82 208 176 163
93.4158 347.455 884.046 154 147 144
-589.373 345.593 1578.69 230 231 219
-826.181 -132.242 1500.23 208 216 210
13.6886 198.642 933.69 243 247 227
-45.6371 16.8405 1042.11 161 116 94
-355.509 35.8228 1587.31 60 57 54
