-10.1181 -44.8654 1162.25 255 245 236
-68.4212 389.437 1295.46 255 250 236
-15.8764 -44.8385 1161.14 253 232 220
304.19 101.757 1721.2 40 35 29
457.483 -157.373 1493.85 254 242 236
441.427 -220.178 1507.83 225 215 207
-16.1348 374.447 1245.94 208 201 190
-74.7366 369.373 1292.54 224 224 225
26.2691 86.744 1233.53 111 81 56
76.0771 109.317 1245.13 108 83 64
-16.0781 421.645 1248.66 47 51 45
-21.4014 -41.4306 1189.47 154 139 127
475.462 203.699 1589.63 45 77 85
27.3453 84.6001 1291.59 253 238 214
36.4137 -30.598 1172.13 86 30 12
-103.294 39.4589 1056.24 254 253 246
43.2529 -33.6524 1238.08 101 3 2
31.768 -37.8016 1223.14 82 43 31
12.7155 94.2862 1195.82 78 37 24
-69.9245 47.2049 1108.65 104 87 78
575.165 241.383 1880.75 70 92 103
89.0794 159.479 1251.94 97 69 50
568.663 -11.6998 1840.41 225 220 218
98.0816 374.658 1310.63 74 74 69
32.5874 117.676 1237.47 250 239 219
-126.266 27.4948 1095.12 238 179 154
-55.3948 364.207 1207.09 111 90 75
24.4692 158.936 1298.1 254 248 234
457.672 -87.7985 1534.9 92 55 42
-123.639 32.9532 1096.05 103 33 10
-123.667 38.3824 1096.39 248 193 161
15.1676 102.999 1263.72 194 159 149
438.592 -302.943 1763.81 233 193 188
-71.0418 289.98 1228.12 101 89 87
438.754 143.895 1943.04 175 175 166
-1.56058 293.893 1212.87 251 250 235
-75.5186 118.882 1112.11 86 46 37
-18.1649 229.3 1205.19 121 88 76
5.69199 84.0034 1260.49 254 212 187
-113.635 57.6619 1055.07 150 33 21
15.2308 125.027 1265.11 224 187 167
-49.4954 426.166 1213.37 239 232 221
500.495 201.979 1655.34 209 232 244
-48.7614 369.061 1264.34 221 213 200
434.926 -74.2039 1528.82 202 176 173
591.355 -269.766 1580.73 208 223 209
447.998 213.284 1764.04 14 39 38
-28.5492 316.909 1209.1 137 100 103
-114.933 88.2749 1124.53 247 236 226
477.063 -31.1834 1547.45 240 230 237
-102.383 57.7589 1102.37 133 131 113
346.071 -218.986 1499.5 47 50 47
-56.7926 311.027 1080.19 86 73 73
499.76 193.52 1653.08 205 245 252
-70.5718 318.315 1129.56 235 227 224
491.106 -8.58976 1633.27 78 81 79
575.107 -76.6649 1934.02 255 248 246
-153.977 488.075 1498.11 177 172 167
45.1767 152.081 1242.88 243 236 233
484.995 -143.792 1526.03 255 253 255
-50.8435 354.054 1203.05 104 77 57
-108.483 52.4828 1055.88 244 207 205
-27.354 -36.251 1159.59 245 230 218
-113.613 52.4082 1054.78 230 149 137
26.6175 163.97 1240.14 242 223 218
95.0362 24.35 1298.47 255 238 208
374.158 -245.088 1572.64 79 82 85
-85.2097 34.3958 1059.74 115 108 99
589.341 332.589 2009.4 196 220 247
-104.083 54.7573 1150.23 133 131 117
-94.9383 260.96 1220.5 124 124 116
-22.2754 408.597 1246.56 115 85 67
455.017 -128.78 1526.72 210 199 189
-118.488 68.4725 1099.46 251 226 202
-32.948 227.184 1149.91 243 229 211
586.451 -59.6866 1712.88 239 216 203
-20.5724 207.156 1104.36 252 224 212
454.249 -80.2748 1536.06 226 210 194
47.5007 361.831 1229.01 85 70 66
366.397 -238.912 1557.59 195 185 185
-50.4461 277.855 1177.26 255 250 246
-13.2831 212.212 1235.56 253 251 240
22.3278 91.5612 1179.56 202 165 137
508.23 304.875 1789.63 70 104 125
497.027 -27.3848 1549.81 247 241 229
-19.2599 339.741 1243.11 237 233 221
14.0824 114.171 1233.45 231 184 171
48.3268 158.394 1244.03 146 129 119
724.771 -321.618 1913.81 58 77 57
-119.258 22.2271 1000.9 130 76 46
-139.523 497.085 1503.14 190 183 175
-88.5524 60.7417 1181.17 148 171 157
-38.6234 215.379 1147.7 93 103 83
48.229 -48.7094 1321.95 159 67 32
46.8494 512.487 1266.56 186 201 193
-67.8477 321.271 1175.91 164 147 148
656.302 -229.561 1702.74 246 254 237
-44.8682 -3.37765 1186.99 166 107 82
42.0522 567.057 1384.19 96 112 105
-20.0032 391.716 1156.19 213 216 213
-77.8977 187.904 1136.78 205 180 136
-90.0078 46.2809 1152.78 253 247 243
14.0744 -62.142 1195.17 142 131 104
-80.1957 251.52 1095.06 79 76 76
551.957 -76.6873 1622.81 245 240 235
551.802 210.05 1774.21 230 249 249
-51.0702 277.471 1059.6 245 231 229
-54.8386 269.544 1253.11 156 129 127
493.857 -72.8833 1540.68 249 225 216
-24.3454 297.55 1157.53 249 232 226
-47.4415 87.336 1165.06 254 240 224
40.8916 192.039 1304.56 135 123 110
433.068 -129.732 1452.12 96 75 64
-55.7788 380.496 1156.89 154 127 110
548.3 -20.7228 1634.96 251 229 215
-30.0348 367.662 1161.63 161 159 159
-10.6469 265.849 1208.36 126 117 110
-65.7993 37.8429 1152.61 245 236 224
-34.6157 351.303 1240.42 94 95 88
48.6684 424.446 1324.3 61 75 97
30.699 409.246 1258.01 114 124 132
25.7545 600.931 1449.38 66 92 80
-72.4638 239.794 1142.34 220 197 187
91.0467 -97.8076 1325.96 254 245 218
26.508 139.16 1238.07 163 128 106
2.34487 334.956 1307.99 237 235 209
100.017 1.6949 1239.26 238 222 198
31.9628 625.384 1512.6 139 164 155
-89.0283 193.191 1134.72 247 254 247
-50.233 0.901295 1157.9 255 203 179
-34.6358 276.47 1235.51 132 118 118
504.203 -249.644 1506.08 162 167 158
19.2956 68.015 1177.12 255 231 205
496.44 -91.7064 1537.17 240 210 185
540.438 -271.449 1503.42 186 199 202
-33.0574 61.4767 1166.14 255 253 241
37.8116 280.524 1219.73 216 211 192
-70.5803 69.9609 1211.56 169 112 103
-79.2223 249.833 1169.12 153 155 150
32.5097 102.261 1236.13 254 237 216
-123.665 15.758 1050.52 222 190 166
-31.5259 401.624 1244.11 199 194 191
536.175 -68.7062 1623.61 237 236 231
-116.137 140.101 1104.41 80 53 44
-89.1512 135.263 1110.15 149 126 114
539.894 -18.2578 1814.22 153 140 132
32.3523 71.5017 1233.39 195 129 103
-111.369 105.745 1077.14 154 118 101
-35.6132 -6.11391 1088.76 255 222 202
-37.2414 -31.3723 1134.95 221 203 180
-55.933 3.7707 1156.93 163 104 79
469.719 -117.365 1691.22 171 158 142
607.651 285.258 1894.04 143 160 162
-115.303 447.428 1353.81 169 163 154
590.557 -293.609 1593.89 74 82 70
101.26 197.352 1397.21 103 92 73
135.844 149.234 1383.37 255 249 218
-52.3756 321.57 1204.17 152 93 91
-46.3798 216.431 1096 161 122 96
29.7433 170.266 1241.29 116 91 79
-107.255 140.97 1155.56 253 253 254
417.22 -104.718 1380.97 237 226 228
100.121 10.8907 1240.19 245 239 217
31.6886 316.812 1313.04 253 254 227
601.993 -155.28 1607.32 231 231 205
36.7652 387.915 1285.08 154 138 117
473.664 263.199 1777.32 72 96 91
508.273 56.5092 1648.41 164 147 126
652.928 -88.7439 1884.49 172 158 151
494.914 -57.7832 1543.73 226 215 218
-10.228 206.128 1235.76 181 160 152
315.051 -262.662 1486.04 195 194 186
607.346 -129.843 1718.08 255 249 243
75.1571 4.68938 1235.19 251 238 220
548.951 -12.6565 1636.77 202 178 164
505.023 -16.3779 1602.46 93 80 86
519.505 -53.6119 1722.39 109 110 106
609.355 -158.074 1615.79 148 154 133
471.884 -123.098 1526.34 240 232 233
-84.7019 159.021 1161.96 230 204 174
518.496 -263.122 1408.94 157 173 176
542.021 377.371 1909.46 123 138 132
95.3982 56.5988 1301.98 255 240 212
-51.1392 290.793 1218.88 152 105 101
583.525 52.5495 1653.21 253 250 225
-66.85 237.205 1143.38 169 98 87
-67.1893 -44.5263 1150.81 86 67 52
-56.4976 248.429 1123.86 233 205 200
615.972 -235.357 1669.34 172 160 157
-72.3559 199.584 1139.01 222 194 174
35.3786 395.345 1229.36 160 154 153
-44.6266 230.878 1175.62 253 214 202
-47.6993 415.747 1192.25 230 214 192
27.034 43.0778 1490.73 196 174 167
-110.321 149.728 1201.78 174 144 130
495.355 -119.78 1609.6 150 122 114
115.328 73.0114 1307.35 254 243 212
507.063 286.53 1785.83 85 135 143
-134.457 385.853 1189.79 13 8 0
-27.2859 67.3479 1167.78 255 245 250
-126.618 95.7054 1099.32 100 48 31
14.948 382.827 1253.17 121 105 78
545.446 -4.57827 1638.29 232 220 200
10.7332 34.6668 1225.8 166 158 152
-44.5281 6.6089 1159.53 193 121 100
508.055 147.469 1641.11 107 90 77
-38.9732 312.61 1204.14 187 155 133
95.4699 63.0755 1302.68 255 244 224
434.755 142.168 1747.42 39 50 40
451.903 -176.64 1517.12 120 115 101
17.3323 160.601 1237.97 175 158 144
117.332 106.797 1268.79 255 241 214
-16.4447 141.126 1229.3 211 163 158
41.9398 -85.246 1168.31 71 51 32
449.999 -23.0937 1516.28 108 84 80
-123.709 7.52214 1008.85 126 94 64
424.361 -293.908 1686.62 156 121 123
57.4558 85.9572 1042.64 200 167 146
576.609 -28.7854 1634.91 164 144 129
494.11 -293.732 1650.19 99 82 77
496.597 -33.9737 1696.67 38 17 13
-50.2491 18.0905 1159.23 244 179 164
-121.561 4.99722 999.014 206 182 153
441.461 -93.7825 1450.02 228 193 181
598.31 -114.764 1931.92 147 105 86
572.811 -72.7449 1624.85 150 125 122
68.2081 554.34 1390.83 87 105 95
564.693 201.174 1773.38 164 188 187
-47.4077 38.2462 1161.37 255 245 233
-48.0613 444.975 1331.97 93 70 56
-35.6099 -34.3061 1089.51 115 90 76
-23.0598 289.12 1135.91 233 200 185
-35.2593 50.7831 1019.93 218 150 130
-15.3564 76.627 1197.98 203 155 124
53.5262 531.882 1322.4 43 62 52
390.468 222.421 1503.87 70 94 89
-94.6894 173.981 1111.26 254 243 224
82.937 178.143 1252.36 243 232 207
-108.655 97.2811 1058.36 160 100 82
-112.714 106.19 1151.9 218 180 158
424.707 170.723 1557.56 88 118 120
664.646 -380.387 2169.65 173 177 171
80.0474 31.7084 1273.93 205 158 125
604.666 42.4923 1739.13 245 245 219
575.226 -44.8451 1631.25 132 107 98
528.244 -140.807 1385.07 178 188 170
595.383 -150.692 1600.68 238 238 211
322.402 -244.227 1567.39 179 159 143
30.2157 279.747 1249.69 197 193 178
-33.0752 -7.67272 1160.74 233 159 139
101.452 172.44 1182.23 210 173 149
-88.2468 264.69 1345.68 173 147 116
663.029 55.5745 1745.04 226 232 200
458.615 -22.7865 1371.98 163 132 117
