-33.2741 -16.1222 1268.74 224 205 192
-70.7121 25.9669 1131.15 239 221 200
136.341 -59.0092 1843.63 252 247 225
-69.2334 23.9651 1171.72 26 6 2
-142.506 -29.1625 1685.62 19 10 4
-89.8395 425.019 1126.05 252 242 211
-95.2979 407.524 1124.11 209 191 186
117.378 -21.6334 1753.19 181 157 148
-167.32 136.419 1047.5 193 170 159
-113.675 336.536 1167.11 91 72 69
-98.0193 398.839 1123.11 228 220 215
87.4987 26.1148 1638.69 251 201 174
-98.6066 496.593 1234.92 31 15 11
-89.6812 343.03 1122.32 114 103 100
-85.8867 460.337 1129.98 206 191 181
-91.1311 453.946 1206.9 117 82 74
-84.4341 505.569 1159.5 201 201 203
-113.796 101.089 1057.66 248 207 186
-73.4518 483.398 1213.24 73 55 42
-46.3717 237.656 1198.61 129 111 97
-109.819 73.9594 976.472 255 234 210
-31.5418 471.433 1253.13 90 86 91
-184.851 95.0311 1061.2 156 139 133
-34.6476 5.39613 1213.89 184 161 138
728.636 -471.999 2737.97 59 59 50
139.309 115.141 1901.3 48 27 18
-182.478 123.995 1063.02 147 148 147
-102.634 458.403 1176.05 189 179 158
-130.87 161.096 1031.99 86 34 14
-127.209 217.979 1106.96 35 13 10
-81.3694 512.167 1262.03 103 93 77
88.46 -97.9315 1410.71 9 3 1
-77.398 36.0297 1061.44 252 244 225
392.164 -267.75 1523.67 58 57 53
-131.402 74.8552 1154.12 146 123 97
132.186 265.242 1820.64 102 91 69
104.167 24.6225 1669.84 178 127 99
-109.057 209.628 1064.76 102 63 54
107.283 107.375 2017.55 155 144 134
-76.8727 15.5301 1181.18 202 185 179
124.336 27.7137 1862.71 255 220 194
114.47 301.792 1824.14 120 142 142
-90.8162 365.323 1199.89 255 239 234
-44.513 36.687 1161.92 142 74 44
-113.905 127.404 1059.15 162 72 57
-124.552 214.223 1061.56 196 160 151
-109.12 228.24 1065.72 89 63 47
-88.7444 486.728 1131.24 102 91 72
-87.5051 470.544 1259.31 235 218 211
135.894 -156.047 1598 201 225 219
126.278 78.905 1685.38 249 230 212
-108.831 111.445 1179.55 118 126 122
-95.0795 311.721 1119.52 136 130 121
-285.857 478.511 1157.3 190 189 174
9.8894 -117.855 1617.68 76 77 79
-62.9806 -9.47421 1206.39 38 33 21
-69.2857 406.136 1176.47 223 224 214
-89.6629 334.584 1121.9 135 119 118
-75.4412 301.109 1147.37 245 216 203
-114.085 172.31 1061.63 133 118 94
-86.9109 329.138 1122.24 244 233 230
-107.139 252.724 1133.98 255 250 228
-34.7758 500.608 1300.67 59 59 58
121.241 37.1089 1675.94 121 101 83
-40.7235 230.527 1231.53 158 151 144
-236.674 527.148 1230.44 165 168 160
-223.718 83.364 1030.88 186 167 144
-141.656 189.583 1014.2 66 30 17
-44.606 193.531 1173.7 255 234 216
-147.716 -117.33 1670.08 55 54 37
84.9589 2.20083 1754.89 153 136 127
-92.0162 189.008 1113.21 118 83 62
-46.7701 196.428 1227.54 185 155 136
-8.96379 188.971 1312.64 68 70 61
-111.456 159.191 1061.48 100 36 24
-64.9722 289.323 1007.84 171 148 149
-263.293 112.583 1066.46 59 19 11
-95.4306 470.272 1176.56 108 86 83
-272.87 85.9905 1062.23 191 155 144
-104.825 206.551 959.4 162 134 111
-55.2198 37.1034 1269.27 175 108 83
-44.5068 28.0869 1161.23 161 91 59
-116.677 134.391 1094.33 251 223 208
-308.639 11.3281 1199.34 51 52 40
-64.9856 336.903 1178.31 129 113 107
-107.307 205.8 1058.63 228 203 196
-72.6326 462.036 1232.39 193 185 176
-72.0814 317.597 1215.71 154 134 128
-84.1052 298.375 1121.25 179 125 109
-137.958 228.49 1105.07 163 142 140
-110.41 219.965 1083.24 132 119 111
504.349 -341.262 1946.04 64 64 61
-116.991 170.314 1018.65 212 208 204
-116.214 133.867 1123.73 228 200 180
37.3639 93.2219 1757.37 163 127 112
-315.273 472.072 1166.52 67 51 33
-159.794 139.234 1049.42 149 138 130
-63.7108 411.097 1302.34 197 199 177
-93.5953 255.715 1070.52 134 121 83
-94.9373 258.517 1116.66 230 202 172
-245.072 477.861 1137.75 112 110 95
-73.3505 437.106 1209.83 188 181 171
-61.3601 373.628 1207.51 194 196 171
-108.837 148.683 1061.47 255 247 235
-125.667 66.8699 1073.48 225 197 165
-3.88823 -168.23 1923.14 194 169 165
138.4 63.1913 1891.37 124 112 105
-224.876 469.489 1093.68 143 137 127
146.575 88.1001 1784.86 143 115 94
-98.5777 484.112 1234.29 122 102 93
-46.7571 178.015 1226.09 172 136 112
-81.7482 282.452 1071.5 254 228 214
29.7006 29.7796 1856.78 20 2 0
9.26422 -117.594 1872.09 183 187 169
-171.68 383.177 1102.27 45 46 28
-83.745 102.302 1084.13 255 241 239
-99.2122 331.259 1097.15 151 141 158
-30.0358 -96.1854 1815.42 28 24 5
-112.892 523.335 1176.98 128 133 126
-60.0283 8.39874 1207.87 118 92 56
-68.364 141.924 1190.44 255 244 242
-95.6499 458.763 1086.18 153 138 114
-59.1234 7.59285 1303.12 211 193 162
-55.7889 165.512 1223.05 175 137 114
-173.387 146.573 1094.01 98 77 65
-89.0572 110.274 1083.36 181 175 167
-104.399 329.416 1113.84 198 180 178
-92.6734 124.352 1205.31 245 232 223
-258.663 141.87 1069.51 45 16 12
51.7875 296.134 1739 119 142 133
108.14 80.9911 1773.46 51 24 14
-73.6176 318.62 1175.31 182 166 154
-235.562 275.241 1059.55 77 17 3
-53.0305 497.802 1245.56 67 73 72
-137.367 213.602 1058.63 210 169 152
-63.1204 281.818 1216.82 210 182 186
-76.7767 362.02 1079.61 177 138 136
-53.2463 169.827 1170.15 176 145 128
-250.368 277.971 1128.9 97 44 36
10.4974 -119.02 1822.21 15 20 7
-93.484 212.968 1068.34 227 193 164
-349.838 76.2923 1039.67 79 67 48
-125.557 20.1248 1118.77 151 153 151
-56.9099 155.685 1140.73 236 220 201
-247.424 89.7974 1092.58 167 147 131
-61.2776 261.395 1147.31 189 184 172
87.8562 56.5628 1765.09 126 110 104
-97.2177 122.389 1107.87 187 186 185
-83.8238 161.53 1059.59 127 96 85
-85.5375 165.377 1067.44 172 140 135
-293.637 -14.0598 1394.34 144 142 130
-75.065 332.517 1215.39 255 252 251
