-337.541 393.906 1114.42 63 61 55
-282.236 188.744 1083.6 72 38 23
416.291 83.3348 1182.37 223 210 214
-156.438 445.287 1263.13 229 230 227
495.277 -158.935 994.71 228 245 234
-303.654 172.673 1057.42 254 251 235
-210.019 172.387 1037.32 92 62 42
-279.186 179.033 1064.63 241 224 210
-267.511 214.077 1089.97 249 246 239
-89.3532 390.338 1168.85 214 207 206
615.094 -23.0194 1181.02 89 94 71
-174.752 93.6771 1041.46 255 246 229
-293.504 144.172 1058.49 243 216 192
-342.446 399.71 1148.51 184 180 180
416.353 -41.5081 1035.83 254 253 242
-153.123 441.277 1260.4 134 134 127
-356.525 370.448 1179.23 241 234 219
-169.854 109.198 1043.52 255 245 220
678.921 127 1212.58 230 231 224
563.528 -111.779 1036.02 244 255 250
703.992 100.53 1258.13 214 214 209
333.18 -192.931 1142.66 239 226 219
-303.814 162.039 1122.8 114 81 55
-458.99 96.8926 1004.57 217 227 214
-175.551 127.517 1107.33 232 213 198
467.875 282.903 1237.59 181 208 221
-189.693 81.0405 1081.86 250 250 230
420.689 76.7229 1148.58 255 242 239
326.679 -0.0897284 1117.4 252 241 235
-190.814 218.603 1037.86 78 58 44
-298.918 183.404 1059.42 248 229 215
-282.898 160.557 1036.39 117 83 69
481.632 53.8501 1184.34 212 197 195
-349.258 366.2 1142.42 98 90 85
333.682 -59.9605 1080.45 255 252 249
-323.739 157.394 1098.54 230 203 183
-336.653 379.46 1148.13 203 185 171
343.061 -23.8826 1072.79 235 235 236
-194.24 89.7533 995.153 255 243 224
588.076 -140.976 1074.64 242 255 243
308.08 6.64239 1046.62 147 131 127
-271.906 172.991 1085.23 141 92 68
-190.977 231.631 1038.98 128 102 91
-421.564 87.9047 910.836 100 75 62
-257.636 219.104 1194.36 145 125 104
-189.737 86.3617 1082.18 254 248 237
-165.169 155.611 1112.36 255 250 226
-278.139 163.336 1037.95 236 211 192
-299.742 190.561 1078.6 120 89 68
-338.284 25.8661 995.146 236 231 215
466.99 -127.198 1036.68 182 175 171
483.971 311.433 1285.61 75 102 112
574.894 -53.8258 1132.77 237 239 222
450.628 88.1295 1152.07 255 246 236
-179.705 120.12 1128.04 128 102 82
-128.137 252.86 1099.2 255 249 228
648.471 116.153 1162.85 80 89 73
-166.402 141.76 1078.2 255 227 188
540.233 328.492 1351.02 96 133 145
370.907 -63.4451 1161.4 215 218 218
-116.088 334.295 1220.18 255 247 237
-370.476 294.313 1166.8 250 225 221
-336.089 30.7599 996.039 116 92 83
502.805 166.541 1166.39 254 252 230
-356.152 21.8348 1079.23 222 207 189
438.134 76.5117 1105.6 214 187 174
-333.69 21.0091 996.177 96 76 56
327.446 -150.096 1058.32 186 177 157
-285.962 201.784 1038.63 255 244 231
-171.17 130.751 1063.6 249 239 220
354.29 94.1229 1145.88 215 208 206
-187 67.8667 1037.1 234 213 203
350.46 74.1534 1142.92 229 219 215
-261.68 195.281 1044.96 237 223 209
419.972 5.81023 1094.7 242 229 214
483.632 -204.489 1060.76 90 113 107
-289.747 42.4329 1053.21 122 62 47
-454.934 116.081 986.291 255 253 246
503.19 -42.0628 1173.46 252 239 224
-373.495 402.101 1138.36 158 141 134
-361.018 337.031 1174.28 232 228 232
-254.95 225.729 1094.5 151 145 131
345.476 -50.1502 1042.37 241 222 225
616.853 247.342 1339.93 244 252 245
-330.115 354.812 1082.72 155 143 144
-338.373 277.12 1074.22 111 76 69
607.353 60.4429 1093.92 208 217 204
-302.804 241.134 1130.62 87 81 74
-355.635 334.549 1175.79 131 120 119
361.559 -42.4862 1072.46 221 211 213
-199.902 70.1251 1078.67 255 246 232
-366.463 342.479 1173.09 123 114 113
-284.704 29.5321 1053.8 153 80 52
614.378 -2.58427 1135.76 236 251 244
430.782 77.2066 1134.91 173 158 159
-433.01 112.81 1014.29 122 128 125
-403.437 322.541 1118.41 141 122 120
-226.33 77.242 1027.92 252 243 239
467.475 -120.022 1029.91 107 96 90
-326.755 313.666 1095.18 145 128 128
-122.698 278.746 1133.18 230 223 204
-309.624 77.3033 943.922 117 73 67
-298.805 302.111 1102.72 166 163 162
-201.101 86.4286 1121.59 254 245 232
-440.724 191.507 1063.96 93 52 49
-473.455 102.055 1096.18 138 145 140
-152.113 198.167 1119.21 243 235 216
-190.26 153.404 1086.22 162 137 123
530.996 96.1944 1245.1 121 96 87
-369.574 123.093 1034.93 255 247 236
-300.05 248.274 1254.91 245 245 241
-206.23 103.455 1052.74 209 146 117
411.613 -50.9358 1045.85 246 240 214
-142.212 178.098 1015.67 250 242 226
-135.066 198.898 1019.61 255 250 223
496.145 -180.477 991.749 89 91 88
-216.272 87.0485 1007.67 219 202 183
-194.38 62.6641 1035.01 255 245 211
-129.879 307.735 1241.41 136 116 96
-284.585 215.95 1065.44 244 229 215
361.706 2.4209 1168.22 181 155 150
393.222 15.4391 1099.09 254 252 228
367.687 68.4524 1143.56 227 219 226
625.631 -5.48036 1135.71 242 255 244
298.89 -53.0559 987.869 191 173 166
-213.413 462.286 1291.53 138 123 109
560.447 -123.209 1037.73 205 227 224
-380.551 300.058 1111.52 143 135 133
-196.222 204.969 1137.16 244 231 214
490.189 304.871 1285.28 113 150 164
434.264 148.494 1190.91 183 176 165
611.245 -112.579 1120.13 209 227 207
-132.763 319.711 1277.88 252 242 238
285.285 -120.904 1057.55 140 142 141
456.483 70.9928 1064.65 255 246 236
336.103 -6.82904 1087.57 233 201 199
579.579 -68.5287 1081.19 217 230 223
-343.058 262.99 1100.34 251 241 235
566.991 363.476 1276 121 169 181
292.606 -223.774 1236.93 163 147 148
-59.8201 406.37 1339.92 46 37 32
-388.058 302.176 1109.22 179 166 168
-411.846 172.05 1025 114 89 66
319.693 15.9166 1074.51 241 235 217
411.097 33.7611 1176.33 255 250 237
-340.978 285.087 1074.03 121 100 98
-178.683 126.679 965.985 185 134 96
-322.857 354.242 1149.65 233 249 225
-202.194 6.02488 1005.29 207 187 151
473.842 288.007 1288.19 87 119 124
424.336 -115.635 955.097 193 183 174
-328.065 21.5577 935.591 69 51 37
549.753 411.497 1423.93 70 99 109
-346.352 501.041 1273.75 98 95 87
-185.974 291.341 1145.36 102 74 72
435.935 -45.0015 1050.66 248 232 221
629.752 47.9573 1142.94 230 255 242
-429.235 178.254 992.187 227 226 225
-235.567 99.125 1128 237 214 217
399.262 -58.6885 1073.59 232 201 173
-297.251 162.488 1032.44 170 142 124
-149.556 276.506 1096.25 168 128 116
624.577 386.333 1363.15 219 243 247
365.939 52.2197 1126.57 183 182 181
410.182 -170.11 1007.33 131 108 108
-350.769 289.156 1084.72 155 143 139
-407.595 320.471 1156.89 245 229 227
431.276 170.289 1210.15 243 238 210
-307.361 111.965 985.948 171 166 166
1112.73 -239.05 1542.81 66 73 66
486.495 -4.82855 1284.09 236 228 199
-169.302 269.389 1135.92 249 231 223
-226.861 441.947 1225.98 113 108 105
446.902 81.9765 1106.88 152 136 128
503.704 381.575 1360.27 163 193 206
-273.792 38.7091 1013.62 156 69 39
-397.244 341.191 1174.14 252 243 246
580.285 220.432 1226.26 209 213 207
591.601 -19.9913 1095.34 237 255 251
308.318 -37.6836 1027.77 245 239 237
462.971 -170.9 1070.07 136 143 141
-270.5 355.936 1150.86 250 242 223
449.916 76.6644 1150.35 104 80 70
-181.25 247.96 1042.9 130 115 102
279.739 -232.128 1234.62 67 54 50
-370.723 405.084 1178.12 59 55 40
309.117 -132.288 992.645 180 171 155
422.51 163.405 1160.65 231 228 202
512.93 -225.405 1104.09 152 181 181
-415.814 160.192 1039.19 136 127 119
414.722 41.3783 1189.82 253 251 253
367.23 -212.72 1142.82 190 160 155
531.809 -117.478 1000.09 211 234 224
436.497 49.1025 1101.7 237 207 200
664.491 133.201 1213.7 229 246 235
-226.241 67.1517 1027.37 254 232 209
-282.072 253.935 1138.06 139 135 125
410.71 38.348 1098.73 242 231 231
581.628 189.161 1328.35 249 251 238
457.637 29.9143 1100.07 223 206 207
455.648 -179.283 1029.1 139 166 168
-399.201 337.699 1260.64 242 233 235
365.825 11.8146 986.32 196 169 150
386.831 -152.898 1032.48 49 46 34
419.929 -161.764 1157.74 142 137 132
-162.962 365.841 1181 156 103 92
-296.227 272.266 1086.52 170 164 160
471.051 -57.9535 1176.48 105 84 58
-346.048 552.106 1339.6 150 151 136
343.479 48.7608 1138.91 239 228 222
558.735 -200.096 1025.78 212 223 208
435.674 35.4771 1099.75 228 209 201
-158.924 594.767 1340.13 119 156 142
554.236 -104.224 1037.87 220 228 222
380.561 143.008 1202.08 161 157 143
-460.265 235.133 1167.81 215 194 170
-192.27 357.649 1261.82 191 169 162
654.899 69.5486 1201.99 214 233 214
-411.559 368.195 1196.81 179 155 158
-451.976 177.686 1141.16 202 178 164
-357.033 -91.4361 1275.53 59 54 47
-275.609 340.92 1148 159 160 146
527.342 267.034 1230.27 156 175 173
461.918 1.53586 1128.83 255 242 226
-422.874 240.662 1091.46 229 201 163
295.549 0.403137 981.066 180 170 169
275.806 -172.464 1139.74 74 71 75
-288.79 629.897 1369.85 146 152 147
-394.831 112.758 998.829 251 238 231
397.75 12.307 1059.56 249 228 207
301.373 -7.28047 1029.9 154 126 124
-96.9721 382.565 1426.29 50 42 39
613.958 298.005 1293.97 226 250 233
466.67 142.964 1208.64 177 181 165
-284.975 202.197 1083.92 162 115 109
-362.354 266.942 1065.97 140 98 77
-333.321 297.598 1179.24 152 150 144
-267.355 16.7072 1057.73 167 127 101
551.367 -68.9928 1008.24 218 243 210
-380.241 454.578 1200.58 210 212 207
-305.215 357.97 1106.82 196 178 160
-324.652 143.886 1076.8 232 181 171
-207.996 115.231 1079.42 249 228 212
436.374 145.97 1159.35 117 102 96
521.467 94.5346 1203.9 146 121 106
-417.77 230.865 1044.57 246 226 199
-157.216 357.294 1181.8 236 186 158
448.323 118.484 1078.96 182 176 175
382.426 -150.552 1060.36 106 102 93
613.559 385.109 1364.75 106 138 151
523.463 298.18 1292.31 133 161 165
501.755 62.4764 1106.77 174 164 154
325.593 42.7418 1052.34 141 120 113
365.838 154.636 1154.69 138 124 105
-113.422 365.051 1248.62 248 222 187
-213.447 -3.0773 1026.49 231 211 173
438.237 -156.183 994.747 124 125 127
-257.285 -99.05 1182.56 67 55 51
-387.942 358.06 1167.65 250 224 210
399.843 32.4541 1127.59 253 248 242
428.13 122.452 1078.48 164 160 140
-439.601 242.173 1085.71 253 250 239
636.595 113.289 1162.28 198 216 199
575.634 -153.394 1032.87 137 154 134
-346.199 300.652 1087.48 254 252 254
401.175 -48.2667 1045.68 239 237 225
382.959 -21.7417 1218.18 112 106 108
437.679 21.9885 1177.17 233 192 178
-360.838 57.7726 950.124 218 170 150
564.213 -129.207 1032.72 189 203 199
634.812 298.564 1409.82 157 188 195
-215.816 131.088 1078.34 249 232 209
-262.04 53.2525 1034.18 146 69 39
-468.536 110.985 1048.52 165 162 150
571.59 -114.924 1118.91 138 140 130
512.683 185.884 1217.91 206 194 169
-397.042 84.742 955.966 161 159 151
-428.79 216.86 1039.62 252 251 235
623.889 464.704 1651.32 157 190 208
443.107 45.262 1179.85 208 188 194
-337.597 256.951 1085.59 193 179 176
-405.247 157.553 1003.72 196 191 186
421.989 99.6601 1151.92 193 169 162
-406.521 371.046 1162.59 251 254 254
337.402 -38.8361 1083.47 243 241 243
-283.19 317.104 1143.59 193 170 163
541.395 -208.704 1201.85 47 69 61
594.865 305.523 1246.32 227 252 252
-155.652 293.266 1153.11 231 200 186
-374.048 329.764 1169.22 192 172 168
298.581 -126.88 1058.26 98 91 92
480.219 14.8414 1087.2 183 170 165
-413.317 133.884 1022.01 183 147 127
368.181 -44.4606 971.225 192 177 163
-292.709 426.771 1167.03 183 196 165
373.912 17.1417 1022.41 158 102 86
-320.735 130.867 1067.23 167 148 136
-166.409 255.179 1135.09 197 175 160
350.662 -46.9573 1114.68 167 161 164
351.94 -188.954 1064.13 163 173 168
399.958 -43.8365 968.546 139 110 93
-406.871 382.968 1163.72 230 227 226
-403.281 95.0514 1069.41 239 205 187
-445.111 151.394 1165.34 205 149 136
578.465 374.396 1361.88 147 177 181
376.393 37.1411 1055.5 247 242 249
-198.949 124.678 1056.12 247 215 182
-371.378 137.732 991.614 246 202 184
-170.531 338.305 1321.61 202 146 131
-314.282 141.666 1125.64 255 245 227
-263.322 321.916 1077.5 252 253 235
426.336 268.443 1254.15 116 116 110
310.938 -203.567 1188.59 192 192 199
277.293 -211.68 1236.92 160 136 115
-363.643 94.5118 1012.69 248 233 223
310.857 -122.087 899.501 124 125 121
510.472 -23.1979 1093.3 196 198 176
-424.195 280.762 1146.83 173 134 117
300.984 -19.9144 1028.71 207 199 199
-132.104 367.567 1332.29 247 227 213
569.242 158.327 1216.12 243 249 218
-401.084 97.605 995.716 243 232 231
298.768 -23.4916 1013.33 246 236 238
-301.127 266.324 1084.67 251 244 236
515.807 -114.873 1059.21 153 156 145
584.013 101.612 1069.94 176 191 176
431.757 99.7613 1137.33 124 106 78
444.068 125.595 1157.02 226 212 162
-234.78 257.342 1102.71 245 244 237
331.618 -22.0816 1115.57 226 221 224
-255.213 76.5897 1020.54 255 234 222
-205.799 671.223 1470.03 205 234 222
481.071 -185.946 980.978 134 196 201
384.567 -205.033 1143.02 150 147 144
507.169 26.1046 1191.94 169 141 136
-187.766 175.837 1043 249 233 219
-238.742 411.747 1164.87 194 203 173
371.627 -201.979 1193.79 190 137 124
-124.968 333.614 1217.96 250 208 188
529.048 12.6739 989.022 146 164 155
-381.144 95.9149 1002.01 251 235 222
499.454 160.694 1165.36 199 194 169
616.013 -39.0284 1230.27 186 188 167
470.749 83.8703 1155.49 129 95 85
-340.96 -86.9053 1236.66 119 132 123
500.047 -34.1839 1015.85 234 236 211
-213.522 225.461 1105.81 247 253 253
-252.044 -22.0372 1059.37 112 91 80
-161.148 425.237 1205.38 255 248 241
-377.817 281.843 1116.01 179 134 114
-212.629 9.86032 1066.03 158 130 92
498.767 -15.8318 1053.96 232 228 215
360.409 84.5113 1151.2 247 244 244
