543.364 -208.627 1228.38 247 243 230
27.2217 353.04 1191.4 239 233 235
31.2317 355.569 1156.25 254 251 246
20.0226 408.981 1161.01 48 48 43
-63.0779 46.3281 1014.87 52 16 16
24.407 -38.4241 985.911 71 61 53
-27.9291 41.7151 1020.94 22 0 0
49.1625 9.854 1109.37 23 4 4
14.137 -37.0104 1059.21 253 231 227
-70.5128 36.0041 1012.5 238 254 244
-54.9547 136.379 1105.29 89 45 39
576.984 -43.1188 1145.7 227 217 209
586.102 52.6413 1286.59 234 228 212
-22.1113 335.462 1101.11 225 209 196
27.5975 417.819 1198.25 183 183 182
627.158 -18.3284 1314.42 254 247 247
-36.8172 173.697 1040.42 239 211 175
25.0723 301.292 1147.8 253 243 234
53.8651 302.805 1153.25 255 251 228
60.6431 81.4489 1082.46 242 217 208
69.7805 108.624 1124.89 235 207 188
515.997 -133.662 1130.92 201 190 189
-48.0495 31.2755 1016.3 80 33 34
-5.11734 427.556 1192.42 243 241 234
83.5788 83.3693 1123.87 165 117 94
79.0578 -37.1601 1029.38 119 81 68
89.7473 120.472 1129.49 121 84 69
149.286 108.536 1180.94 106 50 36
-27.5299 271.159 1125.23 116 97 89
92.4245 109.04 1128.48 255 239 200
559.086 -80.7755 1256 67 34 25
12.1019 358.114 1141.83 123 121 111
-48.5403 51.8147 1044.82 106 101 98
608.931 -59.0095 1211.8 247 243 236
99.26 -32.6004 1103.81 151 88 77
-17.0834 346.84 1181.69 96 90 81
-27.5389 259.636 1124.06 109 91 96
-28.7846 333.864 1177.8 255 250 252
81.3784 131.76 1129.57 88 64 49
80.9794 75.5144 1112.06 239 207 182
91.8159 66.489 1122.95 111 71 44
-11.1749 339.066 1103.76 125 107 88
576.699 -30.65 1266.89 152 141 140
541.454 -74.6578 1258.33 241 188 171
77.0613 89.8963 1086.03 214 187 165
75.8424 143.015 1130.09 255 249 235
81.674 154.642 1132.45 249 238 230
86.5949 97.5558 1126.13 249 233 208
-15.5507 285.984 1085.92 123 116 116
-76.7622 80.0627 1041.41 231 226 206
69.9111 120.052 1126.31 255 239 223
-90.169 10.7878 1006.35 255 243 234
559.777 -110.436 1203.33 238 233 239
75.7903 118.367 1192.39 92 52 38
20.3894 305.884 1138.36 128 128 120
493.084 82.3958 1554.64 74 66 60
34.583 194.292 1094.01 255 245 241
171.42 327.475 1155.77 73 71 52
-38.3972 233.076 1085.39 95 94 80
663.629 -25.4544 1357.05 255 232 239
567.271 -122.256 1200.34 246 248 248
30.179 224.834 1137.92 151 102 90
623.183 -49.0934 1396.53 86 76 68
25.8194 262.537 1134.89 255 249 250
-83.7834 56.3791 1106.97 178 85 70
30.0669 331.737 1189.63 249 241 228
40.4203 -44.8602 1023.27 181 161 141
48.7795 286.911 1141.81 214 212 199
589.926 -6.92693 1291.32 207 202 203
87.0598 131.884 1130.48 172 144 122
-41.4 258.898 1121.08 83 86 88
614.771 -144.274 1237.15 246 236 212
565.763 -136.909 1197.25 214 200 194
108.383 149.663 1180.85 255 248 237
25.4929 207.536 1128.86 248 234 232
683.874 -45.003 1347.85 255 240 228
-33.1321 28.5817 1097.49 154 110 118
-9.46301 395.309 1198.37 249 241 227
557.026 -71.4691 1258.29 223 195 177
97.9809 100.632 1128.23 115 72 42
-88.7746 67.1442 1124.53 255 245 232
24.0896 325.251 1187.73 116 103 94
33.0833 338.059 1190.92 192 182 178
-34.2385 107.952 1033.17 158 123 112
-70.5615 51.2541 1013.88 137 59 46
14.082 381.399 1156.33 252 250 245
-32.9721 33.8589 1019.31 255 253 238
57.9327 -51.4683 1190.13 246 232 211
16.808 354.588 1153.37 55 57 53
-69.4146 133.011 1089.24 241 229 229
100.534 -43.7603 1069.43 140 52 24
149.981 173.081 1147.83 255 250 234
-52.8223 185.15 1068.92 247 239 222
85.7508 277.244 1130.58 239 235 203
17.1689 60.5032 1099.86 255 240 230
-35.6171 112.608 1052.06 61 21 17
515.241 -19.0382 1053.55 129 95 100
97.6512 292.117 1202.53 255 251 233
629.927 -17.3212 1266.56 234 221 218
616.581 188.935 1322.41 106 126 127
517.025 107.98 1403.59 191 186 175
-65.6402 76.8802 1017.16 213 183 186
53.2361 49.7751 1073.88 134 127 121
-46.1568 50.0069 1060.53 107 95 92
-0.828035 249.787 1135.76 253 250 244
169.251 167.488 1231.78 144 97 67
-31.6863 230.019 1077.44 211 208 190
573.504 238.686 1343.15 52 93 100
634.703 201.796 1424.53 98 122 143
-6.26305 308.283 1142.75 104 38 33
72.6189 161.775 1095.71 153 138 134
92.7469 131.948 1131.39 111 78 54
12.9174 218.585 1093.44 218 167 157
595.131 -130.68 1196.65 201 191 176
-17.168 52.2713 1074.85 251 255 233
462.44 -212.286 1231.62 57 64 65
107.636 -29.822 1105.29 255 234 205
538.435 2.26122 1199.36 40 22 22
655.138 54.3814 1272.45 255 255 225
604.334 -80.2689 1253.13 254 247 226
555.544 -114.397 1248.39 170 156 154
-16.8517 245.24 1091.24 252 243 236
-58.0434 166.08 1065.98 255 249 226
765.408 -294.712 1363.63 15 37 33
27.5092 402.329 1196.67 102 80 67
537.047 -44.8699 1218.78 148 135 129
-22.0059 234.163 1122.52 147 79 62
175.964 -9.34715 1166.53 250 246 231
-24.3882 30.2119 984.456 255 239 242
5.87391 218.199 1126.33 113 61 54
126.674 124.253 1123.94 136 124 102
153.503 12.2434 1161.67 255 254 225
-19.7835 42.5673 960.317 255 244 235
544.236 -46.5319 1148.42 242 246 241
-0.21118 81.822 1109.74 251 220 199
0.277801 173.631 1078.19 63 32 25
-4.70476 315.865 1215.06 182 101 95
-90.5281 91.4418 1081.37 94 40 33
118.955 394.284 1268.86 103 85 77
564.642 167.819 1241.47 182 220 248
105.612 -19.2779 1048.01 190 137 111
23.0205 268.197 1134.96 139 114 107
-3.85701 305.422 1186.54 255 235 213
83.9735 -31.0651 994.739 194 141 138
22.027 98.9389 1115.76 224 168 155
599.86 -61.6177 1175.11 254 249 240
114.654 352.472 1207.42 228 239 208
637.265 -64.8251 1239.16 140 116 113
660.696 -259.094 1188.95 189 217 218
-12.6868 67.6031 1026.16 255 246 253
700.348 -152.189 1226.16 202 222 201
-6.47873 246.565 1134.23 178 162 161
-3.88775 165.631 1021.94 175 134 106
-10.2792 236.488 1082.34 144 122 122
158.06 -8.9709 1080.61 243 238 212
-10.2189 261.373 1084.7 255 246 253
34.9661 9.44668 980.158 255 244 231
96.2238 175.245 1137.27 182 151 139
-22.9714 322.202 1177.76 253 251 251
694.29 -199.541 1215.8 193 201 193
630.158 -268.216 1208.46 147 179 185
556.178 -108.311 1249.75 91 81 82
479.279 -251.745 1367.28 160 159 155
-61.1856 259.819 1251.64 182 182 178
554.557 -104.564 1204.89 137 128 133
760.105 -177.218 1323.98 174 189 170
590.877 -226.345 1176.75 140 138 125
157.086 17.2307 1122.59 253 221 200
688.942 -25.0457 1354.02 117 90 72
18.4762 235.718 1096.67 253 249 245
141.539 1.87496 1121.03 255 245 232
29.8898 177.524 1015.26 152 151 145
609.731 208.388 1374.67 111 139 134
111.624 158.728 1171.58 159 138 126
675.837 -161.771 1182.45 229 240 228
70.0191 97.726 1112.4 190 133 113
126.259 403.418 1303.3 165 149 139
-69.5629 93.2391 989.653 244 232 221
141.742 15.7893 1046.38 179 136 113
20.6267 194.733 1006.6 198 157 141
584.461 -267.015 1348.71 84 57 58
-85.3403 30.8499 1009.12 203 144 120
-59.6958 220.807 1079.51 184 169 162
190.004 67.2216 1179.85 243 233 210
164.166 18.0209 1084.83 248 229 199
611.934 241.538 1339.95 123 157 159
645.082 192.891 1450.75 95 142 144
13.9586 226.662 1085.99 177 147 143
157.472 118.831 1100.51 255 247 222
-27.572 213.692 1119.28 161 129 107
621.153 -245.363 1214.14 135 127 127
703.63 -14.722 1353.47 180 169 152
96.198 383.816 1216.46 113 87 70
614.671 198.467 1389.11 210 236 236
608.582 -97.6891 1159.15 255 252 240
-74.7508 132.911 1088.09 114 107 102
584.092 -46.1055 1262.7 216 204 205
165.399 29.1966 1199.4 235 155 131
145.523 -86.4162 1069.23 242 233 212
-63.3272 -106.147 1159.52 55 51 45
62.4852 231.929 1103.78 182 186 176
573.227 -89.8803 1253.02 204 191 184
88.2258 271.713 1154.51 159 152 140
156.486 39.4628 1013.79 195 178 149
703.759 149.076 1864.64 93 97 89
-153.984 -6.93721 1149.57 144 121 96
621.57 181.044 1388.94 80 125 138
-44.0716 150.802 1109.09 250 221 186
-35.8626 221.911 1118.44 188 162 145
591.986 132.647 1305.47 39 36 27
602.617 197.88 1516.97 39 62 59
-91.7994 22.8146 1033.98 203 108 85
111.643 -22.369 1073.45 151 71 37
149.955 153.398 1130.23 141 128 115
16.9153 372.607 1155.74 147 150 145
-65.8584 155 1063.29 91 74 62
131.37 260.22 1199 246 253 250
3.37621 289.878 1090.02 207 122 109
2.62595 101.456 1112.56 242 200 159
142.031 19.8903 1115.46 242 222 208
-43.0685 64.4564 1020.35 153 164 164
90.416 35.4398 253.043 101 118 116
163.161 52.955 1167.85 255 247 222
104.39 363.387 1170.1 107 81 75
39.0569 266.1 1168.58 130 86 78
698.579 -187.692 1217.98 212 218 207
499.718 -232.526 1225.95 185 154 146
19.7737 27.3748 1097.24 255 248 218
-10.2062 266.892 1085.23 198 165 175
615.893 -58.1873 1257.55 218 205 206
589.735 231.876 1434.76 66 92 88
531.068 128.472 1193.08 63 76 70
200.97 133.663 1191.12 254 230 197
531.244 -249.269 1266.22 105 87 75
72.038 153.415 1134.12 195 170 147
745.567 -185.743 1302.16 201 217 204
10.9591 -11.1934 958.375 182 111 84
591.452 9.24956 1294.52 156 141 131
193.929 101.06 1177.55 255 242 222
511.393 -9.81379 1198.69 146 138 131
638.159 -53.7263 1304.05 218 208 209
615.468 -127.548 1195.81 209 199 189
606.234 266.024 1389.18 90 132 124
139.41 141.561 1064.07 181 183 176
170.459 50.8488 1089.82 255 250 227
175.685 251.507 1206.52 149 124 121
-44.9725 170.113 1074.5 139 94 54
-27.5914 188.07 1116.52 146 108 86
622.387 -4.95461 1270.26 136 116 92
-71.1005 93.4858 967.534 177 161 150
173.557 254.344 1121.02 250 208 194
50.4167 271.74 1186.62 233 205 190
183.988 64.4344 1274.23 194 136 113
-44.8894 62.3371 970.486 252 245 250
202.043 219.02 1252.17 182 142 123
15.9911 -69.1166 1136.53 131 144 149
192.364 142.651 1286.08 193 143 127
193.932 31.5705 1343.7 156 92 68
-5.90252 14.4349 992.38 255 176 165
739.744 -100.562 1279.23 208 234 214
176.476 185.591 1152.99 252 215 191
25.4461 -16.3919 1101.18 255 234 204
191.271 219.244 1202.21 241 219 201
529.825 -99.356 1253.19 138 119 112
-60.0171 81.093 1141.64 161 158 162
587.865 -173.252 1043.33 63 71 65
-46.8384 178.897 1111.57 141 121 97
