36.4007 -60.2435 1732.55 7 0 0
44.4428 6.96605 1206.47 255 246 229
-86.2936 76.3514 1083.55 194 175 175
10.8452 404.951 1148.27 246 221 193
245.739 278.291 1651.77 55 70 74
-24.9141 185.53 1060.05 18 0 1
-14.1096 100.167 1078.89 246 219 193
38.3702 -4.77645 1204.53 210 197 182
84.6861 455.939 1274.56 69 63 64
-19.4526 78.9321 1076.5 116 19 5
4.52442 395.456 1173.68 238 223 213
-17.6588 67.7286 1010.82 251 204 177
348.447 60.3768 1936.84 247 241 230
-14.1075 105.481 1079.24 149 84 48
15.7408 467.144 1132.59 203 207 196
16.5935 439.626 1151.08 194 174 162
1.51543 -24.678 1275.9 164 187 188
294.441 71.8878 1714.76 137 126 125
64.3864 172.19 1195.08 126 89 72
34.9412 289.979 1197.96 247 237 218
308.396 -60.878 1776.83 96 85 75
-18.2409 55.5355 953.603 255 249 224
90.4107 -17.5313 1248.59 245 226 211
-6.08246 97.5879 1080.25 91 55 44
-10.9105 83.3621 1036.09 79 60 43
-6.01391 185.906 1085.78 241 217 232
-11.3935 191.175 1085.05 141 75 67
33.9833 444.854 1183.53 72 67 55
20.2438 481.101 1172.81 252 255 246
351.078 260.877 1975.04 130 126 117
-17.8223 77.5639 995.201 221 145 127
33.2988 372.369 1196.36 186 139 118
5.2929 103.637 1103.01 151 148 145
33.8545 403.191 1180.36 223 221 210
278.925 307.757 1822.97 55 77 85
12.7272 92.3719 1083.38 148 121 113
-16.7639 282.921 1089.55 167 125 121
63.3907 13.826 1181.45 175 95 85
20.8402 404.888 1180.7 116 95 80
14.3586 487.16 1205 151 135 114
163.483 -131.953 1490.54 67 68 71
4.57186 430.924 1176.4 99 87 79
-5.30991 103.817 1117.43 150 111 92
38.304 425.673 1206.79 217 207 203
-11.387 209.914 1086.15 95 69 64
264.715 69.3408 1702.72 160 155 150
15.6342 396.186 1127.86 135 107 83
5.12222 378.859 1145.82 233 216 208
59.6222 -30.6105 1229.55 70 53 44
57.3271 -9.295 1178.32 133 110 85
-0.970359 16.2189 1120.96 203 177 159
-21.482 64.9494 988.004 125 63 33
80.0895 212.017 1256.15 178 174 164
-69.7064 118.354 1068.99 148 128 121
-182.847 -9.48787 1179.26 59 54 48
-16.7775 113.485 1079.24 189 133 115
19.403 391.119 1149.33 239 237 227
27.8426 309.054 1146.63 132 110 113
7.80065 239.502 1138.34 238 221 197
288.286 2.86858 1800.19 190 156 144
21.0286 300.78 1121.95 144 127 130
13.5983 322.413 1144.98 149 115 107
7.87079 292.198 1141.68 138 127 105
64.4528 184.055 1196.03 161 135 119
7.96159 370.502 1145.95 154 141 142
61.4895 201.702 1140.35 140 128 119
255.939 -24.52 1687.9 166 141 133
-6.27283 307.428 1139.73 60 46 46
305.688 284.16 1859 115 144 147
36.8336 547.777 1159.42 172 180 174
-3.75035 238.425 1186.47 255 244 225
346.645 17.3861 1927.68 135 110 99
129.807 214.801 1390.89 41 53 51
281.17 393.405 1877.52 92 103 110
36.7297 382.641 1179.28 227 226 222
23.0154 254.602 1052 243 218 211
5.6725 81.237 1110.64 247 255 245
-157.756 91.6989 1066.43 86 39 17
42.683 24.2607 670.634 74 68 53
287.849 407.915 1991.74 185 206 219
18.0988 81.728 1083.63 254 241 238
9.26783 367.073 1144.02 250 245 250
291.049 -8.27997 1696.87 114 77 59
50.4197 361.267 1232.09 209 204 182
299.785 450.407 2132.38 89 106 121
-247.593 57.9538 1068.76 29 11 0
-35.4926 198.635 1080.68 179 159 139
64.6314 216.722 1198.58 156 156 144
82.9144 430.932 1222.55 139 135 138
51.6393 123.673 1082.59 238 206 177
325.804 11.328 1797.58 239 211 191
49.7774 63.2586 1133.82 179 123 112
322.883 0.767046 1889.5 235 201 180
51.2049 29.9092 754.292 31 27 11
45.1824 589.245 1249.16 103 129 119
0.492393 75.0476 1029.14 247 244 229
12.5052 223.556 1232.45 110 78 56
-56.5857 123.65 1071.98 69 33 29
-35.4465 145.166 1077.55 99 54 47
-0.624542 183.335 1086.67 136 125 127
-123.783 63.1526 1054.35 149 121 99
28.219 17.8781 1151.37 226 194 172
248.935 282.825 1848.56 76 97 101
29.4911 93.7044 1235.75 254 230 238
-24.7939 156.063 1080.3 119 96 105
15.5384 145.924 1087.44 142 104 98
23.4557 65.7446 1083.49 255 246 227
70.3442 168.176 1250.47 235 216 187
150.382 -118.763 1736.62 32 29 9
264.559 252.227 1654.45 107 140 145
284.669 46.3567 1707.78 136 110 104
-14.0931 145.498 1081.77 164 81 49
290.083 374.385 1875.35 134 156 154
1.94547 81.6556 1080.69 132 147 140
-62.1631 267.839 1079.14 153 137 112
274.225 330.794 1863.45 117 136 132
293.73 54.8409 1711.01 84 68 59
63.4638 143.028 1220.16 186 150 117
-51.4028 176.868 1076.18 90 42 23
133.702 42.2644 1439.64 18 24 4
-9.06655 480.722 1147.69 115 108 99
295.148 52.8863 1777.15 44 12 5
-76.0253 315.19 1125.02 148 124 110
12.57 259.141 1116.8 248 217 189
17.116 316.581 1096.65 253 239 225
-79.4067 98.2905 1023.83 118 98 89
-59.8455 116.855 1046.16 143 125 124
140.519 248.62 1468.03 80 90 98
64.2983 154.795 1174.65 173 129 104
11.2973 174.063 1156.58 167 125 105
-140.777 244.669 1106.39 68 17 4
44.5572 121.431 1041.36 189 138 123
78.1869 14.0057 1306.08 199 111 74
53.7471 60.4527 1211.82 255 244 224
8.63111 309.06 1084.49 244 239 239
15.3626 65.7476 1082.05 255 246 225
47.9232 123.092 1214.62 252 232 221
297.395 392.813 1989.9 86 115 118
95.7969 -11.7918 1324.05 218 175 145
95.7619 238.37 1289.67 255 248 229
17.1487 112.482 1062.1 249 222 207
48.142 130.297 1092.32 254 224 199
162.741 -168.878 1640.99 182 156 150
-5.96276 278 1091.17 172 171 171
12.5442 269.068 1233.73 227 207 179
30.9888 429.807 1181.8 211 203 186
67.7044 228.708 1200.09 199 180 169
