27.9051 340.173 1171.46 240 246 241
33.7944 345.856 1147.1 254 251 244
-48.6739 31.7526 1066.81 37 11 11
-66.6757 34.0731 982.912 242 253 244
-27.5658 42.4664 1071.57 38 17 5
-64.4153 47.4583 1064.63 49 8 8
-3.38889 422.336 1194.92 255 251 242
595.925 -157.542 1314.94 243 233 231
704.017 -59.2224 1409.5 251 235 222
17.539 -39.6351 1074.34 255 248 244
-50.9307 128.347 1049.29 78 42 39
89.9131 114.512 1116.44 134 94 74
81.5049 129.994 1143.27 107 79 56
28.2479 -42.3562 1075.98 112 97 95
629.182 -24.8915 1342.37 251 239 239
636.799 50.8507 1418.33 238 229 203
92.8338 107.432 1143.59 248 228 205
-18.5432 349.062 1162.54 240 224 214
26.6841 289.142 1119.74 240 222 210
85.1008 -40.0771 1085.34 80 46 29
66.9656 84.308 1155.56 242 216 196
82.8477 89.603 1115.09 127 95 73
86.2321 92.0318 1095.07 255 243 219
17.1051 429.509 1228.05 158 159 169
-43.8932 41.0393 1005.11 230 251 239
83.9878 81.7715 1140.18 128 75 53
-35.3743 223.73 1059.15 77 75 69
-77.4565 49.9718 1062.12 251 233 205
27.7258 411.144 1196.77 229 230 229
-25.8942 268.361 1131.24 139 122 127
21.1162 294.494 1119.05 119 103 98
151.399 107.135 1203.55 99 55 41
-1.97211 333.982 1135.77 250 244 226
23.2274 426.851 1229.13 33 34 40
47.0263 -53.1022 1078.33 61 21 5
-22.5311 346.185 1212.76 255 253 252
-43.6729 47.2387 1089.62 88 46 45
72.8024 118.457 1140.92 255 238 221
-89.2309 10.1771 1015.93 255 244 218
-6.98497 352.763 1165.26 149 126 110
85.6488 129.688 1248.57 81 53 39
69.8556 107.061 1139.59 252 226 208
-34.2198 180.649 1099.35 242 218 184
57.0665 303.247 1174.21 251 251 227
-77.0084 81.6605 1082.52 255 250 233
78.7147 141.327 1143.57 235 222 212
667.228 204.631 1518.4 51 84 104
546.594 86.5406 1745.66 36 32 28
46.114 -49.7581 1123.46 189 175 165
81.0609 72.8037 1111.07 249 211 194
38.939 197.209 1139.98 255 241 230
591.508 -49.7946 1343.73 61 57 55
92.8504 125.713 1117.97 112 93 76
-15.3382 343.65 1188.45 86 68 67
-76.8847 53.0387 1020.67 187 91 70
571.168 -30.2049 1285.96 196 188 184
-25.8595 316.581 1133.73 248 241 238
101.447 -45.5294 1087.4 102 39 13
647.907 188.089 1449.07 176 213 240
26.5206 252.54 1116.97 255 252 245
88.2747 159.787 1197.02 235 219 211
23.7559 258.034 1116.86 113 101 101
-14.9755 286.955 1111.31 134 114 119
640.611 -17.4656 1415.55 251 254 254
652.47 -157.978 1390.24 220 213 213
159.213 155.741 1177.83 133 99 97
580.668 -80.5596 1331.07 213 187 172
52.116 8.50847 1129.09 58 39 39
5.16043 255.349 1187.57 255 249 250
-26.0038 252.914 1106.57 142 112 114
99.3009 -33.9362 1103.27 108 34 16
-23.0441 30.0531 971.606 226 213 198
92.3436 292.34 1206.94 248 244 223
12.9149 344.864 1120.94 119 115 110
646.145 -157.414 1327.24 232 210 191
684.875 -292.629 1338.6 191 215 213
-78.3956 58.0955 999.635 250 214 196
12.482 218.365 1111.61 248 230 220
-42.6272 188.761 1123.24 105 95 68
29.1355 216.203 1114.61 112 64 49
599.084 -39.8964 1345.66 94 88 91
-34.1281 110.468 1064.27 159 132 124
28.141 303.048 1095.08 247 237 224
112.355 148.375 1200.4 255 249 250
-44.6066 46.7122 968.841 172 129 116
49.066 276.115 1123.01 216 221 205
-42.8903 170.322 1029.06 216 210 187
17.3511 333.019 1095.73 68 66 66
58.0582 50.5058 1133.35 132 121 118
-30.2246 27.2265 1045.65 137 109 104
-5.25935 314.826 1179.6 109 69 62
-51.409 183.285 1075.01 237 217 206
627.222 -74.0567 1331.85 242 206 195
-63.8139 128.026 1046.65 208 205 202
-10.5698 378.297 1308.02 224 210 195
574.996 113.569 1582.55 178 180 172
16.6926 370.652 1144.87 253 247 249
158.334 17.0907 1146.75 255 249 221
640.792 -55.6703 1408.71 235 227 226
-20.2523 305.539 1134.34 255 251 254
180.637 194.181 1331.07 225 202 196
84.7265 156.294 1119.42 106 78 67
67.8192 235.406 1147.68 171 161 161
-8.70201 376.609 1150.21 240 215 199
-5.34365 388.031 1109.76 213 196 177
620.974 -141.242 1329.48 245 242 245
688.856 196.86 1516.43 205 237 249
47.4614 21.5213 1083.73 107 86 76
182.239 51.3478 1153.15 255 248 232
-38.2551 248.39 1098.6 74 76 75
16.7911 56.1751 1056.41 250 249 246
647.02 185.431 1470.48 70 112 131
-86.4923 32.0787 1035.06 224 153 134
170.303 45.7383 1088.43 255 249 230
-20.3262 231.847 1130.37 149 98 80
637.103 -132.238 1390.46 214 214 222
579.399 131.807 1316.9 89 83 76
19.5474 187.775 981.042 218 156 139
-56.6802 164.378 1072.92 255 247 230
-64.4636 79.1312 1066.5 187 138 147
646.935 263.278 1531.86 46 80 95
820.739 -186.488 1451.08 242 254 234
107.357 148.623 1134.76 162 152 141
687.556 -73.7407 1387.83 243 231 227
-87.9469 89.3068 1062.22 99 51 44
23.4855 378.647 1201.67 202 204 201
584.448 -89.4553 1206.02 254 244 222
533.123 -246.593 1437.39 45 48 46
808.64 58.6086 1579.67 253 250 230
517.082 -80.1965 1179.88 115 91 87
668.707 -96.9789 1401.86 248 241 221
628.962 -57.7548 1335.31 255 249 255
-30.1996 74.31 1073.03 146 147 129
129.331 377.669 1262.72 91 84 72
-16.9333 53.1767 1074.27 254 252 244
12.4939 340.01 1186.06 101 91 81
-15.0395 245.079 1108.22 251 242 247
147.895 163.761 1142.6 217 189 165
90.6109 -34.763 1086.6 255 243 236
652.941 33.5826 1359.69 109 108 88
72.6359 95.775 1139.26 162 115 101
16.8178 219.802 1084.93 198 166 151
1.81706 77.4014 1079.31 251 215 193
27.0264 371.302 1125.45 114 87 77
26.51 196.785 1090.95 201 175 178
665.172 220.184 1522.08 93 113 114
78.8828 164.154 1145.16 169 138 134
134.861 257.698 1212.35 252 250 252
92.45 64.8844 1140.33 156 108 72
182.435 62.7939 1154.15 255 248 230
33.6962 408.506 1197.71 100 102 103
93.2176 367.918 1186.13 112 103 82
599.212 -86.5345 1401.71 202 164 148
-27.3579 212.729 1118.09 148 113 89
-77.5505 92.1294 1064.56 151 78 50
825.239 -228.458 1455.86 231 238 227
737.064 -311.145 1439.62 83 107 95
101.407 99.0288 1144.42 157 117 84
22.0158 239.303 1139.25 253 250 246
742.668 -31.1499 1483.55 191 160 148
871.498 -214.687 1537.66 234 255 239
630.503 -10.4707 1416.4 178 170 168
-11.2172 69.2123 1097 242 254 251
203.35 382.862 1376.51 98 95 90
559.915 -83.5279 1275.61 122 94 87
-2.2656 239.27 1125.98 168 158 159
29.0967 387.479 1165.61 248 232 222
601.077 -99.0203 1335.99 221 217 211
-8.19229 247.525 1043.63 255 252 252
-0.65073 299.747 1189.07 255 231 216
96.1413 167.794 1122.35 156 130 129
-67.0893 84.3789 1066.27 168 67 58
-13.5601 101.025 1035.12 237 219 177
4.81875 206.889 1087.41 159 107 87
-32.6883 31.8349 989.093 244 251 240
103.66 344.486 1137.89 76 57 47
567.922 -9.57564 1289.22 77 61 61
-40.5804 141.711 1052.33 241 215 182
605.007 -34.7806 1340.51 214 204 204
17.1642 25.6922 1036.61 255 250 216
15.7095 223.615 1090.36 153 143 134
143.585 0.109062 1143.11 253 235 233
34.2364 88.5928 1085.92 240 185 169
216.757 138.331 1271.51 244 223 199
-86.4552 21.8465 1034.33 246 157 142
610.735 -286.395 1432.02 136 124 121
782.937 -161.437 1389.55 238 246 228
521.732 -273.596 1508.32 173 177 159
513.485 -246.897 1370.04 88 87 95
25.0855 308.037 1143.56 162 157 146
621.376 198.015 1585.34 46 67 67
870.681 -222.085 1536.3 225 249 233
819.86 -193.46 1449.61 162 184 161
133.358 508.026 1256.8 94 125 113
23.4203 93.8184 1084.31 245 217 191
24.1141 301.384 1184.03 244 217 198
-8.22739 224.093 1042.59 166 135 143
614.887 130.86 1375.12 58 46 33
830.769 -136.368 1471.13 220 236 217
-34.2942 219.979 1126.81 192 175 149
-51.3797 137.833 1072.54 112 75 44
172.746 336.121 1214.2 249 242 232
169.5 -11.2182 1145.86 243 232 211
633.585 -96.8974 1401.02 106 70 58
118.988 354.533 1241.84 225 230 203
-74.964 102.752 1065.7 183 167 160
594.168 -17.4174 1413.6 131 118 118
-71.9306 94.8324 1023.37 206 168 148
-147.146 -7.82608 1087.98 169 145 126
-64.6395 148.981 1116.17 227 206 188
697.242 204.6 1518.21 101 129 135
-37.0831 160.941 1122.7 237 195 161
-5.96546 217.327 1085.87 184 138 111
63.9398 343.853 1117.68 176 186 158
826.305 -217.937 1457.63 154 173 153
146.724 17.0698 1145.03 255 237 232
-41.652 63.5662 1028.11 152 174 163
506.807 -243.554 1370.29 152 164 163
9.08752 365.152 1215.93 252 252 245
617.442 235.713 1525.09 71 98 96
676.444 -267.418 1236.88 159 185 195
760.048 -126.699 1464.98 253 247 231
176.176 125.54 1209.05 255 245 235
529.88 -114.316 1217.43 166 145 136
141.549 2.93067 1139.07 181 111 95
-68.4913 -115.917 1290.77 62 45 34
585.548 -124.953 1331.13 177 163 161
6.54019 96.5689 1100.32 190 167 137
158.811 48.3534 1149.48 255 236 218
41.5952 263.093 1182.9 171 153 148
95.2186 266.401 1178.09 237 234 223
651.131 -14.9283 1339.79 144 119 107
17.534 89.1878 1016.62 182 146 109
644.854 -59.7955 1343.94 244 226 236
115.745 -26.0195 1114.32 151 74 47
-63.854 148.913 1048.14 84 74 61
-36.1881 202.937 972.436 193 199 183
-55.8936 252.101 1228.84 182 181 178
50.9032 261.565 1169.52 250 234 234
188.899 97.3204 1157.95 255 245 226
577.375 -267.023 1368.88 165 151 152
743.566 -293.24 1372.16 75 96 98
618.759 -19.6599 1219.66 149 132 119
-0.850173 30.7313 1033.76 255 238 243
7.57813 203.209 1089.41 254 250 238
18.0601 -68.7558 1117.12 116 123 129
798.073 159.412 2144.55 84 88 78
658.348 16.7453 1357.12 231 225 203
147.047 39.7559 1147 253 231 206
4.48242 306.367 1164.07 220 159 142
-41.6656 163.386 1033.29 143 126 100
29.5556 98.136 1150.31 171 143 116
135.199 -84.476 1022.17 225 213 192
1.86263 92.3368 1037.79 255 234 215
-57.1378 252.612 1216.62 45 40 33
688.866 263.336 1532.22 164 197 199
586.064 -118.475 1332.23 130 117 115
162.561 1.57021 1172.53 254 204 186
-34.0497 196.329 1052.46 232 215 183
-3.45407 12.8532 1032.24 255 193 173
567.083 -118.668 1298.27 94 77 68
134.781 125.459 1180.36 201 173 145
186.435 189.342 1215.92 238 213 195
4.05686 176.375 1106.6 166 120 96
-26.3073 89.5738 1050.19 177 182 175
220.416 238.592 1358.99 192 149 129
-40.3464 160.093 1028.66 146 100 72
