-26.2617 7.19174 819.705 27 35 31
-432.726 39.3237 1502.41 210 209 204
-22.6321 -24.8256 886.687 242 240 234
-444.733 49.4254 1422.69 4 5 3
-958.592 24.3911 1349.09 45 46 35
-391.17 39.6188 1233.58 190 186 181
-183.815 4.05757 949.109 249 237 230
182.93 -139.141 1071.72 6 4 1
35.1289 9.94785 802.434 156 160 144
-488.396 360.539 1384.59 220 223 215
-468.395 166.181 1431.07 229 216 208
-471.407 255.632 1240.72 98 62 55
-402.583 285.718 1562.62 37 33 25
146.774 173.782 1000.71 196 197 186
-398.771 278.042 1562.82 208 183 171
-430.297 33.8422 1507.26 55 47 40
59.0629 220.362 988.503 99 109 101
42.8661 22.457 858.065 245 254 234
-385.707 311 1573.33 18 16 14
-746.897 12.3219 1034.2 142 147 136
-89.7269 204.532 1025.64 255 243 237
-14.695 23.004 841.857 246 255 241
-457.041 21.882 1578.68 61 38 35
-473.668 246.003 1238.49 233 219 205
-614.324 504.788 1609.01 65 63 61
-4.12725 57.9303 881.49 223 236 218
107.002 295.359 939.748 253 251 249
-15.608 66.7342 911.766 242 242 227
-13.0931 0.266183 870.379 98 107 97
39.8754 3.55717 887.32 236 240 224
-637.362 51.3007 1377.95 230 216 184
6.93439 -36.764 913.44 122 135 132
-81.8014 -50.7385 993.08 249 207 187
154.319 366.585 1020.94 70 74 68
43.3201 -54.7922 976.67 229 229 234
-4.77643 -2.9466 860.769 49 84 89
-462.459 211.911 1362.2 169 159 146
-1007.99 8.24104 1396 111 116 104
-13.5593 -1.89422 846.875 48 66 61
-506.412 51.3877 1477.93 169 155 154
133.576 105.054 960.08 162 142 122
88.7591 152.745 934.229 27 21 20
-567.223 358.364 1350.75 89 88 87
-375.897 340.014 1581.78 147 145 135
-432.99 60.3241 1353.69 195 185 178
-546.659 469.624 1457.27 88 93 90
-395.809 294.199 1566.66 153 153 144
-998.309 -8.64366 1367.8 47 50 39
-403.698 154.141 1433.6 203 164 145
-52.0279 -6.21539 879.384 249 253 245
-77.5714 -8.46807 890.103 196 163 139
-72.0435 -67.8843 994.241 250 253 251
-446.018 160.039 1439.21 158 137 127
-538.042 -30.2591 1231.9 177 157 147
-71.3468 -51.2099 977.795 228 198 190
-504.7 -46.606 1182.88 204 180 163
-22.2699 14.1137 813.428 221 223 218
-1002.2 -15.3136 1363.83 185 189 177
-105.12 212.197 1083.58 233 212 207
37.7335 166.615 947.446 140 142 124
28.3695 69.7022 878.629 247 254 255
-163.684 66.0042 964.618 219 214 207
-696.216 72.3648 1532.96 207 186 160
-200.412 0.587259 970.286 88 94 88
-451.638 221.522 1446.26 71 52 48
-56.9467 205.899 1032.41 220 212 205
-409.285 166.636 1376.73 215 179 166
-129.298 167.368 1015.47 255 251 251
-64.8553 68.3501 903.437 232 217 207
-445.151 172.29 1292.58 166 145 141
-28.1502 -33.1898 876.121 227 245 244
-28.8462 240.713 1039.52 102 91 78
-802.012 -25.3646 1306.07 246 242 218
13.0242 105.61 897.647 220 214 202
-426.853 64.8827 1415.25 169 176 168
-50.0234 -58.4185 998.708 205 170 164
-147.624 104.649 969.784 132 115 114
43.5181 34.4402 841.25 232 235 223
-134.668 184.771 1057.26 251 249 250
-720.41 322.706 1519.29 152 152 140
-442.625 31.6465 1491.28 61 41 38
35.9394 67.4164 850.468 241 252 241
27.9635 81.6599 856.676 246 247 246
100.189 269.468 984.911 249 255 243
-500.043 42.9399 1383.95 78 56 49
60.3411 22.1116 843.042 154 141 123
-500.123 48.6019 1399.45 189 177 170
95.1905 202.381 913.565 176 181 158
-138.752 94.1417 1009.88 255 252 245
30.5484 63.2199 878.786 255 253 253
-19.3529 9.02662 981.128 102 102 95
99.6898 269.146 937.474 213 214 209
93.0066 251.303 957.632 249 255 246
-994.071 -1.98393 1371.34 110 115 104
-50.5246 122.263 967.067 255 254 233
-174.885 -1.77409 975.849 184 169 142
22.4787 64.9912 821.117 237 242 241
90.0442 242.943 934.775 251 255 240
-430.762 20.6143 1374.74 180 141 127
-511.972 86.092 1144.53 220 195 167
178.128 491.355 1159.79 81 126 141
-517.753 67.1555 1135.01 111 89 66
-675.056 315.291 1442.96 230 236 221
115.284 525.483 1222.53 238 255 255
-541.698 -22.3666 1215.32 143 124 107
-525.047 -34.7326 1175.76 158 139 130
-722.751 314.565 1516.23 233 232 224
23.0629 2.20793 846.928 213 225 206
-550.348 88.9891 1221.41 255 245 216
-506.614 163.205 1213.51 236 226 206
-466.651 60.8262 1485.34 95 94 90
-543.241 12.5348 1255.73 150 139 121
-110.509 268.609 1084.31 235 237 226
-570.037 199.548 1392.58 247 228 220
-543 101.328 1225.44 255 244 215
87.9207 17.911 885.628 59 69 62
-440.89 165.003 1606.89 79 52 36
-441.474 187.386 1343.11 198 176 156
-567.333 188.201 1372.51 157 120 102
-569.266 99.9846 1284.43 156 122 99
-725.761 12.154 1212.37 242 237 228
-75.7082 60.783 875.833 220 216 199
-448.498 67.2393 1505.79 13 16 11
-592.092 -5.86813 1210.89 217 211 172
-617.071 155.826 1288.48 220 213 207
73.247 186.636 919.438 246 255 242
-461.676 183.501 1414.81 88 63 50
-440.944 199.46 1368.95 110 76 64
-973.459 45.4533 1385.52 194 200 186
-426.679 320.765 1360.53 163 163 158
-107.729 -57.4839 1028.02 233 226 230
-82.3207 271.604 1030.09 241 244 217
-41.1005 9.96211 874.794 138 131 130
37.447 -109.86 1096.37 95 100 88
-702.753 300.068 1509.15 238 238 219
-666.463 153.708 1552.53 240 231 205
15.857 128.362 909.399 255 252 239
-531.201 427.818 1375.33 169 172 168
-645.372 109.522 1268.28 241 227 214
-964.265 38.271 1372.03 86 90 75
-70.226 230.695 1046.49 140 124 110
-25.6696 104.079 923.218 254 242 218
38.5924 80.8751 870.513 245 250 235
-641.045 122.413 1272.28 255 242 228
-629.889 151.854 1281.92 235 232 220
-573.417 -23.8857 1140.37 255 254 230
2595.74 148.838 -3559.59 97 107 87
-554.403 239.584 1405.91 117 96 74
-86.9806 148.603 999.176 255 252 235
-64.5675 221 1031.56 255 243 225
-436.747 150.777 1715 180 180 168
-81.0418 59.2185 934.4 244 234 217
-144.862 184.387 1054.91 238 227 224
-80.385 258.852 991.373 228 232 199
-47.0678 -31.9643 904.681 87 66 74
-169.243 138.431 1082.43 239 236 216
-419.243 203.506 1731.32 61 57 46
-58.1944 59.4905 904.457 242 237 232
-456.889 231.633 1243.04 94 87 86
-458.031 329.42 1259.91 254 254 243
-120.242 -44.7685 1025.99 190 184 175
-792.021 -20.013 1384.39 255 249 232
-134.354 -8.78032 946.833 149 150 134
39.9602 45.2802 888.039 255 255 235
-57.6314 62.3431 963.917 110 110 105
23.9518 4.42442 861.021 120 141 117
101.8 310.909 996.763 251 255 247
-444.13 208.215 1188.78 146 130 127
-66.8656 177.719 989.574 230 216 209
52.9781 61.2629 852.743 136 140 125
-57.5256 211.918 1006.75 225 205 184
-8.10178 309.509 1046.35 255 255 235
-500.301 121.557 1201.25 99 80 60
-126.902 182.606 1016.71 154 150 151
-619.748 -19.9034 1253.86 246 237 215
55.47 409.089 1171.23 131 142 143
88.8226 -124.524 1059.45 146 184 172
-95.1984 -55.0727 1030.66 152 135 113
-550.717 328.116 1484.41 168 123 102
-105.304 144.54 980.429 254 244 216
-46.3392 -4.16778 928.447 139 181 174
85.7922 260.514 956.686 223 233 224
-409.296 -16.452 1352.65 57 50 47
-365.681 248.427 1570.54 106 85 55
-93.7256 145.431 970.14 158 133 113
-476.834 248.911 1526.28 171 146 135
-28.1023 53.2767 877.599 84 80 70
-508.952 148.125 1200.63 202 172 160
114.039 264.686 918.113 112 108 98
-155.541 122.084 1024.88 231 227 224
-466.658 325.926 1375.36 187 168 161
131.261 124.041 960.338 144 136 125
52.1954 181.156 702.313 252 255 252
-993.78 -59.4597 1302.65 150 154 139
-147.35 161.064 1030.81 136 123 108
-54.9775 183.288 955.272 236 224 217
-51.5009 207.563 958.407 127 111 104
133.963 151.172 998.207 62 40 18
-75.9707 62.0428 925.173 154 143 124
-662.484 152.315 1341 144 134 121
5.39775 93.1274 801.952 230 222 203
142.77 135.76 1021.05 152 134 127
-817.231 332.567 1713.86 233 233 218
-488.411 284.38 1302.1 219 192 173
-57.8819 -19.5188 893.193 120 153 135
160.667 181.133 1042.68 180 152 144
-363.344 118.588 1390.74 67 57 47
-105.289 139.67 980.22 250 238 209
-76.5653 109.714 961.828 241 233 222
83.3572 250.917 956.178 240 245 241
-44.0522 55.5044 930.715 174 168 163
-757.338 78.5874 1351.49 177 163 150
-108.26 286.477 1150.24 140 142 137
-538.296 116.745 1228.67 255 252 224
-139.148 205.365 1075.84 237 233 235
-539.991 64.415 1160.16 183 162 135
-144.271 -13.8699 981.96 33 32 19
-22.8547 -70.9945 1003.03 153 115 100
-68.1271 109.283 1023.25 128 99 78
-60.184 -109.346 1052.02 211 193 182
-66.9164 96.593 927.787 245 232 208
-668.971 105.692 1316.95 236 225 207
-553.028 23.9119 1283.55 122 119 108
-84.3401 93.8132 912.254 255 255 242
-529.547 38.7648 1123.81 240 210 174
196.843 469.575 1131.49 176 203 228
88.0823 169.049 928.849 186 196 178
-25.0706 226.982 1023.96 247 235 223
-676.341 95.5835 1312.15 249 237 222
104.283 404.735 1054.27 118 138 158
-365.017 228.607 1567.44 53 41 32
-77.2564 216.075 1003.04 230 207 200
-627.668 158.432 1283.93 163 164 159
-62.8181 192.661 1016.52 255 235 224
-148.218 -20.1511 994.788 51 44 32
62.8761 187.552 940.982 231 247 230
-677.244 -1.34085 1398.12 159 127 83
-635.685 -2.82044 1190.95 168 133 112
34.7046 28.5042 822.004 247 252 221
-679.048 325.322 1447.89 237 245 234
-506.039 -70.6733 1306.78 123 103 85
-111.29 157.692 994.561 238 238 226
92.7935 281.421 984.154 231 242 236
94.1434 191.857 922.579 240 245 222
128.934 156.006 997.617 183 160 127
-51.7812 241.674 1095.78 176 165 143
-523.259 197.931 1335.66 140 123 113
86.9663 -126.93 1103.45 119 148 139
901.561 46.8487 -1271.18 122 131 113
121.828 146.945 872.227 62 25 14
-93.8988 -13.186 919.642 151 144 135
195.862 486.736 1162.4 182 213 235
67.6787 -83.8064 979.036 39 102 92
-49.8102 178.342 992.913 241 228 228
100.778 395.778 1161.99 220 219 193
32.2553 24.406 791.094 239 253 228
82.942 170.963 880.104 238 248 235
15.4432 12.0595 1027.13 242 255 239
-538.919 214.209 1387.36 123 106 88
-573.707 85.0515 1229.97 194 159 132
114.949 144.455 924.502 149 117 95
-447.726 29.9494 1212.2 57 38 25
-161.909 127.171 1025.17 255 251 252
-153.614 181.172 1098.08 251 251 250
-159.598 78.8149 1037.06 223 219 215
-25.1565 190.599 1012.27 186 153 143
-90.6114 183.18 1040.86 253 242 245
-435.188 100.32 1031.58 124 106 82
5.09275 74.0757 866.991 86 82 72
-682.576 72.0402 1452.09 164 152 133
-20.247 236.627 1000.92 172 174 155
-392.273 140.72 1423.51 109 89 78
64.8377 193.889 960.634 218 229 226
35.0511 106.845 880.532 222 230 228
-95.7199 135.079 981.971 249 234 208
72.7737 127.298 886.503 224 224 207
48.4365 106.344 922.436 246 255 234
-819.601 73.6564 1484.23 230 194 186
-485.275 -82.1716 1523.27 76 74 66
119.887 448.781 1081.88 145 169 170
-740.875 65.5714 1358.24 215 208 209
-535.949 363.572 1494.9 176 145 110
-42.4645 176.122 994.224 178 171 162
-462.508 327.533 1389.3 207 191 185
-548.715 29.896 1154.16 253 226 185
-773.446 56.4951 1341.51 243 225 209
-51.8469 135.041 972.998 254 246 223
40.2647 -70.9919 952.08 71 89 84
-130.353 -2.90199 890.312 149 153 135
77.5855 343.033 1000.58 127 125 93
121.71 449.915 1167.76 132 157 164
62.063 168.039 838.899 243 255 237
-88.1261 227.292 1042.76 168 154 137
38.7158 115.463 871.799 217 236 223
-90.6037 178.004 1040.69 249 243 247
29.0991 37.9875 788.138 248 252 235
-567.184 122.628 1306.32 137 111 83
-167.204 124.778 1036.56 157 151 145
78.7338 168.792 927.5 245 255 243
-37.1853 -61.2183 928.076 238 204 174
-67.6761 264.702 1047.96 158 146 124
4.34644 78.0465 875.164 195 190 175
-774.433 30.8604 1305.59 253 249 253
-9.92281 -25.7533 969.232 251 252 253
-727.552 25.6063 1284.43 255 244 245
-159.313 113.934 967.646 236 233 231
-34.1374 -68.5287 1041.81 172 120 113
-139.823 195.115 1056.62 253 251 252
40.0382 89.188 888.642 252 250 243
