-45.6395 26.968 1136.43 255 249 234
-6.58324 -15.7448 1194.06 227 211 194
-67.1064 417.79 1109.81 248 234 211
158.937 -54.4624 1661.9 236 227 214
-43.241 25.1374 1177.2 109 87 67
-67.4822 456.595 1212.52 129 119 97
-83.2611 310.618 1075.26 69 35 31
106.977 415.608 1843.99 27 54 56
-72.9357 418.32 1156.57 245 237 229
149.55 -19.7066 1669.74 236 225 217
123.131 28.2691 1588.56 205 176 162
135.471 43.9862 1593.83 227 205 203
156.325 75.9347 1603.55 255 244 239
138.136 336.708 1836.07 43 78 84
-61.6923 449.127 1112.88 220 205 198
-56.8277 309.492 1080.81 92 73 68
-53.8417 490.348 1207.4 58 49 37
-157.898 92.399 1023.43 140 128 121
-39.8755 463.602 1138.28 115 119 113
-141.398 132.397 1011.38 160 139 131
-45.486 451.71 1136.64 99 83 74
-56.8328 38.008 1134.72 251 244 223
110.675 0.781522 1581.16 190 170 160
164.282 252.414 1726.08 130 125 111
-47.9063 400.526 1206.1 126 108 96
-91.9644 98.3 1020.19 181 125 104
-5.30744 478.089 1249.51 89 89 85
-62.687 498.624 1150.86 203 201 192
-90.7 87.6134 999.274 222 156 132
-84.7778 220.659 1027.86 113 70 61
27.8884 335.85 1338.48 97 92 92
-27.2892 31.855 1165.03 198 127 102
-21.5204 34.6742 1166.45 124 43 13
-61.0508 305.714 999.432 143 117 114
-89.6656 166.765 1024.25 149 143 131
-50.0467 300.324 1152.86 227 189 176
-51.0326 323.531 1129.64 152 129 132
131.286 295.337 1715.32 211 236 255
-42.6848 423.45 1136.08 229 214 203
-67.1519 448.64 1111.65 37 21 14
-51.0691 402.863 1133.43 113 113 107
-72.4959 392.149 1107.04 236 227 221
-83.8039 259.532 922.724 140 131 123
35.5916 -102.973 1399.59 82 84 80
152.65 339.467 1941.94 214 239 249
-122.038 190.989 1018.54 68 19 9
-9.99546 6.08313 1166.38 178 155 130
143.117 286.83 1727.72 87 113 111
-42.6846 389.284 1134.6 230 228 218
-9.10655 9.45546 1218.91 255 248 220
-93.0067 93.5698 1037.37 136 60 33
-231.275 109.44 1030.38 73 27 15
-93.5642 232.258 1069.26 220 171 155
-47.604 394.942 1088.69 188 182 174
-16.742 206.262 1201.86 181 152 139
144.166 75.8417 1601.15 77 60 53
-24.2873 215.521 1179.5 236 217 207
-67.4211 298.083 1078.06 173 142 121
-92.0415 123.513 1021.53 143 58 35
151.431 36.166 1595.54 145 120 107
-109.552 158.529 1019.63 116 60 46
-20.3852 186.586 1128.27 253 237 221
-271.421 12.1782 1155.67 37 36 28
-51.2306 15.7085 1134.65 187 168 152
-94.7825 189.779 967.943 86 61 56
-61.7587 454.802 1068.24 97 76 51
-78.6532 243.712 1090.82 255 248 226
159.511 318.815 1890.92 136 164 179
-201.735 84.7291 1036.33 164 133 117
-22.7031 193.976 1199.36 169 142 121
-87.9968 105.091 1063.39 132 147 126
-30.112 199.161 1221.65 248 235 221
-108.674 297.503 1115.57 204 183 178
-94.1598 67.6396 995.186 159 133 105
-93.9121 129.897 1052.54 238 188 166
-64.541 175.254 1029.83 153 99 71
-60.8379 330.582 1080.32 239 224 219
-99.762 207.253 1024.07 185 152 140
-71.8265 237.359 991.464 255 234 217
-65.7038 328.53 1109.08 173 144 141
-67.0508 384.178 1107.74 194 191 188
132.613 69.1543 1584.86 128 109 101
-70.0966 322.109 1078.63 252 248 249
-141.223 345.608 1110.5 144 119 109
-136.698 170.168 1014.32 148 118 106
-43.9914 277.039 1122.09 112 90 81
-73.3039 174.137 917.557 224 224 228
-321.454 75.3851 1025.46 61 44 31
-34.5099 -8.18531 1157.43 101 84 73
-208.624 269.606 1039.29 89 29 13
-85.4511 121.962 1040.06 239 210 191
139.195 393.515 1847.33 136 163 161
-97.1689 171.587 1022.92 222 216 215
-59.3955 109.006 1027.38 250 242 233
-32.9921 363.257 1186.75 220 221 198
-39.8577 135.578 1120.97 250 236 232
-73.8484 190.488 1009.56 162 127 113
-114.397 329.814 1219.38 134 127 118
-59.2967 134.804 1071.15 253 227 208
-126.967 190.785 1017.45 127 112 95
-104.681 -110.479 1587.95 73 70 54
-148.52 346.934 1127.95 99 76 72
-39.8857 332.689 1132.48 137 115 108
153.799 18.5429 1769.83 101 61 42
-38.8465 294.699 1181.46 255 250 241
-60.2417 120.152 1105.82 241 239 235
-215.412 261.548 1063.65 74 27 12
86.5679 101.382 1885.08 124 100 81
5.96972 -84.8264 1621.53 24 21 3
-30.1451 175.979 1114.14 190 156 135
28.7839 302.569 1398.65 82 80 76
-82.5986 34.1644 1060.21 157 148 136
75.5768 99.9156 1779.49 35 18 3
-5.13302 -104.421 1446.3 152 153 138
-136.106 293.631 1085.76 51 28 15
