290.925 -48.2347 937.647 251 254 253
-537.661 374.641 1118.48 57 50 41
-314.732 445.437 1202.22 187 190 188
225.088 59.6225 1007.36 255 246 237
234.771 15.236 1006.31 251 249 229
330.497 135.014 972.251 75 88 84
239.66 159.153 1096.85 233 203 198
-376.928 154.384 1060.38 255 245 227
-522.716 416.206 1128.79 215 214 201
285.047 -1.13919 958.384 235 229 221
404.596 206.995 1058.9 214 216 214
-78.4514 -313.19 1220.23 254 254 247
-373.663 186.168 1087.34 250 231 209
386.627 208.872 1018.31 216 223 221
-513.369 628.535 1347.79 18 24 19
-309.94 339.748 1090.61 231 221 197
-530.762 385.606 1121.85 211 202 188
-501.866 54.5778 970.419 244 238 220
137.367 -100.889 1068.08 255 245 242
328.64 468.224 1408.44 49 87 90
277.549 185.277 1116.21 240 223 214
135.802 54.1826 980.413 254 254 246
244.035 220.553 1056.37 92 89 89
389.69 226.702 1019.67 251 254 237
-496.443 180.285 1073.82 255 240 228
373.524 392.684 1204.79 64 82 78
-532.114 56.4346 1004.61 203 194 187
-480.651 606.791 1287.57 65 75 67
362.131 3.86641 1000.58 251 255 243
163.061 167.885 1028.68 229 207 204
278.329 -57.4931 920.716 211 204 221
129.083 151.912 1022.84 252 245 247
-495.541 200.317 1047.97 244 225 208
-333.62 240.337 1274.05 207 184 168
-472.994 69.3427 980.608 71 54 39
266.298 -90.4243 1003.64 254 251 252
198.21 49.929 988.037 255 251 239
375.609 168.996 997.293 247 255 237
318.707 -51.7644 1011.37 227 238 232
-275.187 354.815 1218.49 63 60 47
239.203 -87.0688 964.463 70 88 81
200.902 57.4843 953.804 255 247 232
202.47 175.847 1075.46 228 228 222
314.47 -68.9203 938.583 102 111 95
280.794 -53.0443 921.257 56 48 64
199.731 185.257 1140.83 255 246 238
-338.506 349.742 1162.89 253 247 237
-478.806 243.498 1057.37 254 252 248
258.406 -84.2598 945.461 241 253 250
172.431 81.8988 1024.51 242 226 205
-386.194 238.535 1168.32 144 117 98
275.806 -64.1509 920.009 140 138 144
238.304 178.047 1000.95 104 75 73
-539.325 365.082 1116.17 246 242 223
-402.568 169.259 1143.2 108 94 70
-377.083 360.749 1120.72 200 182 172
208.098 139.158 978.48 197 173 155
-569.469 372.066 1104.91 116 100 102
107.866 34.4261 908.484 231 229 229
285.521 72.897 1055.12 255 254 231
395.506 508.332 1349.99 221 241 255
-366.898 459.055 1203.21 216 219 217
-350.279 252.643 1099.44 244 229 206
-596.071 439.407 1271.88 208 195 181
316.566 6.32594 898.173 248 254 249
105.96 95.0811 992.736 144 111 110
369.807 12.7964 1020.27 244 255 236
-467.321 165.692 1033.14 109 76 58
121.709 41.1477 910.643 254 242 242
-392.071 126.183 1074.22 226 213 189
205.06 15.3791 951.533 202 183 162
-455.969 66.9681 985.95 129 55 46
229.643 56.5799 1061.63 137 112 98
96.4593 -39.2747 949.498 181 159 133
206.963 112.163 1071.66 231 213 189
-326.475 297.556 1081.98 124 81 55
-381.442 138.513 1058.17 220 196 177
166.4 129.756 1067.38 251 254 250
108.459 100.687 1089.31 139 112 114
148.494 245.734 1086.97 213 216 196
-353.535 120.602 1196.16 155 141 138
81.7694 -82.8975 1105.48 47 44 33
208.266 197.296 1077.64 116 96 79
356.284 -4.65628 1017.94 216 227 227
236.204 131.087 1035.95 235 216 210
-458.064 239.778 1064.11 224 220 206
-511.965 219.806 1094.09 233 214 196
-456.098 74.169 986.261 106 30 14
120.649 139.47 1061.21 112 105 99
319.862 -5.74049 928.019 202 225 215
-534.03 403.116 1122.96 197 192 187
-324.124 303.161 1083.19 234 206 178
-434.028 193.289 968.353 248 232 201
-352.276 112.02 1139.43 50 29 15
324.933 181.197 897.038 213 225 217
71.7056 -29.8543 947.866 39 40 43
348.528 -10.5783 962.889 248 255 244
307.694 -103.208 1088.92 215 240 231
-305.115 408.575 1259.56 193 192 189
428.746 256.844 1152.33 247 253 243
136.058 176.858 1051 201 193 204
341 -15.2382 961.929 238 249 236
97.6816 91.052 1014.47 255 250 242
349.71 24.9231 965.894 241 255 235
-372.496 286.347 1035.41 114 84 89
105.392 -110.114 1054.97 175 186 192
250.144 373.828 1139.63 184 216 246
-551.362 446.027 1177.97 142 142 134
214.955 -68.3153 962.861 173 150 135
128.845 137.057 997.715 219 209 222
391.395 184.728 1071.97 218 234 214
134.382 -67.126 972.263 220 166 144
245.294 -18.7223 968.94 199 177 170
270.298 266.468 1089.98 237 243 225
-349.527 148.597 1300.06 145 146 142
354.707 31.4023 981.543 239 253 243
111.092 -128.8 1155.38 118 113 103
400.355 339.459 1204.68 216 235 228
-537.992 336.912 1113.1 144 135 133
-472.125 235.371 1085.81 233 212 199
167.657 15.9385 982.003 173 169 158
355.714 4.68006 945.341 235 243 215
99.4312 -131.354 1153.32 214 194 179
296.102 -105.947 1022.9 175 181 181
340.559 470.296 1204.54 98 141 157
-402.977 323.959 1140.66 102 81 81
-376.805 48.7991 942.509 255 252 213
-565.578 308.082 1082.91 165 159 157
-484.393 172.176 1003.32 231 200 175
264.845 79.112 962.195 252 244 212
-372.353 372.445 1123.42 185 166 151
102.399 104.024 1031.73 255 245 242
-476.767 232.324 1084.07 88 78 62
180.778 120.504 1101.19 230 182 157
-499.707 201.645 1096.88 162 132 115
-326.361 326.129 1111.86 249 240 208
89.3882 -26.0462 887.844 143 139 137
66.4612 -22.1309 965.999 91 90 87
203.221 171.083 1054.77 146 123 124
-376.758 275.636 1032.83 115 87 81
-379.567 107.641 1011.13 251 248 217
-482.078 200.194 1067.94 249 228 207
310.537 34.3556 963.361 193 189 173
-346.534 357.406 1051.39 154 120 109
-367.125 257.693 993.133 191 165 161
-407.886 206.784 1030.88 152 127 116
-372.372 123.491 1210.64 165 150 140
-391.221 132.185 1008.93 245 222 195
107.857 93.091 997.259 241 224 221
258.257 -174.487 1318.73 38 31 31
165.079 246.258 1089.55 43 41 28
253.616 -12.2737 921.878 55 44 41
144.469 -48.4304 974.756 171 168 158
368.114 109.502 990.806 212 229 204
231.38 -3.25375 953.051 234 224 208
343.276 509.841 1385.32 52 85 109
208.118 -115.886 1095.48 115 88 85
-345.805 235.111 923.555 151 132 109
-377.661 309.53 1067.15 214 203 202
219.4 178.323 1051.63 251 242 221
282.165 472.22 1250.73 95 123 125
218.224 164.099 1035.84 107 79 75
-570.683 170.53 989.14 133 116 114
173.825 161.616 1044.74 211 169 172
130.015 -45.2535 906.733 182 183 167
177.25 145.021 1133.83 254 249 255
-395.377 293.234 1088.55 231 212 208
323.941 461.859 1256.29 99 138 152
-542.543 446.67 1161.33 88 91 76
-383.69 39.748 945.328 255 247 214
404.841 163.622 1072.39 231 246 242
-542.753 339.141 1111.56 239 237 236
-494.195 142.052 997.72 158 151 154
-440.79 210.491 993.612 239 223 207
-535.072 432.355 1135 246 244 239
-548.039 61.0628 1021.4 216 211 206
360.547 113.081 1009.36 202 215 205
-525.671 392.786 1161.68 218 216 192
117.44 -52.6202 987.729 163 164 145
-562.737 404.257 1122.13 121 123 107
353.39 48.2147 1003.66 216 226 199
-466.74 74.0077 982.858 193 184 177
-586.592 279.064 1071.85 100 81 62
180.612 -114.598 1073.1 193 171 161
-471.425 247.721 1037.09 135 131 118
301.191 451.191 1252.53 95 130 143
359.541 -40.2932 978.801 248 252 223
-399.665 141.129 1028.94 177 125 106
-623.864 149.85 994.667 233 231 224
127.948 38.7621 1015.52 193 173 172
-400.786 166.431 1053.91 254 253 230
-67.5331 -583.35 2330.98 172 174 158
182.109 259.607 1100.96 221 224 191
123.148 71.2847 1016.99 243 238 241
264.125 -73.0405 933.708 163 206 197
102.481 53.6786 1012.84 241 232 229
-642 134.607 1016.67 255 245 242
222.872 192.181 1100.41 255 250 239
-457.695 451.78 1156.09 108 108 102
117.817 68.6414 1032.55 255 243 246
344.768 321.857 1144.33 53 47 41
-319.833 299.731 1242.11 61 45 35
320.467 62.856 1001.95 245 243 224
-580.484 368.475 1138.82 253 238 229
-550.469 338.512 1057.72 173 154 155
-564.447 312.533 1049.22 159 153 151
-338.197 222.129 1027.33 253 251 224
-307.802 359.751 1092.9 254 230 196
226.71 6.13172 953.233 217 212 191
352.159 10.1369 1004.04 201 205 190
-482.835 162.578 1027.87 239 216 194
276.484 -68.067 1037.63 142 145 143
-381.143 104.561 1004.83 230 220 182
342.233 31.4079 980.707 227 229 229
363.303 147.313 976.036 119 113 118
-568.925 320.812 1137.86 144 136 133
229.498 7.1081 1066.18 199 175 158
157.942 -104.932 1029.02 98 30 9
287.586 422.765 1331.46 193 210 241
178.255 -1.17373 947.397 194 162 146
416.314 7.30193 1083.95 239 244 223
272.593 -10.2952 956.551 44 41 43
-321.319 129.984 1150.46 137 125 116
-413.264 114.222 1001.47 230 218 210
257.971 -10.3722 955.17 136 120 121
295.692 -52.095 944.194 216 229 220
363.187 340.881 1200.51 230 233 231
105.742 130.029 999.893 238 221 206
361.892 493.511 1294.3 92 148 176
-528.22 330.331 1074.54 140 125 118
325.668 268.297 1142.03 244 246 215
356.032 -14.6326 1017.29 197 215 205
165.65 -42.5138 943.208 155 143 124
388.024 131.874 1030.78 208 237 211
-427.68 469.852 1226.07 90 87 61
-337.312 242.377 1244.51 166 133 115
263.888 81.2267 1096.08 201 184 166
228.712 -56.7123 931.037 151 140 129
-408.852 145.905 1026.34 255 236 230
-356.348 32.0065 1223.1 74 74 70
-523.983 444.976 1131.85 96 91 81
81.5563 -112.226 1103.61 198 189 169
182.894 -46.0421 996.663 165 162 142
-597.144 299.463 1084.45 141 140 137
206.234 48.267 937.392 240 216 199
-575.95 331.57 1171.07 161 154 152
289.68 -71.1341 920.561 43 49 42
245.631 192.624 1126.68 134 87 81
249.305 69.3267 1023.09 125 103 83
-424.141 234.095 1001.17 167 163 159
-387.943 103.22 935.109 247 243 229
295.086 -78.1727 953.084 52 87 93
396.488 88.5789 1026.53 248 254 241
173.84 103.097 988.466 246 243 214
235.688 365.674 1162.62 98 142 161
207.233 -154.078 1185.85 152 156 151
160.464 -92.8615 1049.55 172 160 135
307.618 96.5295 1058.9 233 232 198
91.4868 68.3213 975.016 224 214 217
398.814 225.957 1080.57 194 218 203
195.241 -70.4496 996.817 8 10 4
414.828 237.347 1120.95 189 208 194
193.743 45.8536 1084.77 232 193 159
113.709 -84.5108 1058.52 161 161 167
383.252 50.3353 1044.52 231 244 228
-343.49 59.0409 1138.05 152 133 119
221.634 -5.61407 951.878 130 116 99
-331.106 124.221 1263.03 39 39 35
291.411 -115.071 1004.56 152 161 161
-295.96 262.222 1087.88 157 133 119
-665.9 272.836 1160.96 233 220 193
-557.12 303.728 1101.36 212 161 143
290.085 393.724 1221.88 128 164 164
212.512 135.825 1033.31 219 188 181
100.629 -118.82 1127.15 171 155 139
-544.435 159.309 981.069 252 232 216
290.438 44.4566 1054.11 182 164 143
415.453 139.616 1050.6 242 235 210
198.817 114.666 1070.76 251 217 199
369.072 27.2394 1041.27 250 254 243
-548.38 325.479 1180.52 180 175 177
249.546 130.874 962.708 248 225 205
123.716 181.819 1064.29 199 202 195
249.047 69.9691 1050.28 226 192 174
-416.937 155.413 1048.34 250 233 234
-673.57 208.129 1182.95 228 186 167
273.648 144.413 1041.29 171 141 121
-576.507 256.337 1037.49 232 215 189
-559.585 132.027 973.326 242 231 223
263.998 -72.9553 887.83 184 212 206
253.282 133.247 996.724 229 183 152
111.016 49.247 976.696 190 187 189
-360.426 437.537 1319.58 215 164 128
96.9165 48.8997 970.06 176 164 166
202.76 4.93552 966.201 78 48 33
-334.739 261.116 1246.64 107 73 54
-518.854 280.168 1016.17 250 233 230
332.325 395.056 1274.68 137 170 180
383.659 93.4478 1026.24 241 254 240
-402.412 163.866 1029.6 253 239 223
-393.376 169.346 1032.8 253 239 218
179.13 83.6029 1014.25 210 194 168
-679.023 270.328 1187.74 151 129 98
211.591 7.7346 1003.11 196 168 150
295.577 -142.447 1084.65 48 100 96
-509.423 150.579 1067.26 195 177 165
313.577 77.7032 1018.39 232 229 193
-564.124 315.526 1154.64 240 208 204
147.693 -89.7949 1028.54 200 148 120
-338.008 310.387 1279.54 124 98 93
120.129 181.681 1048.63 111 97 83
207.1 -159.789 1185.21 72 83 80
354.633 433.362 1183.6 231 245 246
-576.995 175.402 996.46 192 182 182
114.972 53.1882 1004.31 249 246 249
265.367 411.87 1245.06 148 184 185
-387.745 30.4366 943.724 200 192 164
-499.335 350.149 1078.05 203 220 189
376.68 175.548 1034.47 166 177 154
236.298 253.453 1177.78 168 169 161
-415.376 162.839 1099.21 241 187 153
-600.33 197.312 1020.51 170 169 168
201.788 122.944 1031.09 135 110 88
301.328 359.658 1170.99 124 164 178
230.83 252.353 1160.09 254 253 252
300.969 -80.8057 988.253 167 201 201
-401.275 98.8478 982.72 198 171 135
431.444 538.801 1430.09 129 140 141
-554.242 337.702 1106.92 252 237 237
