-33.4736 285.123 895.207 220 216 205
-24.6566 323.235 887.504 229 220 216
-91.9757 241.49 862.043 178 177 168
-15.9763 16.9366 1049.11 252 254 249
-117.293 172.82 800.677 206 203 196
-449.17 54.4868 1456.42 243 232 219
-356.548 87.2283 1405.83 234 230 217
-446.759 90.6726 1460.54 63 41 37
-21.0857 270.704 917.497 230 191 182
-535.904 7.60997 1417.52 204 189 180
-437.949 4.82466 1659.61 215 247 243
-293.561 242.899 1104.89 45 34 33
4.74776 286.549 910.162 250 241 237
51.0876 362.955 979.511 187 175 176
-317.192 118.153 1028.29 244 237 221
-140.068 33.9734 1140.22 41 3 2
-576.714 448.235 1702.27 102 102 101
-373.842 99.7237 1488.28 45 44 36
-177.369 74.2512 1018.17 150 139 123
-36.7884 13.2158 1060.58 228 228 219
-2.62058 25.2516 972.376 231 255 252
-249.752 123.753 911.504 235 240 230
-82.3584 244.434 861.212 44 43 43
-143.774 106.739 901.018 42 57 64
-135.919 33.158 1069.54 248 254 254
116.93 167.54 983.287 116 89 77
-466.433 -27.8511 1442.27 189 180 163
-550.709 58.1936 1458.97 204 192 176
-8.20818 24.8763 1113.12 56 64 66
-114.39 208.564 820.676 195 201 196
-433.238 101.736 1518.28 208 200 198
-540.077 -14.1872 1507.45 198 175 165
-468.756 -5.82733 1282.5 158 141 129
-57.4822 27.3958 1103.38 254 254 245
-421.107 91.4966 1341.52 203 182 180
-2.46094 276.449 932.966 198 193 177
-297.117 285.855 1174.65 100 96 84
-57.6568 41.8826 1057.32 244 247 247
-497.814 416.444 1545.62 247 247 237
-224.1 133.68 917.906 254 244 228
-477.556 59.8286 1267.01 204 198 192
-104.422 213.116 822.587 175 162 155
-568.998 160.312 1454.76 141 119 99
-157.81 73.5193 930.377 62 64 64
-0.0858283 354.8 970.571 168 152 161
41.2477 352.579 977.627 186 189 184
-551.051 7.5819 1411.19 182 150 129
-239.13 123.919 880.917 70 62 58
-276.431 260.774 1071.9 112 115 103
-546.161 267.217 1576.91 42 21 18
-383.11 77.489 1520.32 176 138 124
-302.515 112.452 1011.46 206 195 176
-510.712 402.999 1538.04 118 117 112
-543.096 275.446 1579.45 173 146 135
-345.532 132.482 1139.99 55 57 39
9.46418 285.166 970.344 236 197 183
-310.16 262.566 1180.76 221 203 201
109.005 234.969 1022.88 57 64 61
-182.357 112.877 905.542 101 111 107
-108.414 210.885 821.815 61 48 44
-545.019 552.3 1759.09 136 141 138
-531.375 198.749 1409.46 149 126 108
-340.181 318.16 1293.92 230 235 230
-146.18 144.833 762.881 227 231 222
-147.184 26.3197 1114.02 250 251 247
-559.587 184.481 1520.53 81 71 52
119.618 271.192 1026 149 148 143
-134.164 21.7512 1092.81 196 192 204
-344.667 74.4022 1534.24 96 76 62
84.0796 256.325 993.077 157 137 129
-401.468 80.4278 1616.69 171 140 130
-224.515 106.863 883.693 169 151 147
-141.027 19.9342 1067.83 225 227 225
-566.225 167.745 1456.97 251 248 239
-514.605 343.409 1526.43 243 231 221
-47.8162 35.2121 1016.21 108 116 112
-104.408 204.944 822.402 48 47 45
-593.966 152.605 1502.19 255 248 222
-174.898 141.412 807.574 216 228 220
-569.111 266.972 1634.75 169 143 117
129.717 361.594 1041.58 103 55 44
-140.553 23.7613 1191.18 197 183 192
-638.85 247.513 1723.75 204 191 174
-584.919 105.42 1440.25 218 208 176
-153.99 43.5707 1065.93 224 204 208
-182.065 64.4316 1107.57 69 67 74
100.332 206.604 950.835 177 141 126
-78.7833 174.96 854.253 62 80 83
-404.647 70.7765 1296.01 42 22 19
-51.699 6.84748 1086.11 244 210 191
8.40381 269.573 891.322 238 234 226
-196.921 136.425 870.619 211 227 227
-205.153 131.853 868.8 182 206 201
-94.1378 14.7875 1077.77 91 30 19
-553.041 2.4063 1440.67 161 145 129
-528.801 353.442 1661.75 152 155 155
90.5704 244.635 957.049 158 142 128
-285.819 354.044 1224.79 223 224 223
-207.524 66.29 1071.31 242 236 230
128.53 479.043 1104.41 181 169 152
-29.0297 312.149 896.573 213 170 156
-402.81 47.1296 1508.92 177 156 143
-202.662 146.877 936.941 208 227 227
82.2677 362.763 1009.2 229 164 152
58.4506 265.401 942.721 85 105 91
-627.779 529.794 1912.86 193 195 191
-110.799 195.235 776.019 63 70 59
-371.052 90.68 1586.53 138 127 118
83.2932 384.849 1077.85 245 179 167
33.7367 283.987 974.482 42 12 0
-273.914 313.161 1147.28 227 225 225
-375.048 38.4955 1614.46 97 98 90
59.2798 314.242 990.017 16 47 51
-94.3307 168.594 823.343 74 88 81
-86.0627 15.7044 1050.89 145 96 80
-142.359 17.9422 1107.16 89 91 87
19.2188 317.205 972.966 196 157 145
-151.447 111.402 868.253 117 150 142
-575.987 560.138 1849.35 180 181 174
-582.215 112.698 1442.46 123 96 86
-578.133 14.439 1400.33 173 170 156
-393.954 92.1637 1351.36 125 117 115
-152.96 165.057 820.997 228 228 216
-517.771 273.135 1512.94 39 24 15
76.0358 308.569 1086.01 49 68 55
87.527 222.923 981.145 144 131 116
-401.908 45.8591 1740.25 80 75 70
-430.386 79.8333 1604.6 104 96 90
-555.819 105.715 1548.21 152 152 157
-618.357 123.939 1536.92 191 168 157
-116.291 266.321 849.677 70 62 47
-566.799 85.3776 1375.59 210 190 175
-439.077 195.403 1244.86 60 47 40
-70.5191 302.789 837.263 191 171 151
-169.932 58.8786 992.091 143 143 136
-603.297 63.0789 1488.04 177 151 133
-334.075 302.468 1295.14 167 160 144
-38.5748 346.794 981.858 60 32 22
-8.39117 248.69 839.591 167 156 146
85.0799 227.725 980.944 75 47 29
-474.564 501.262 1578.22 152 160 156
-488.102 336.569 1448.52 202 186 170
-129.02 48.8425 1095.7 207 191 178
-528.487 124.537 1323.34 215 199 185
-430.635 276.414 1323.56 70 79 79
81.808 225.99 963.221 173 143 118
60.0983 272.666 960.003 171 203 195
-493.166 306.579 1442.04 209 194 181
-46.7105 308.833 893.43 210 186 170
-119.842 283.118 895.993 133 127 110
-165.332 101.769 896.399 89 122 115
-364.765 23.5216 1433.65 114 108 105
-137.186 202.417 824.521 83 76 67
-487.572 395.874 1517.97 253 248 228
-60.1585 196.161 897.964 119 116 114
96.22 271.213 954.933 17 40 45
-93.1524 343.283 863.705 199 202 186
-387.593 20.0525 1573.15 53 43 34
-120.701 67.2553 989.639 164 119 106
-114.33 180.047 820.018 144 146 141
87.6063 237.607 981.707 109 71 45
-543.926 235.414 1475.47 255 249 228
-103.124 296.518 843.097 205 204 196
156.173 323.255 1038.43 142 100 85
178.768 370.584 1140.31 164 129 123
-66.2934 337.657 860.136 177 159 145
-542.039 69.2747 1465.05 223 216 211
-186.785 73.9981 998.015 232 183 171
-42.3028 306.879 894.159 82 46 24
28.0354 283.338 960.123 87 43 24
-267.079 349.6 1169.57 116 117 115
-481.303 407.454 1623.64 241 239 230
32.2952 187.182 935.993 114 53 27
190.848 415.427 1095.04 111 95 81
-109.203 60.1017 953.959 242 220 220
-90.3342 183.058 824.402 90 117 118
-359.681 14.8409 1450.25 52 50 52
-195.173 321.197 989.242 255 252 248
67.1878 417.455 1122.45 133 133 130
-102.368 182.575 822.244 96 93 91
-483.063 135.535 1273.61 170 156 139
17.7706 218.253 902.079 118 36 13
87.645 244.953 981.979 181 153 128
-580.363 179.463 1558.14 230 200 187
-197.298 66.6725 1056.8 247 239 234
-134.607 73.857 949.287 231 219 213
-100.349 172.451 822.363 179 177 168
-367.296 21.3118 1525.21 144 137 125
-196.803 108.42 870.005 49 78 68
26.2516 215.775 970.895 129 78 54
-86.0342 336.731 836.878 195 193 180
-111.655 62.6693 1014.06 158 132 133
-434.772 362.101 1443.27 215 214 203
-120.089 48.8797 920.529 163 119 96
-534.8 85.2396 1459.77 133 129 120
-76.3266 46.1015 981.648 162 112 102
-435.274 263.965 1256.81 145 124 105
-108.376 190.482 821.349 72 70 65
-563.602 488.704 1937.19 133 127 120
-400.435 230.006 1208.91 199 197 189
-107.228 6.79384 1074.62 211 213 204
-135.982 49.0228 1070.22 238 199 177
-78.9711 -9.54877 1127.38 116 109 97
-82.6592 370.283 866.913 233 232 225
25.4121 235.864 936.485 113 63 33
66.9582 321.97 934.477 145 145 143
-161.166 53.5773 1081.75 114 78 67
-316.924 28.2403 1326.86 200 196 186
119.669 278.882 1026.31 114 115 114
-75.8417 364.929 839.908 160 161 149
-125.473 59.86 988.405 163 147 138
-136.164 205.494 816.58 215 211 200
-167.656 342.253 959.24 238 237 231
112.357 290.791 1010.46 111 105 107
-322.91 104.742 1072.53 146 151 137
-399.534 36.9387 1473.54 169 142 124
-101.888 315.99 853.414 245 248 239
92.8538 323.572 1035.36 48 69 73
-145.918 69.69 1007.04 185 156 147
-88.2318 55.6234 957.895 237 214 197
97.9423 319.055 985.949 70 73 71
-138.665 77.2923 1009 164 151 141
