-637.213 382.9 1455.67 64 63 60
-27.4985 36.4461 1092.49 255 247 245
-401.157 410.569 1411.7 193 191 186
134.207 -37.4501 899.377 215 223 216
39.089 -158.157 1219.97 9 9 7
300.052 252.86 1107.88 255 255 251
-509.426 125.179 1311.87 241 224 196
102.299 -75.105 901.592 65 54 53
210.195 110.813 1007.49 84 88 80
-435.318 299.38 1356.73 120 87 74
130.124 -38.6585 876.945 221 228 224
-628.471 391.402 1460.62 254 254 251
272.576 236.116 1007.49 251 250 246
122.633 -49.0317 890.04 225 227 223
250.162 85.4879 960.849 249 252 244
188.245 -50.1896 854.074 212 211 195
-477.898 336.032 1505.63 255 246 234
257.437 90.1525 985.799 186 186 175
35.1835 4.92372 962.749 255 250 227
-311.652 308.587 1443.58 19 20 8
127.692 -48.402 919.611 63 66 55
-603.253 490.997 1585.38 82 85 81
42.8233 175.126 1093.34 255 236 234
186.99 7.17428 939.873 187 206 203
257.466 95.0411 985.889 252 252 246
130.031 -47.2208 876.459 79 88 79
-454.113 120.531 1172.3 117 83 61
38.6826 -122.69 1116.07 255 246 243
23.6813 -150.886 1246.51 239 233 229
-44.0286 -37.272 927.694 177 147 130
202.628 413.398 1262.63 112 125 123
197.94 20.5284 918.339 248 255 239
24.9719 21.528 1015.36 203 199 187
-455.244 217.581 1294.81 255 250 235
229.179 15.1532 936.69 148 142 126
-616.028 344.922 1396.56 250 250 242
-444.967 98.6543 1120.25 240 221 195
-420.777 327.99 1364.46 231 204 207
45.9839 -97.9383 1028.78 232 190 181
-608.963 355.064 1375.72 250 249 241
115.354 -79.5834 928.126 250 254 250
71.2868 -40.8555 856.17 247 241 242
268.129 139.683 984.699 221 222 206
-31.4493 33.8923 979.63 255 252 252
148.852 -94.573 953.63 177 191 182
59.3186 57.2193 1006.25 255 254 241
11.9281 -130.396 1066.86 192 184 175
170.932 25.5273 856.544 232 238 230
-631.008 13.3558 1220.41 255 254 236
-410.174 61.8784 1293.38 69 48 37
32.0845 244.081 1118.21 253 255 236
-558.533 204.242 1252.02 133 124 122
-580.625 187.17 1559.52 101 76 53
-544.977 195.671 1256.6 253 245 229
-405.555 69.4203 1345.47 171 151 151
1.80564 58.7734 1036.12 255 252 243
284.841 231.752 1061.35 250 252 252
-530.37 -1.83538 1192.04 135 116 88
249.722 68.143 984.451 251 255 239
-492.124 494.797 1407.68 60 63 55
-604.263 342.676 1401.47 232 233 218
230.383 18.8073 945.405 196 191 168
-2.36097 -50.3756 982.463 187 191 173
180.044 -58.6067 826.106 221 231 222
34.3251 -38.3914 917.572 67 65 59
-434.39 29.2418 1331.07 182 158 148
-0.185802 -84.0696 1013.09 77 70 63
31.6449 -147.001 1113.1 207 200 188
-457.826 491.029 1354.01 35 44 38
-512.495 2.51204 1159.67 255 251 220
-483.742 220.301 1371.36 170 132 113
195.779 -24.8639 883.588 94 90 77
-557.019 210.706 1301.7 156 157 154
-378.408 56.6863 1396.4 188 177 162
-395.006 194.707 1441.8 194 161 143
281.787 171.117 1005.11 231 235 220
-603.855 31.6557 1233.17 110 64 56
-487.206 13.4132 1118.77 224 209 163
-456.1 73.2182 1455.85 185 166 157
88.5984 -7.77641 916.111 218 212 201
-379.97 253.571 1453.38 54 28 23
56.5331 175.604 1095.81 245 227 216
200.019 7.2212 950.323 174 182 178
-398.783 216.168 1442.69 73 40 26
-355.603 39.0309 1380.07 42 29 21
197.719 6.94272 917.473 241 252 241
-386.226 224.252 1393.53 216 184 164
39.8199 -107.15 1070.38 108 66 52
28.3935 4.58861 895.774 253 231 211
208.858 -6.34668 887.287 194 202 194
147.126 -100.837 1003.9 174 196 194
293.294 261.027 1063.18 252 253 248
-12.2019 65.9604 972.331 252 251 248
-554.89 147.007 1225.46 255 244 228
-438.084 288.951 1354.77 226 198 178
328.932 376.86 1251.09 71 98 99
-729.715 63.536 1254.51 250 244 232
33.54 -92.1171 993.036 209 147 141
-523.183 72.6888 1268.14 255 246 224
-449.333 84.6424 1117.14 202 181 157
3.99697 -95.2585 1026.72 218 213 214
260.061 445.843 1161.32 221 250 252
184.853 1.31028 897.07 251 255 247
268.39 149.545 985.551 201 199 176
-642.979 630.941 1833.04 177 180 171
-20.2149 88.4184 1010.14 250 239 245
97.1004 -6.77769 936.838 197 190 179
-388.105 242.036 1367.9 170 148 140
-527.99 95.0182 1297 255 249 221
-17.5671 75.7214 1022.97 151 114 108
-577.249 167.338 1288.81 255 241 216
85.3752 189.41 1074.34 255 251 243
-608.153 575.739 1709.95 168 171 164
-407.259 88.9792 1475.64 154 146 136
-389.837 52.7744 1478.84 35 18 6
-517.646 117.984 1082.37 253 243 221
208.696 11.8962 866.592 47 38 22
-450.128 108.625 1138.02 253 244 212
-427.381 174.057 1174.61 162 131 110
77.9901 -118.076 1123.17 187 179 170
80.0607 22.3509 949.62 215 209 192
-348.982 82.7364 1317.53 138 140 136
-362.454 63.8347 1439.29 13 15 11
-591.097 609.914 1722.31 68 69 64
72.1992 70.0206 1048.78 236 222 205
57.2117 318.735 1103.48 97 91 79
-19.1696 87.8605 1113.16 208 182 171
-549.726 605.597 1658.07 124 135 131
-618.578 312.233 1366.5 243 220 202
303.045 425.119 1270.28 116 135 137
-25.2058 98.3502 1009.6 252 248 241
-573.937 302.699 1270.06 149 145 133
-18.4497 131.22 1053.67 252 235 225
-5.93248 45.9082 1033.95 255 249 244
30.5231 42.9739 964.086 250 218 197
61.0161 110.114 1025.05 252 241 221
-35.6563 93.0743 1110.05 253 255 251
-514.723 371.314 1636.38 169 140 129
-361.535 220.403 1328.98 78 49 28
-1.07924 -82.6964 1026.67 202 194 182
81.5249 200.953 1101.72 127 109 88
220.689 369.732 1178.96 193 231 239
-22.7111 93.3697 1009.87 178 151 145
-568.08 184.754 1245.52 251 248 232
34.1754 116.543 1062.73 247 229 212
-31.4814 94.4693 1049.71 153 140 127
97.6681 161.059 1088.62 255 251 237
-642.92 410.072 1482.49 231 227 221
-640.921 13.349 1216.2 215 214 204
-469.135 291.233 1298.35 151 132 112
-750.158 35.4728 1241.8 229 229 212
80.0548 62.2756 1049.54 173 154 133
31.7264 131.464 1088.63 255 252 239
-348.457 178.941 1456.77 133 107 89
-18.7761 -53.4072 931.348 65 71 52
132.876 11.3295 910.257 195 186 169
-349.599 49.4349 1383.58 82 86 71
233.647 133.618 1011.34 230 238 223
252.871 131.318 949.998 241 248 226
-545.269 271.568 1581.04 173 138 113
90.0229 -61.451 983.271 168 150 146
-323.725 54.2586 1258.02 162 162 152
231.026 307.103 1147.76 101 97 79
282.861 514.589 1310.62 237 255 255
299.754 223.195 1022.15 233 224 217
-574.918 134.016 1216.19 159 131 110
136.792 211.683 1144.3 151 125 111
128.989 180.534 1038.36 253 230 222
352.719 452.232 1203.97 100 125 127
-448.37 88.8549 1068.92 255 249 233
225.366 -4.42898 944.21 107 120 107
-417.95 338.485 1366.41 153 99 79
68.2763 -111.372 1035.59 211 169 146
256.822 191.242 987.669 227 235 220
186.41 29.605 917.607 215 231 223
-394.39 196.968 1432.42 88 55 37
-715.326 25.0607 1184.27 254 249 232
-69.3446 -26.7497 958.683 48 44 34
249.194 133.889 1013.26 243 250 241
-584.458 118.51 1210.82 252 232 218
245.151 101.024 939.741 198 209 191
-8.74142 157.399 1082.65 229 223 217
79.1149 55.2667 972.25 242 220 200
75.5233 174.389 1055.65 74 57 54
72.7139 -66.1213 980.512 212 187 171
-486.538 -4.30304 1084.4 221 206 185
-458.204 46.2351 1221.03 152 142 133
-22.8435 75.9568 993.373 137 97 91
-572.92 149.247 1218.46 254 247 238
-474.824 213.987 1221.45 120 110 91
-6.66371 -46.6911 910.978 156 162 143
-439.35 194.926 1232.48 226 210 194
-421.107 230.989 1693.76 142 99 78
-490.406 -32.2256 1303.67 127 110 94
190.382 -34.6805 883.684 221 228 188
142.88 -6.03504 993.398 87 81 62
-39.2552 52.9516 1046.45 189 183 184
-376.679 275.444 1079.96 181 175 151
101.647 189.899 1077.06 178 149 139
-438.593 326.008 1484.19 155 144 135
-10.8369 137.619 1116.2 168 139 132
113.512 1.31225 953.511 209 204 199
8.09495 159.303 1105.07 227 223 224
-579.415 311.8 1328.8 222 224 205
61.1264 191.248 1070.3 219 194 181
187.902 27.0594 873.608 234 249 238
179.392 -117.812 992.103 195 195 198
-525.243 -5.21151 1336.96 132 120 103
-36.6698 68.504 1047.62 254 245 245
42.1423 54.0559 992.701 201 190 172
-667.446 368.585 1463.24 150 155 135
-679.3 118.409 1283.22 253 250 229
312.821 419.25 1271.58 137 171 172
-434.849 -27.9743 1134.41 147 128 109
239.108 378.53 1202.57 153 182 176
266.94 205.84 1005.34 203 211 201
-689.969 127.532 1279.38 176 165 157
266.179 206.281 1065.07 239 243 232
-371.96 66.7879 1357.12 75 63 58
168.016 -132.206 1028.51 56 81 72
94.6765 189.539 1121.98 252 223 199
-480.436 85.519 1147.27 177 153 132
-636.034 262.618 1352.71 187 178 175
-564.741 134.429 1220.34 150 117 96
-520.058 329.85 1454.36 230 220 201
-465.122 -14.6887 1182.48 127 113 92
-623.309 291.06 1361.86 151 136 135
-568.899 35.9929 1179.92 233 146 136
-557.268 175.962 1249 247 235 217
-464.101 386.122 1535.89 231 199 169
-431.731 388.232 1170.71 117 119 114
-608.626 242.241 1305.87 251 222 217
229.712 68.2418 1061.78 244 253 249
-362.142 315.045 960.687 119 124 119
259.631 119.4 976.688 190 194 169
24.8172 -103.408 1114.41 178 118 104
-62.2802 -44.9727 996.951 31 33 29
356.507 458.949 1254.9 87 121 147
152.165 -51.7091 878.661 149 151 138
-645.304 282.125 1351.16 253 252 254
-466.06 37.0793 1217.73 136 126 109
-732.413 120.119 1299.52 250 249 248
163.509 -44.6091 825.256 107 126 103
289.91 379.801 1192.28 120 158 160
256.016 342.736 1162.66 212 213 203
-491.047 101.134 1181.77 200 153 120
-354.798 226.192 1719.06 94 81 73
-368.106 374.718 1418.99 169 171 169
288.721 337.811 1140.72 241 255 247
-616.049 301.337 1319.03 148 112 103
7.76705 131.817 1058.58 196 184 168
7.7824 139.626 1058.9 208 205 208
-615.593 271.309 1307.11 163 160 164
102.58 138.796 1032.83 221 198 194
-753.923 143.686 1406.74 244 230 224
184.266 80.1929 1014.63 255 253 237
191.349 47.7752 919.227 229 231 225
-542.618 195.206 1305.89 187 184 167
-559.791 351.256 1270.01 253 251 247
250.858 113.45 947.116 203 207 188
75.6627 23.1856 985.013 76 71 56
-483.598 -13.5782 1208.4 133 120 102
-397.431 392.254 1378.13 209 199 181
264.696 367.686 1241.41 169 171 165
229.321 212.304 878.069 207 209 206
43.4524 -60.8466 918.391 94 100 95
-395.771 -27.812 1416.89 59 64 63
-653.784 206.176 1279.56 251 244 217
-361.394 181.92 1542.14 71 46 31
100.186 87.6775 1014.39 253 253 229
61.131 252.343 1118.41 202 204 176
93.9642 74.6848 975.528 237 220 198
-551.98 56.3407 1187.79 156 125 100
233.314 471.729 1330.64 143 164 165
257.637 151.824 1025.46 248 255 232
-413.597 76.5626 1678.85 43 43 37
-533.817 182.524 1308.12 163 148 127
52.0798 49.2213 994.204 157 144 100
271.001 232.554 1019.03 248 249 246
-610.776 281.75 1310.8 252 243 242
106.715 80.7682 1054.93 230 213 189
-391.183 42.0652 1426.45 114 93 77
-0.649619 168.491 1084.85 247 245 241
-367.753 40.6056 1320.96 100 84 73
223.427 352.291 1132.7 149 176 178
108.746 124.478 885.328 210 159 136
-431.818 5.37987 1458.92 118 107 97
224.534 62.982 981.285 238 247 238
45.3604 56.7557 955.988 133 122 109
163.37 47.5857 915.972 175 164 151
-386.566 372.353 1337.3 185 165 130
-20.8962 54.4443 1076.23 253 251 252
9.75472 -37.7413 791.29 129 108 106
162.739 86.7656 963.595 249 248 213
103.85 253.524 1231.18 255 253 219
363.034 473.603 1260.86 148 174 174
143.122 208.48 1112.34 172 147 130
170.595 51.0783 984.562 216 204 186
-555.122 77.1827 1218.9 202 195 184
78.4485 139.135 1084.95 234 220 208
-353.12 11.315 1307.89 35 27 21
-32.6365 -35.8395 949.727 40 40 26
-765.421 86.3395 1321.45 244 236 230
112.579 138.465 1059.54 159 142 133
-626.746 242.846 1354.33 187 155 143
385.346 561.306 1348.25 115 128 134
-554.91 437.719 1497.65 149 151 148
49.5748 113.082 1040.78 197 193 164
-285.368 299.751 1378.56 223 219 207
48.8078 116.378 1047.78 195 149 128
-22.7452 48.5157 1008.13 183 177 178
180.203 57.4909 989.818 186 177 164
134.188 146.33 1022.88 252 244 230
-631.004 18.4391 1154 236 223 207
156.036 104.899 1011.19 255 255 225
117.491 183.805 1020.97 245 236 221
217.797 158.558 911.705 231 245 222
342.514 507.474 1219.27 137 161 169
-659.247 266.215 1363.27 204 190 191
158.808 169.948 1157.92 149 129 113
39.3145 84.3516 1004.58 216 198 172
10.251 206.739 1089.12 124 110 103
261.589 501.042 1370.58 164 190 188
-576.165 191.46 1312.96 251 242 229
313.129 463.516 1272.65 151 171 175
155.184 284.284 1135.42 203 203 186
-812.262 139.096 1447.3 235 233 233
-449.345 -6.74761 1061.3 47 30 17
50.625 -65.909 977.203 26 30 25
-460.694 351.612 1352.49 212 191 168
-411.788 71.772 1272.18 119 112 103
-447.678 41.6052 1101.84 131 96 88
267.982 319.716 1137.06 202 199 185
219.898 140.591 981.987 240 248 233
281.676 316.74 1167.19 175 178 152
95.2462 -121.707 1080.33 153 113 103
67.9381 242.642 1057.92 228 231 193
-458.36 -55.0315 1313.88 104 92 69
-449.686 202.006 1144.65 192 179 158
96.6944 -73.3561 997.608 117 176 164
-637.764 330.972 1448.37 215 210 196
80.1131 137.543 1014.14 244 226 213
136.729 254.152 1030.47 200 198 177
283.495 355.159 1327.47 235 235 230
