289.096 -46.396 1687.23 255 249 236
-4.04783 55.789 1319.32 152 40 7
-44.8811 40.8879 1189.65 255 248 240
294.576 59.8919 1810.23 255 249 242
-68.3416 542.405 1243.06 203 204 200
59.1802 189.122 1387.86 67 56 43
-79.5801 447.572 1179.85 244 216 202
-66.6813 375.731 1021.02 90 96 97
-108.398 226.207 1111.24 102 72 61
-47.0982 30.6991 1245.47 237 220 207
-46.5212 460.172 1216.75 233 222 219
-86.4314 450.03 1234.33 249 255 255
-78.6985 351.339 1124.38 144 128 135
309.925 455.26 2004.03 222 248 253
-54.1581 439.974 1148.69 70 63 57
282.053 339.302 1763.34 86 114 109
-46.8726 437.789 1242.82 247 249 247
-67.8749 341.776 1177.15 127 123 121
-88.1845 420.145 1176.61 234 211 207
-49.6104 381.223 1130.47 212 188 170
-67.7241 417.288 1129.69 238 227 216
279.629 -11.0202 1692.43 221 205 202
-51.9714 467.344 1185.49 141 136 136
-68.2581 457.868 1238.99 185 182 167
-16.397 175.006 1232.06 146 109 82
-15.5037 214.366 1180.82 162 135 137
286.988 109.905 1720.27 145 128 135
-59.2288 471.132 1245.68 119 108 102
-61.6947 49.8446 1159.21 150 128 106
-140.761 247.22 1178.38 208 186 166
-108.724 115.79 1059.39 99 73 59
-10.8568 209.746 1295.03 255 247 223
-62.0297 324.454 1232.59 115 79 70
-49.9291 421.866 1241.25 124 108 99
-102.513 232.105 1045.74 96 63 53
-16.4056 168.85 1231.57 255 244 221
-40.7392 363.224 1239.89 128 100 103
-121.391 117.826 1101.89 226 170 147
244.148 12.0007 1692.86 157 132 121
266.167 80.7238 1535.52 249 234 231
-68.2541 52.5023 1185.23 253 248 228
-81.7813 130.156 1160.65 106 107 90
176.417 -114.851 1654.33 95 93 88
168.384 -102.699 1655.49 62 65 55
-195.86 547.662 1303.31 48 48 47
306.681 272.725 1755.54 112 113 106
-46.5354 491.165 1218.97 139 97 80
-1.13743 236.194 1299.45 164 129 126
-45.6129 399.094 1145.6 255 250 240
-13.2113 258.795 1239.06 159 150 148
-94.5481 214.321 1085.95 110 81 64
316.992 92.9451 1721.37 255 249 248
-83.7556 273.706 1142.61 226 209 177
-118.903 91.8175 1055.84 255 244 225
325.262 -131.668 2009.69 159 146 136
262.513 41.4777 1702.08 221 196 173
-46.4882 398.418 1212.04 232 218 197
286.159 162.141 1628.15 209 205 182
154.109 276.411 1931.8 193 197 176
-121.872 225.523 1108.13 47 27 23
-74.3958 504.209 1239.9 216 202 195
-0.948513 234.431 1239.93 253 243 234
-224.48 97.9104 1123.56 176 148 131
-111.079 220.505 1110.32 238 240 240
259.653 325.43 1857.52 94 114 121
-16.6761 241.128 1204.8 240 226 214
-13.2688 491.175 1226.41 222 231 230
-118.948 102.319 1056.41 232 159 133
269.761 -6.58272 1584.95 252 249 252
387.623 49.9821 1940.64 121 106 102
338.399 79.2544 2012.37 148 135 128
-107.263 158.709 1039.77 246 251 248
306.48 433.324 1887.54 108 128 135
-102.321 345.268 1169.47 81 80 81
-28.6356 174.182 1195.7 252 237 220
-135.043 180.703 1102.5 66 32 19
-65.5007 442.729 1023.78 122 107 90
-169.276 153.763 1114.89 162 134 122
-82.6914 193.601 1090.28 173 145 128
180.851 -98.1383 1759.26 159 173 155
-8.1856 213.734 1360.24 134 95 65
-118.97 107.601 1056.69 133 56 28
-56.2952 348.479 1180.1 158 139 139
-16.3884 181.175 1232.54 255 241 221
355.603 -173.52 1752.78 188 209 211
-4.36183 547.719 1375.4 122 131 131
-22.4914 180.974 1231.21 147 117 95
2.15825 243.922 1241.29 182 174 173
231.062 374.726 1970.86 76 103 104
-112.453 175.382 1129.06 113 46 31
-29.9843 399.296 1271.61 247 247 238
-59.809 331.381 1146.41 255 253 249
-91.8614 135.212 1109.58 134 136 135
-81.7338 112.807 1159.43 122 121 116
314.878 -46.4948 1690.84 226 202 184
323.843 -29.351 1800.07 243 243 240
315.155 39.3953 1623.03 255 243 239
-85.2959 414.457 1176.99 156 132 135
353.785 200.944 1963.29 171 173 152
-94.315 535.728 1210.84 152 148 137
-102.936 42.885 1201.88 96 61 48
-41.5193 484.612 1167.08 150 158 156
-116.313 181.465 1106.87 150 94 63
357.713 49.8432 1935.17 252 246 230
355.71 -165.328 1668.97 197 206 196
330.18 93.0385 1723.33 188 171 166
-110.963 273.04 1006.18 180 157 147
260.754 -111.761 1668.68 61 47 31
-87.3206 252.482 1028.28 235 234 216
-80.4699 503.607 1238.47 76 41 30
-101.627 260.581 1134.92 255 247 228
281.572 -21.4622 1691.57 164 142 135
-91.1499 31.0091 1203.63 175 179 187
-103.354 133.612 1096.88 174 147 136
-89.5192 274.728 1118.14 119 111 88
276.038 -114.261 1587.6 88 77 61
278.977 18.1394 1533.47 205 179 154
372.479 116.776 2059.29 146 136 135
290.645 348.369 1671.62 148 176 178
-22.4731 199.492 1232.64 199 155 134
-11.258 1.88382 1275.23 120 91 78
228.023 402.887 2104.96 83 100 95
311.994 21.0176 1920.61 228 191 187
-89.416 232.707 1115.87 241 226 201
-61.3567 309.791 1150.52 250 227 215
-75.8567 295.187 1122.23 175 138 111
288.69 340.74 1865.94 137 165 180
-231.101 288.845 1187.54 83 31 11
-85.2679 475.051 1208.82 154 141 122
-4.65052 263.014 1209.43 179 153 130
-67.9522 406.962 1180.54 176 185 186
11.7653 223.646 1301.21 168 157 142
-119.103 139.275 1058.39 150 45 30
174.653 313.052 1670.41 112 119 147
-64.745 168.48 1167.11 252 219 206
-78.3907 185.743 1115.59 189 159 147
-15.45 2.98958 1193.51 83 73 81
-84.3965 320.071 1126.77 130 123 99
260.396 101.024 1714.11 159 148 136
316.396 -37.0708 1467.16 172 175 153
-87.7896 343.395 1197.92 253 253 238
264.065 -34.9042 1245.8 249 254 231
-45.5388 356.807 1400 255 249 242
-123.959 78.5763 1053.99 234 210 185
-127.832 161.054 1198.1 226 197 177
438.828 -202.624 2130.68 93 108 96
195.084 -158.601 1858.89 201 168 150
-85.9922 249.618 1027.04 248 238 214
-113.454 140.067 1105.05 226 150 131
202.863 7.16498 1327.05 185 165 155
248.248 33.2676 1531.32 177 150 138
401.59 399.51 2293.54 151 174 172
363.967 -139.616 2017.09 84 73 60
-8.88537 522.375 1307.99 103 113 113
237.62 63.1588 1615.46 118 97 87
431.94 187.995 1954.71 241 242 216
20.6052 431.88 1168.86 181 177 177
-24.2942 20.5231 1192.77 125 91 62
195.483 415.379 1839.61 40 62 56
-84.6089 47.0338 1129.22 161 132 114
20.6149 115.08 1207.44 200 143 119
-46.846 344.097 1237.32 196 190 181
-32.8946 149.17 1110.32 205 182 163
-38.4193 273.043 1122.36 248 237 227
379.766 -53.8583 1972.49 233 211 191
-73.3034 156.512 1164.38 252 215 196
20.2586 120.824 1235.25 254 237 206
-116.336 186.985 1107.19 174 164 147
-122.305 186.463 1080.82 132 124 119
347.216 -4.79761 1704.42 251 249 221
-211.747 276.023 1080.84 88 34 9
128.798 -161.205 1810.58 201 195 195
-122.106 206.036 1200.87 239 233 231
-88.5939 335.425 1155.4 238 238 235
-168.14 153.676 1094.96 45 13 5
-49.9109 378.158 1238.72 146 113 107
-109.017 197.983 1063.71 151 150 149
