56.8507 1.0941 1154.88 244 223 197
349.193 -89.3221 1793.71 255 248 227
313.889 22.3153 1706.35 234 226 224
-4.98476 60.4219 973.453 223 150 124
32.6532 418.777 1103.42 245 240 225
50.497 407.142 1206.7 234 228 224
42.296 370.133 1105.33 55 49 48
-5.78084 65.4279 942.759 55 2 1
-13.7904 174.186 1020.52 34 29 26
331.807 225.904 1751.59 74 68 50
7.71327 192.428 1134.46 188 155 148
2.72553 116.055 987.464 255 210 201
-2.985 267.728 1046.48 182 142 131
24.3197 384.776 1100.61 230 213 193
80.9787 8.51482 1183.52 175 105 89
21.2959 274.786 1094.99 119 105 98
-1.45647 99.6052 1057.15 162 81 54
306.636 309.717 1863.71 110 129 138
104.183 451.441 1277.26 63 63 59
4.812 205.916 1088.17 98 77 77
56.3014 -10.6133 1206.8 200 186 167
22.7786 151.289 1045.38 105 64 38
-8.12307 47.3535 1052.13 157 134 111
22.4326 384.406 1148.07 216 220 212
49.0227 442.072 1184.7 92 79 67
322.79 26.5939 1708.54 79 74 69
316.856 -7.14614 1700.29 247 226 206
86.9407 217.734 1245.96 162 150 140
27.0771 387.381 1128.07 70 53 43
82.4274 179.754 1198.24 122 117 98
77.8864 -36.5467 1231.68 93 72 60
-4.97171 70.0353 973.803 155 99 73
41.8837 420.61 1119.49 187 172 157
-54.75 109.143 1045.82 160 138 128
375.871 9.05691 1930.64 120 105 93
305.917 381.978 1846.81 124 150 152
332.532 47.84 1714.56 251 238 228
-0.557257 171.447 1042.2 156 161 152
25.8238 295.427 1053.05 171 152 145
-64.4242 93.0576 1025.65 144 138 123
101.517 -28.1335 1197.28 253 249 228
37.0988 441.533 1262.6 156 142 123
44.9978 273.66 1146.65 255 241 222
290.6 62.2261 1705.95 175 171 167
82.3343 167.8 1197.3 148 102 90
28.4381 473.49 1182.67 104 90 69
-3.5856 55.1671 1077.24 255 243 224
185.711 -139.097 1492.56 79 83 81
44.3397 13.029 1206.16 228 203 181
317.963 400.513 1994.2 201 234 239
33.9267 390.944 1150.62 201 184 185
341.261 -58.4117 1798.18 218 203 191
109.855 -26.6211 1273.07 235 220 203
320.207 64.7923 1716.48 123 114 114
20.1489 227.763 1071.16 120 97 88
146.45 313.504 1359.53 116 112 108
313.718 367.513 1877.01 105 138 140
51.8325 412.24 1183.14 213 203 195
91.6341 198.054 1201.3 176 165 160
374.984 58.5759 1915.1 248 235 239
31.5436 87.5949 1135.33 149 128 118
-8.14208 292.593 1182.68 153 149 143
283.447 -30.0873 1690.47 158 131 123
35.8105 489.615 1238.32 89 71 48
4.31475 283.652 1072.08 56 5 5
42.33 378.222 1085.45 109 99 91
25.498 229.655 1125.25 224 198 172
62.5248 326.398 1152.86 237 228 206
19.5492 375.603 1147.08 208 202 192
349.71 -199.571 1660.58 184 204 200
8.51686 87.0795 1203.81 250 242 221
33.7073 321.965 1147.13 255 248 234
446.179 68.6693 2225.18 109 90 85
280.383 -6.94777 1609.53 180 131 115
302.445 2.89855 1591.13 144 112 95
-3.09156 202.494 1043.35 215 173 150
0.202697 109.605 1117.63 245 189 169
362.765 -40.7969 1698.77 255 254 224
236.377 314.95 1572.19 60 92 92
51.0398 343.036 1151.57 242 216 198
-2.27926 130.896 1027.04 112 38 14
340.899 -67.2356 1796.46 128 111 102
394.492 6.98818 1995.48 251 227 214
40.5695 129.671 1271.14 254 237 218
21.5154 406.97 1128.26 181 177 163
23.4732 410.147 1083.64 81 66 57
-22.1766 140.334 1079.1 101 59 44
59.1429 313.937 1203.14 191 164 160
17.9461 71.4024 1082.29 253 249 229
21.4971 351.574 1098.66 160 136 140
315.316 261.183 1755.78 138 169 170
18.4219 186.596 1062.68 234 208 174
-48.236 317.205 1130.23 120 98 91
-49.0568 285.116 1020.75 62 47 36
78.7934 197.198 1223.83 243 231 223
18.2163 94.5793 1059.03 169 179 173
302.441 323.928 1866 133 157 153
-24.809 191.339 1081.56 196 160 142
141.059 203.881 1343.94 66 77 73
61.8046 115.982 1181.17 220 190 176
65.4409 393.338 1308.74 105 96 76
205.334 -190.385 1747.49 197 168 160
41.8515 400.993 1119.12 236 238 235
167.954 -121.049 1651.77 39 43 24
31.4156 60.8165 1083.99 255 254 231
89.0708 157.123 1252.34 194 152 122
28.7868 79.5762 1084.8 171 157 150
59.8682 462.144 1298.24 95 76 66
322.417 45.4283 1781.42 60 33 33
358.259 -160.703 1880.79 54 40 38
-21.0155 219.921 1224.32 166 138 120
69.4708 55.2229 1185.65 255 240 219
89.1266 163.376 1252.9 245 224 199
276.878 275.571 1851.25 84 103 105
115.397 -14.7012 1338.23 200 159 137
41.2285 80.4664 1133.01 255 242 233
32.9181 73.8659 1042.6 255 246 234
111.736 208.09 1260.92 177 160 157
251.548 258.593 1724.56 76 95 110
28.1577 421.54 1122.09 252 248 246
