20.7008 41.5202 1285.73 80 11 0
-13.341 445.772 1222.72 231 227 226
-7.24088 458.728 1225.01 237 232 214
-16.1646 32.4024 1135.3 255 232 206
-0.300856 491.787 1198.52 91 92 88
207.223 241.683 1791.78 221 223 202
27.1494 47.9395 1287.7 133 43 8
-23.0445 302.124 1137.42 254 238 225
-45.2768 468.149 1237.96 244 231 209
-7.1904 454.665 1313.75 244 246 233
348.177 235.035 1652.23 42 35 24
-17.0372 22.0891 1182.02 207 191 193
76.4702 497.71 1364.83 87 91 86
360.581 85.6173 1725.76 245 240 240
-31.4136 503.449 1160.66 235 234 219
24.8805 255.158 1306.47 255 253 231
-55.643 271.022 1148.45 251 235 213
-53.0855 119.961 1090.61 144 124 112
10.4166 508.643 1254.68 149 154 155
-34.3986 436.778 1186.1 230 218 213
4.17936 511.303 1253.6 247 248 245
284.093 15.3963 1530.49 245 199 167
23.2939 258.772 1268.94 146 115 112
359.273 45.0979 1809.05 249 242 239
-54.8398 194.815 1110.45 126 70 51
-49.1229 398.814 1101.71 242 229 226
338.957 4.57317 1705.2 131 85 70
-31.5447 477.693 1297.01 154 143 132
333.892 61.8616 1608.06 241 222 216
35.8851 243.267 1269.83 124 112 105
383.36 9.91439 1910.16 255 224 205
-94.8294 222.96 1113.92 69 46 42
354.718 -34.9232 1788.29 205 187 183
-89.5521 131.329 1022.09 135 42 27
-69.874 333.95 1150.15 139 120 118
129.259 215.899 1693.88 106 100 83
-82.1454 224.399 1107.56 132 100 80
23.6502 196.503 1241.98 238 203 178
-99.7134 118.29 1125.67 238 166 132
299.446 -120.958 1559.02 141 138 129
346.967 43.774 1674.95 255 248 249
-34.4845 496.738 1221.66 204 188 177
-95.1804 87.4726 1011.2 240 205 177
4.82199 399.958 1279.12 203 197 181
17.3667 171.506 1238.7 161 112 94
14.8888 192.713 1298.95 135 102 80
2.69804 177.962 1262.83 254 227 216
-4.57408 295.084 1212.15 122 97 90
21.5296 232.087 1303.81 142 115 99
24.9844 210.716 1272.24 195 165 137
20.5997 208.832 1242.31 121 86 54
45.4916 209.696 1247.45 127 114 101
237.36 -141.715 1744.93 72 76 71
376.509 23.9909 1739.24 252 233 221
303.683 -8.00887 1697.55 160 135 129
399.376 -1.83926 1818.01 254 239 211
-68.4211 390.624 1295.35 113 108 113
274.337 32.0305 1431.35 214 195 188
316.606 85.3203 1719.48 169 157 151
-54.9663 523.306 1189.44 143 141 129
311.833 -40.6761 1580.21 102 83 78
322.524 72.9752 1549.31 244 240 240
-82.9295 238.543 1221.6 254 243 252
-46.795 351.176 1127.93 184 168 169
31.0153 238.93 1410.42 236 222 204
15.3199 184.717 1266.37 244 227 212
-67.794 284.239 1173.63 254 249 237
449.338 24.0138 1909.15 131 126 123
-8.30179 500.443 1249.73 137 110 87
-95.6123 108.198 1080.64 218 134 104
-64.5329 126.849 1069.23 136 135 135
50.0033 612.849 1291.06 81 95 84
-67.5083 27.0999 1208.47 186 187 188
-99.6569 107.082 1124.7 251 189 157
279.897 332.34 1827.61 73 106 96
-14.5284 486.983 1246.94 160 156 146
11.6987 205.62 1299.4 231 207 183
23.2439 3.09913 848.375 254 249 224
439.305 19.2782 1906.8 255 250 239
-49.4929 424.213 1213 192 184 184
-31.4408 389.186 1153.66 140 130 123
-151.196 531.95 1273.5 142 141 134
364.962 68.7202 1629.31 213 194 178
22.1127 183.464 1206.84 185 137 111
-80.0611 239.702 1154.79 250 232 200
-79.0437 133.061 1098.71 144 122 112
335.083 -147.577 652.655 107 108 104
353.673 64.8432 1632.99 255 248 246
35.7608 224.059 1267.67 200 175 153
-81.1892 217.994 1116.66 255 247 254
-52.4197 402.604 1131.41 203 187 178
294.38 -23.0522 1449.99 254 248 249
30.742 261.3 1229.35 166 158 149
380.655 -56.9372 1785.74 215 207 196
-11.6162 404.019 1238.38 220 197 182
-81.6874 112.003 1041.81 146 135 117
-34.5521 48.3235 1181.29 215 191 172
332.58 -142.394 651.047 95 101 96
67.7612 241.283 1275.92 186 157 150
351.566 49.058 1714.31 137 119 121
18.2882 156.089 1262.53 178 126 102
-87.266 165.866 1100.36 255 248 242
338.533 -3.84547 1703.28 179 138 130
354.787 -24.8492 1700.71 138 116 109
6.7779 388.235 1190.08 226 222 200
-150.223 166.141 1199.89 170 143 135
428.963 76.4358 1922.5 148 126 116
316.144 209.082 1496.22 111 99 79
-48.2074 295.454 1127.97 162 109 79
-55.2925 43.3646 1128.54 102 68 47
72.8048 516.478 1383.47 89 89 89
-81.1948 165.191 1086.85 134 64 53
-61.2258 236.129 1144.36 248 237 207
469.915 164.411 1951.91 253 252 225
-53.2741 191.026 1170.97 179 146 147
-46.1327 478.367 1187.42 46 27 14
411.66 -198.598 1751.68 180 195 198
177.996 -97.516 1618.75 49 49 26
-70.0537 115.572 1112.92 153 167 155
28.0115 191.502 1269.87 185 148 119
-190.797 270.98 1130.66 49 15 3
-8.78315 312.582 1227.94 215 160 151
-37.969 42.7033 1045.4 187 160 136
276.893 -24.9516 1356.85 224 216 216
-66.2138 349.856 1170.06 187 189 189
166.028 -174.112 1725.04 188 185 175
17.8681 158.911 1212.86 253 240 214
-34.5142 373.034 1212.34 253 240 231
330.03 -143.295 655.192 93 101 95
-22.7498 346.838 1179.41 184 169 169
-214.301 118.425 1064.57 58 12 1
-34.6813 393.112 1267.24 176 141 138
78.2753 299.425 1458.9 255 248 244
14.1148 -2.89698 1279.85 81 58 43
-82.0968 257.067 1168.76 153 128 114
375.019 -52.3654 1780.53 201 198 199
-2.41842 100.172 1245.59 201 161 146
-22.2725 412.895 1246.62 228 194 175
-57.3028 278.032 1046.96 175 159 127
417.838 -66.8045 1646.45 179 180 159
382.742 -147.1 1897.17 72 61 53
-108.287 182.796 1129.23 101 56 44
-36.9304 341.632 1110.49 255 247 236
364.678 494.027 1967.45 153 169 165
392.718 405.591 1940.07 175 195 192
-196.048 96.6462 1100.53 147 123 108
504.653 164.683 1955.24 227 229 201
-77.0219 40.861 1264.29 118 88 71
-81.6555 116.538 1096.39 248 240 226
440.029 152.386 1783.66 201 196 173
309.573 482.143 1958.74 105 119 114
55.7609 115.589 1262.98 251 207 178
-43.1184 174.491 1318.63 214 117 119
-50.2704 43.1993 1160.98 178 144 123
-4.0483 87.1328 1173.86 255 225 214
-44.2395 147.994 1140.42 255 227 207
344.09 -144.179 1672.33 94 89 74
-35.7904 162.512 1143.49 243 216 193
-67.4874 218.586 1119.69 164 122 110
-12.3614 96.4717 1199.6 255 240 220
-8.03463 104.723 1192.62 215 192 185
429.507 -61.0038 1712.57 189 186 162
374.486 295.915 1825.9 143 158 159
383.688 296.03 1826.61 178 189 187
411.143 -27.3279 1723.45 255 255 227
-40.2477 415.031 1182.65 197 186 193
532.149 -78.2559 2056.85 254 255 235
-155.387 104.177 1066.69 126 100 92
204.224 246.017 1382.04 65 92 92
270.824 -45.4256 1116.65 231 233 211
-42.7094 3.41452 1268.45 130 147 150
0.0143306 152.133 1161.31 249 198 186
-29.9904 480.221 1142.96 100 83 69
323.999 91.482 2044.31 138 116 94
22.7363 4.29127 874.754 216 188 167
