312.411 -42.1352 893.913 245 254 251
-246.194 385.582 1215.21 237 237 232
-498.962 382.026 1314.06 32 26 31
387.736 156.379 996.634 33 42 36
269.982 -14.0247 923.283 250 249 237
436.564 220.157 1005.99 212 215 211
356.295 99.6601 938.469 9 11 5
260.999 -67.6323 913.256 213 206 198
99.9784 -35.2344 916.603 231 233 224
-360.487 5.8064 1078.59 255 240 206
312.981 4.32372 928.287 230 225 219
-362.822 0.500573 1077.53 42 15 8
356.989 364.237 1150.39 56 85 95
-349.047 79.0279 1137.58 255 252 235
257.785 159.984 1021.46 202 188 185
-348.073 121.586 1197.48 255 244 229
190.121 -150.388 1165.34 36 39 31
388.793 107.432 1011.18 29 34 17
262.924 -13.9993 922.648 232 224 214
448.216 253.806 1025.53 231 238 230
-468.757 372.205 1264.31 221 220 208
445.073 235.59 1024.3 216 219 212
256.53 61.1779 995.374 243 231 223
445.219 240.753 1024.6 232 231 227
203.203 172.902 1054.59 255 241 242
-310.681 141.817 1102.7 255 244 222
370.399 16.0737 933.508 253 251 251
512.764 482.383 1253.09 32 53 61
-201.646 327.012 1348.59 23 25 17
342.677 43.6835 933.537 188 181 170
307.728 -46.4821 893.24 26 20 16
305.064 -59.612 892.053 213 212 196
265.615 -78.1697 1022.65 217 203 190
406.002 182.661 947.809 242 254 234
199.948 -0.469864 917.357 225 201 188
459.361 353.934 1177.31 243 255 253
-442.687 30.657 1102.75 118 94 75
232.578 61.1683 957.54 255 252 233
302.922 -55.1963 892.228 27 19 11
-238.124 237.353 1002.15 243 228 208
-421.969 162.878 1175.39 144 104 72
-325.117 100.393 1095.61 239 225 198
-459.658 138.003 1159.67 255 247 233
251.789 -53.4495 832.679 159 164 163
244.759 15.5473 922.974 226 221 215
-424.295 434.886 1292.46 91 90 92
-580.216 152.852 1241.28 79 51 40
236.584 16.074 954.966 234 227 214
312.145 -50.8971 893.232 251 252 239
-263.842 281.685 1146.96 239 222 207
277.68 -91.4024 950.647 7 37 37
292.46 -86.5352 935.595 234 237 238
358.95 426.314 1257.77 78 112 120
208.546 166.616 1016.32 224 195 182
-461.465 342.721 1204.69 248 241 238
-322.748 108.597 1096.88 118 84 57
432.377 253.288 1024.26 235 245 237
-315.516 127.943 1100.33 253 248 226
96.4398 -38.7818 949.436 199 204 198
-317.902 119.671 1099.06 148 119 101
-300.129 88.9257 998.099 132 106 88
374.527 -28.9145 899.115 250 255 239
-371.084 236.148 1232.76 77 51 43
168.096 50.6285 984.334 251 248 241
-403.588 196.878 1145.68 255 254 243
133.036 27.5561 943.668 226 214 210
147.47 133.739 1064.63 255 245 238
-425.714 129.905 1116.34 225 187 172
396.286 450.287 1140.99 237 255 255
-275.346 265.029 1154.4 136 103 77
-347.794 241.14 1169.35 112 87 77
301.477 369.105 1170.59 89 112 119
-309.037 186.091 1158.14 112 81 70
-499.854 349.255 1243.4 101 90 76
-288.03 342.779 1297.43 246 223 200
224.344 105.295 994.682 247 234 206
259.75 128.885 977.149 233 217 205
295.599 -90.0181 987.046 28 31 31
351.104 71.7161 969.587 254 252 230
131.213 94.2599 982.043 255 250 246
291.414 177.498 1019.88 230 208 199
395.431 206.157 947.81 191 205 196
445.86 183.705 1039.94 221 239 225
222.605 49.1886 955.688 253 251 231
281.301 73.7298 1015.81 253 245 224
-319.101 153.973 1152.62 100 80 73
354.767 -4.50721 899.745 213 215 205
-381.274 523.922 1322.63 73 75 74
-458.846 340.836 1258.15 248 244 227
203.022 -97.3955 1014.64 241 218 211
-438.186 228.845 1276.12 126 126 119
-377.942 115.31 1095.94 95 62 40
371.276 41.5071 935.528 246 254 253
162.176 -84.7474 1010.98 201 184 171
279.54 188.67 1005.91 70 52 39
174.442 -101.887 962.766 230 219 220
415.179 62.7961 940.125 248 254 234
368.685 118.946 908.396 218 232 213
-467.462 398.983 1269.58 76 69 44
-289.28 79.4572 1271.53 184 170 152
412.649 492.127 1212.75 62 99 117
94.093 -31.8058 949.421 69 71 66
-429.891 168.402 1173.1 253 240 214
407.279 127.115 960.999 192 212 184
-292.107 73.0986 1270.01 73 50 29
-401.064 433 1241.36 214 216 212
-429.653 427.368 1289.17 118 119 114
-489.419 296.117 1240.09 104 85 81
-425.554 567.191 1449.03 40 39 38
-433.687 212.38 1175.75 119 116 106
-383.278 360.335 1416.23 84 68 48
145.458 33.511 980.319 213 206 210
-239.94 269.939 1042 141 111 84
133.033 31.0268 978.518 248 243 238
300.083 -57.7979 848.077 222 230 214
-436.242 38.6031 1138.08 151 66 39
184.897 -104.577 1012.06 220 208 206
224.077 -131.162 1077.3 254 205 201
-486.954 242.95 1174.67 255 252 242
439.062 343.918 1112 94 121 113
-475.305 342.276 1252.05 217 206 196
-353.258 -4.62616 1034.12 224 201 174
126.244 94.1887 981.345 255 250 243
300.26 91.7232 918.375 254 254 237
-391.203 193.986 1188.72 145 136 118
-419.627 140.944 1084.02 163 149 128
250.732 51.4494 975.246 244 218 199
362.974 21.4081 916.176 220 221 223
208.326 99.4053 950.655 255 247 231
-265.135 62.2929 1132.31 189 163 146
-347.424 97.0501 1088.65 255 242 220
441.709 149.502 1033.76 249 255 232
231.575 174.041 1037.8 170 159 156
292.598 -91.5725 873.435 41 58 54
219.913 -1.72817 1043.01 201 182 167
261.899 -63.5628 888.409 190 218 210
294.616 264.257 1033.9 232 218 201
200.039 -111.335 1052.6 20 5 1
195.305 -97.2918 1013.81 224 167 146
361.499 -8.95188 899.856 234 255 243
-342.06 72.9072 1088.66 255 250 233
-425.675 612.571 1533.09 69 73 70
180.176 117.746 967.093 251 246 234
298.523 -4.76832 926.417 56 51 49
284.683 -79.192 903.354 201 234 228
418.148 393.18 1139.24 96 110 110
246.34 173.78 985.237 108 75 61
159.504 -92.0733 1010.1 82 76 79
254.9 181.675 1015.71 205 184 178
183.851 13.0493 916.448 187 179 159
-379.989 255.22 1259.36 227 221 217
-355.812 533.114 1319.02 216 219 215
295.402 1.94731 895.791 99 91 87
-525.277 277.006 1222.84 129 104 103
177.339 -128.719 1090.61 72 73 83
-262.894 84.3028 1345.98 68 63 53
380.345 378.239 1180.62 190 220 233
-397.495 28.3277 1022.35 86 26 14
-253.42 73.9131 1281.94 139 129 112
211.204 96.606 957.301 155 144 130
-489.781 262.91 1220.74 143 137 139
144.305 -57.8274 974.047 198 193 167
-290.604 32.5185 1218.87 155 129 115
-337.837 268.519 1175.45 143 138 126
353.989 431.33 1063.14 237 255 255
-357.609 65.5288 978.489 212 172 163
338.481 -57.4894 909.13 205 228 205
-204.257 220.121 1453.69 63 46 35
-354.03 70.4539 1135.36 250 236 221
-347.521 102.445 1088.99 224 175 146
232.086 -114.365 1055.8 112 84 62
364.288 355.904 1106.98 99 126 139
-277.44 79.7787 1275.23 145 127 119
-433.625 151.874 1115.38 244 227 208
273.889 68.637 884.735 239 228 196
318.147 -94.7202 971.657 188 211 202
-402.581 335.549 1436.73 141 126 118
178.34 -147.315 1163.93 118 92 88
154.721 39.3224 947.119 228 213 206
-288.49 194.751 1095.18 166 127 124
403.056 94.5717 921.788 242 255 237
147.014 -130.852 1086.62 197 182 164
-337.032 -10.4931 1134.58 170 144 138
436.507 512.023 1269.39 117 168 195
286.245 -83.4072 888.866 95 101 110
141.625 89.8999 1014.64 230 216 212
444.849 172.577 1035.01 224 243 214
-430.334 118.603 1113.86 240 223 207
-440.839 191.312 1171.32 247 240 226
201.614 114.066 1030.31 240 227 198
354.702 53.7353 889.22 219 247 219
161.794 136.938 1002.13 212 207 218
220.667 -51.6979 948.485 171 162 150
366.868 13.2993 901.905 201 219 197
-433.442 203.53 1175.03 228 213 208
-553.871 132.342 1181.8 128 119 115
-263.451 383.729 1268.28 234 219 180
-252.231 199.433 1362.39 175 151 134
193.66 239.075 1058.66 92 91 79
172.153 158.17 1069.77 203 202 199
404.82 439.107 1141.14 229 244 244
-485.085 318.834 1244.98 251 229 205
-253.053 64.443 1346.74 50 26 10
220.412 -70.0381 960.936 34 35 30
398.364 221.137 951.644 176 196 185
267.805 -0.36089 991.968 98 91 89
405.288 480.343 1213.17 80 123 140
-266.807 260.166 1409.32 89 60 42
-436.566 354.516 1150.99 255 255 242
-319.929 -22.6418 1117.19 138 116 101
-311.215 344.867 1204.48 137 82 49
367.098 19.9801 902.42 237 245 226
276.001 -164.712 1126.14 158 142 134
236.785 57.9603 1048.37 194 187 179
362.737 -22.2402 854.23 132 140 130
128.376 82.6907 1018.33 254 249 242
184.176 126.788 991.021 255 252 254
244.522 4.15969 922.186 77 57 49
202.07 238.148 1020.87 210 209 187
293.351 -159.599 1099.79 79 83 82
-262.407 239.615 1333.96 172 137 118
215.982 176.562 948.215 125 100 85
-255.684 215.07 1295.23 80 50 29
-345.242 -0.741599 1164.97 136 120 103
-320.443 85.885 991.762 173 144 124
-267.521 -1.99245 1334.49 69 67 56
-535.965 124.095 1187.71 252 206 190
524.304 481.561 1279.72 44 75 98
-480.344 80.0777 1146.74 192 165 149
-530.445 369.933 1437.19 233 233 214
363.023 -149.292 1063.69 24 78 79
451.537 118.21 1016.7 187 213 185
-387.949 213.873 1101.84 172 159 162
207.969 -107.368 1014.35 52 8 2
157.899 182.392 1049.26 94 89 79
252.821 170.132 1021.78 73 50 44
313.438 -183.801 1246.51 190 181 167
421.099 109.467 994.04 193 223 191
291.608 195.207 1020.47 200 173 143
-518.292 222.838 1159.6 156 134 113
208.624 332.972 1109.64 73 70 57
270.691 15.6476 925.437 169 162 152
167.335 211.627 1072.2 91 77 60
-401.54 616.439 1519.62 151 168 159
-276.295 16.8039 1269.24 114 91 73
194.822 90.6972 933.657 157 142 112
440.915 301.936 1109.99 192 190 160
264.807 147.764 1099.4 211 167 160
-510.04 284.732 1230.19 229 221 221
220.903 258.771 1097.5 206 211 185
-455.699 71.4243 1101.24 159 130 121
-320.605 279.102 1141.88 232 228 219
-329.311 339.012 1242.64 202 193 180
212.829 85.183 1018.67 214 202 173
174.686 154.348 941.796 255 246 245
156.625 67.7834 1021.32 216 216 215
235.137 195.353 1021.82 206 188 165
140.853 65.1272 981.658 255 249 249
-425.541 211.523 1213.13 166 154 148
-273.678 233.808 1107.79 212 190 172
409.77 165.703 993.479 218 238 218
-425.75 30.7737 1108.65 192 121 97
-269.442 97.5394 1345.45 143 128 117
-564.722 120.268 1288.88 231 234 232
-454.72 233.79 1131.25 226 193 178
404.784 343.69 1133.9 222 230 216
-250.105 241.882 1236.88 141 115 105
-266.153 218.949 1308.96 175 131 116
-327.31 51.3422 1173.7 135 125 112
235.579 100.406 926.62 243 216 197
290.54 253.759 1168.05 229 228 225
138.851 51.5141 1077.01 241 229 223
-377.503 95.1546 1129.72 252 242 230
-349.886 321.371 1275.81 208 204 190
312.848 174.284 1008.67 183 174 158
140.634 45.6416 980.442 172 167 169
249.123 188.798 1055.55 247 238 212
-366.413 64.3511 1080.58 202 152 129
120.234 83.5503 943.664 249 252 252
-332.99 54.4213 1043.47 252 236 188
-302.468 4.14343 1259.83 111 106 97
-557.29 332.961 1351.36 253 234 229
355.478 423.702 1343.24 104 128 137
222.1 -107.373 1026.11 99 110 94
412.419 302.7 1064.65 213 206 179
203.049 41.0674 987.979 202 161 136
255.498 79.9468 928.11 117 101 77
-518.777 75.2564 1252.54 255 242 236
-261.968 203.049 1331.35 142 109 90
-342.755 155.798 1145.49 205 167 136
188.279 46.0552 875.163 188 179 145
-252.626 -12.4471 1225.12 78 90 83
298.058 73.5963 948.104 220 206 174
-222.067 350.22 1253.54 169 173 145
326.836 112.448 1023.73 155 151 119
-355.62 49.1309 941.29 249 214 203
-591.356 221.417 1310.18 246 232 204
-352.649 314.715 1274.27 130 121 114
263.609 15.6482 924.78 145 141 128
338.654 95.5772 1061.35 114 119 93
155.556 45.7153 982.408 255 250 248
-538.568 192.322 1147.24 254 252 232
-394.671 164.488 1219.97 165 140 127
-382.199 78.2604 1126.88 255 252 245
-643.242 114.375 1270.42 248 244 242
-250.822 99.5196 1285.29 144 136 131
272.476 -8.12079 787.222 69 60 63
217.432 353.785 1198.58 147 144 129
393.917 60.5269 907.152 233 252 219
316.998 387.64 1174.03 164 208 217
257.251 70.8904 960.791 180 178 146
-356.958 80.6404 1084.61 186 149 134
388.239 115.766 926.796 174 195 162
-564.142 227.029 1261.14 241 233 211
-368.941 69.687 1080.14 251 237 234
-510.963 223.341 1162.64 183 157 142
318.716 207.168 1011.16 254 253 245
306.066 197.218 974.516 183 179 170
-244.293 259.002 1323.78 73 52 51
-531.33 316.086 1276.74 165 148 148
-405.374 157.239 1245.52 156 106 89
-528.317 178.543 1149.71 239 218 201
318.023 -6.99709 896.947 135 134 141
349.01 76.2829 952.252 139 135 106
-354.936 399.225 1252.72 192 189 170
-253.773 104.7 1351.16 121 115 112
352.574 443.518 1203.49 134 170 169
-506.184 226.632 1164.99 245 228 212
268.246 -126.496 1082.8 155 128 114
-324.454 143.94 1078.32 251 232 199
283.586 179.803 1019.06 219 206 194
207.204 129.338 1072.75 243 228 210
393.279 42.5324 905.809 208 221 188
127.145 -41.0682 1070.1 116 118 112
459.766 468.49 1233.05 220 240 234
