-22.3485 327.159 1241.81 35 20 15
-62.0935 348.394 1178.88 254 252 226
446.323 -155.218 1448.67 255 250 251
516.82 295.431 1788.9 218 251 251
-10.1245 -50.3329 1161.7 251 211 200
467.837 -235.245 1592.04 208 209 197
21.4736 103.29 1265.13 96 56 35
324.075 105.106 1823.54 38 36 25
-64.5265 44.2321 1158.2 60 29 20
508.23 304.418 1789.77 6 30 46
-73.2176 119.045 1161.85 74 28 22
384.986 128.048 1738.38 252 251 247
-17.6415 -45.385 1269.04 208 191 190
25.2617 88.9011 1179.98 248 212 188
38.796 121.047 1239.08 164 122 92
-113.52 32.24 1053.63 248 194 166
-16.4966 357.762 1215.44 199 191 185
-58.4967 25.3739 1040.29 96 59 57
-113.498 27.028 1053.33 100 30 5
-73.3674 188.808 1166.67 251 228 208
-98.1226 34.9658 1057.07 252 251 252
35.5856 99.4124 1236.55 255 246 225
17.5769 107.364 1206.56 255 246 234
-118.262 22.8028 1096.58 255 215 190
-19.289 311.695 1241.48 233 223 210
39.7808 -43.416 1258.37 71 20 10
98.0316 371.313 1310.32 75 77 72
-87.5422 134.26 1132.87 89 63 50
25.4239 127.142 1182.99 179 160 146
26.6471 170.279 1240.79 114 106 102
497.633 214.92 1678.92 71 107 114
10.8878 77.5172 1229.69 255 239 218
-52.9533 368.886 1237.53 154 143 118
-79.0936 194.426 1165.75 78 63 38
479.152 -61.2732 1621.13 252 244 246
-109.443 83.2738 1125.59 253 246 233
-108.478 53.1894 1055.94 144 40 24
29.6889 157.95 1240.4 255 249 232
43.2509 139.395 1187.36 242 231 215
30.8567 78.3256 1265.42 255 241 215
507.993 -15.3933 1647.97 232 224 223
-16.1758 340.06 1243.99 219 218 213
-12.9865 415.614 1249.22 71 73 72
-28.4555 386.236 1244.1 112 109 107
412.996 -286.614 1652.14 210 186 178
-50.4613 310.603 1179.36 76 66 60
26.5383 145.48 1238.72 255 244 227
654.983 246.873 2153.58 227 255 255
602.612 254.946 1988.96 81 110 117
457.432 -92.217 1534.07 111 65 50
-82.7569 55.4124 1182.2 142 131 128
-31.5819 270.537 1235.95 114 110 108
-63.3684 302.112 1076.72 244 241 237
-108.458 47.9554 1055.64 243 159 140
455.018 -129.487 1526.61 202 187 180
-103.318 48.0085 1056.74 247 224 208
25.0822 303.265 1310.75 213 214 189
633.832 -291.129 1688.51 208 224 205
-31.6465 490.074 1419.58 77 76 81
1.44909 291.119 1213.42 246 251 229
-96.9826 52.933 1103.25 126 132 127
46.8726 104.416 1297.59 137 92 69
-49.4939 426.252 1213.57 202 195 185
50.1403 -32.7063 1204.03 254 239 205
-131.672 439.533 1348.96 145 140 135
468.028 -84.0988 1637.54 190 158 151
2.32508 312.915 1246.26 236 224 199
-114.848 63.66 1123.41 255 237 215
21.544 125.321 1266.56 252 209 187
-90.6266 243.651 1166.29 78 81 75
480.095 -87.1434 1617.91 229 208 192
-45.173 401.206 1368.19 243 240 229
100.065 167.217 1349.55 126 117 104
477.064 -31.8131 1547.42 251 239 248
630.908 -66.8696 1836.28 238 218 214
-105.405 448.214 1356.65 147 147 138
43.6232 -36.2282 1171.76 228 165 135
522.015 -11.7863 1730.06 103 94 90
-95.7578 81.1314 1154.06 63 60 57
-49.9298 428.493 1241.65 236 230 211
-46.0109 341.162 1174.11 191 175 161
589.34 332.111 2009.52 197 232 241
-14.7511 205.294 1130.25 254 236 219
610.715 234.586 1983.63 223 246 247
-80.9822 31.8112 1081.41 108 110 81
-77.4332 40.3766 1061.7 219 226 215
497.028 -28.0277 1549.79 244 238 223
61.945 391.369 1351.28 81 69 57
-25.5065 61.9572 1252.37 254 255 251
-9.67042 197.026 1180.97 255 246 238
-14.5019 236.64 1258.87 182 145 125
-30.0933 225.816 1178.59 234 211 193
638.821 -283.134 1690.52 56 75 55
-50.6359 381.715 1110.48 90 71 49
2.33035 5.52144 1144.85 123 73 55
56.2419 544.105 1365.23 174 188 172
407.636 133.915 1653.36 17 25 19
538.989 -159.45 1685.65 220 216 214
-113.427 135.007 1104.82 70 49 39
-9.21388 99.7691 1300.47 161 126 110
-86.5677 185.71 1113.9 253 251 231
612.206 -217.747 1593.24 233 240 231
49.1951 -49.6878 1259.72 105 44 8
32.9491 593.938 1450.17 91 118 106
49.4168 546.98 1364.02 69 91 78
7.74148 -57.4657 1333.97 255 253 229
522.274 -79.4531 1624.13 250 241 225
551.958 -77.4142 1622.75 245 239 233
-55.6903 419.975 1300.73 225 218 205
-41.6886 81.994 1165.94 253 232 217
391.165 -246.581 1670.65 76 74 70
-111.928 18.1897 1002.05 170 101 68
-31.6318 -36.613 1135.7 230 207 184
-65.2678 412.648 1297.97 155 150 141
576.842 -26.4973 1709.66 255 246 233
627.851 -311.139 1683.96 52 64 61
-74.8943 457.773 1298.54 131 123 113
-38.8201 225.418 1176.69 244 218 199
-71.1095 330.328 1230.95 115 108 107
65.681 554.537 1404.34 65 84 69
-64.7887 259.509 1122.84 169 150 137
-91.4328 3.85712 1101.16 254 238 226
-94.2792 77.1924 1080.67 204 153 167
-101.709 164.575 1158.57 86 73 65
51.4271 155.474 1244.51 168 154 145
-64.558 97.4674 1113.15 132 94 90
386.223 -94.9056 1402.94 182 165 153
398.927 -262.791 1668.75 75 76 79
571.42 -75.712 1724.55 244 235 235
-149.077 454.913 1417.46 125 125 114
530.83 53.9198 1711.06 163 160 137
639.765 -167.953 1687.23 127 132 111
-118.499 146.718 1153.44 183 147 136
518.628 -99.819 1596.14 241 207 179
-63.3911 369.941 1173.22 45 41 31
438.395 -84.6229 1533.88 227 162 147
23.9834 -71.1106 1253.06 156 129 108
-34.6457 223.883 1231.91 80 80 66
-91.9572 168.841 1111.7 255 247 227
473.029 330.484 1686.56 129 146 140
631.76 -163.862 1688.11 230 231 206
86.0985 108.354 1305.67 141 106 87
-64.558 61.4751 1159.5 252 243 240
-46.8203 285.253 1233.55 242 212 194
35.5111 65.7259 1207.66 179 111 86
49.7878 363.797 1240.82 113 101 95
-78.9947 153.697 1163.01 249 234 214
468.916 225.353 1866.74 43 69 66
25.1473 62.5676 1177.84 255 238 210
660.504 -181.063 1712.83 167 172 157
-14.6115 62.0929 1051.45 255 219 212
45.5257 340.163 1175.29 137 129 111
504.205 -250.579 1505.86 146 148 143
-9.68054 191.114 1180.56 182 175 171
-103.325 140.573 1161.44 165 112 107
-49.4823 410.851 1212.37 89 65 41
-11.7002 124.779 1148.39 148 123 109
-109.509 105.641 1126.65 192 175 166
47.3883 185.738 1305.47 166 146 133
94.3372 53.5795 1243.4 255 246 228
568.356 -124.749 1612.96 245 238 225
35.9216 164.328 1242.18 119 90 77
645.885 -324.472 1780.8 134 145 145
121.848 66.294 1307.89 250 227 204
571.665 -161.744 1492.59 243 247 230
86.5425 -95.4859 1227.03 228 216 195
80.7763 17.8258 1213.2 249 245 235
-48.1818 234.957 1125.05 180 176 175
-96.9935 119.482 1020.17 179 182 178
617.963 322.826 2029.1 171 204 203
97.5677 37.7419 1275.72 253 227 207
-117.724 108.26 1124.92 212 184 163
102.039 62.7777 1303.95 198 150 120
523.621 -130.58 1689.72 165 143 136
-101.345 133.896 1129.8 227 215 212
-19.4659 391.497 1217.58 111 75 67
558.665 -67.1803 1724.68 254 249 253
96.6481 174.147 1314.15 149 113 99
632.209 294.261 1989.04 158 176 171
-61.9391 215.566 1171 186 156 130
-43.6635 13.4475 1212.65 197 120 109
658.641 55.03 1744.9 251 250 225
530.067 185.508 1676.55 165 178 177
81.3099 -1.50444 1235.68 255 244 226
487.962 -53.3343 1623.55 163 151 158
84.5374 10.6904 1237.46 254 241 227
518.97 200.466 1872.09 95 123 121
-38.8005 1.31293 1160.25 178 124 103
38.6167 396.993 1320.54 144 127 102
-56.0597 107.836 1164.79 255 218 191
495.388 -34.6289 1591.18 139 119 121
97.3839 15.6687 1274.02 252 236 209
576.57 -35.0828 1836.83 249 248 246
100.215 187.419 1350.96 237 224 214
-75.7566 239.288 1119.35 254 250 250
-121.611 471.69 1426.53 134 129 123
661.665 18.3957 1961.83 253 252 225
-61.7876 110.617 1163.75 186 134 110
-121.256 90.8887 1100.3 97 42 30
-90.8885 26.7888 1044.95 175 104 71
-31.42 267.697 1051.53 255 232 213
-74.0425 234.698 1110.77 167 167 156
-66.9783 245.043 1194.15 166 135 115
12.1277 -62.4514 1071.84 201 177 166
-59.0255 186.413 1169.69 190 174 136
-33.119 53.0018 1192.9 200 141 118
27.9598 350.924 1172.66 225 218 190
369.869 -111.789 1258.81 66 38 26
-44.6231 228.114 1175.61 171 123 110
537.11 -17.9676 1704.72 88 75 85
439.315 -303.606 1726.14 161 130 127
66.8695 89.9975 1121.48 164 132 109
-122.848 2.37517 1071.12 159 124 94
514.361 143.204 1666.76 82 66 44
383.961 -94.9788 1378 179 164 154
620.432 53.098 1752.62 248 249 230
539.894 -18.9602 1814.2 144 133 122
-41.673 32.9005 1162.16 255 244 242
-62.637 244.656 1318.64 218 194 162
46.3655 -88.2199 1169.86 102 80 74
547.556 156.586 1722.66 197 203 197
-118.962 -0.347709 1026.12 214 190 163
-56.1037 145.616 1167.51 187 150 131
-4.73395 77.8716 1284.25 205 179 165
653.01 -84.9373 1834.64 156 141 135
-27.3346 -13.018 1161.41 205 121 102
-61.5983 -47.9047 1103.73 102 79 65
503.938 -300.986 1674.44 109 83 83
496.442 278.402 1882.32 88 116 109
467.66 185.263 1711.83 98 129 124
-47.4209 421.125 1284.64 110 91 83
-50.4701 328.413 1180.36 164 163 164
-11.513 237.625 1361.9 174 102 92
-48.7166 381.541 1164.3 87 71 61
-49.5232 309.804 1123.72 251 252 251
502.326 -136.18 1606.55 168 160 163
-15.0702 -20.8413 1114.78 255 198 170
-50.3518 142.864 1168.56 253 231 194
569.932 39.6377 1649.68 236 236 219
604.533 168.595 1878.47 248 252 244
12.5645 354.056 1188.03 199 202 175
662.867 -381.511 2155.66 165 167 157
122.325 102.354 1311.78 255 251 230
