39.7152 397.652 1150.56 255 244 218
-59.7582 66.5236 1087.34 202 188 178
76.693 -4.49627 1235.52 248 238 211
385.485 -100.032 1797.34 232 215 202
12.6185 91.7658 1082.32 239 215 200
7.15849 64.6145 1079.62 254 233 201
7.17334 70.0121 1079.97 115 36 12
33.9054 379.924 1148.69 181 158 155
69.5199 414.059 1237.6 226 222 214
20.7066 89.208 1083.64 83 58 54
123.364 446.501 1277.61 68 71 69
98.0311 8.39553 1152.72 103 22 9
348.303 16.6312 1709.23 213 205 203
-0.107026 188.497 1104.12 215 191 186
33.8783 371.264 1148.31 236 219 205
62.7679 276.159 1173.08 236 207 201
57.6057 498.356 1241.51 233 237 226
68.7396 418.047 1209.29 247 238 239
62.6381 349.916 1152.83 190 156 142
15.2831 79.0265 994.978 215 220 219
7.18813 75.4139 1080.31 239 170 148
-1.25298 178.674 1062.74 44 28 31
50.5422 416.772 1205.68 171 139 121
21.4105 192.044 1157.78 230 204 200
15.4268 127.149 1084.99 234 200 194
49.7229 472.943 1171.14 176 174 164
82.4208 468.714 1244.34 72 82 80
69.8323 458.251 1241.08 81 79 73
60.0578 308.719 1175.29 139 126 132
17.6618 276.362 1073.11 96 82 81
15.6552 203.549 1089.35 90 73 63
377.878 -64.7124 1802.85 231 227 226
101.963 185.389 1256.46 142 120 101
340.551 37.249 1602.55 246 235 220
87.4553 356.264 1266.21 238 235 215
31.5585 94.8623 1085.95 147 159 154
71.6182 384.766 1208.24 213 208 201
129.685 474.718 1343.79 61 63 60
1.75554 43.6798 1035.13 155 126 103
8.80696 53.0285 1168.53 255 250 228
49.9915 503.773 1266.66 163 149 130
345.856 60.597 1819.93 169 174 170
101.684 212.545 1224.86 106 81 68
39.8101 373.081 1176.36 172 155 163
114.958 212.568 1288.72 165 169 156
27.9617 313.29 1144.43 44 43 46
393.272 234.243 1859.12 120 113 97
327.149 -145.411 1588.01 122 122 116
401.363 53.7359 1816.56 72 56 56
110.659 3.71927 1309.4 145 65 33
355.699 407.373 1997.22 74 92 97
359.694 67.8448 1721.93 39 19 11
154.45 282.828 1253.4 72 67 64
226.496 -151.733 1573.03 67 72 73
331.115 45.3962 1545.35 251 244 247
31.5416 388.787 1082.5 174 159 135
390.223 2.1187 1817.31 145 120 110
100.051 4.80317 1239.57 179 112 91
376.235 271.927 1865.22 114 141 143
-43.439 109.574 1072.63 152 137 124
374.491 -2.37766 1730.74 254 240 223
-98.1902 52.6072 1058.08 174 136 119
4.45967 59.197 1078.78 140 73 45
50.8646 300.13 1148.16 136 111 124
50.7551 432.272 1125.83 97 81 65
81.3408 181.164 1060.83 255 247 237
32.9817 451.241 1131.44 188 166 146
-96.9066 71.3133 1079.79 174 135 124
39.4988 -35.938 1281.55 147 159 162
129.179 -24.7326 1276.61 151 127 112
-160.069 -23.7611 1298.19 40 42 28
93.3135 -40.8112 1233.84 92 70 52
24.7912 218.528 1138.64 245 230 203
45.1228 302.711 1147.2 255 252 255
66.2732 350.828 1179.82 248 219 190
109.994 181.416 1317.21 170 129 112
-134.516 81.9453 1096.64 71 19 16
338.39 1.6224 1610.74 86 69 60
119.615 -26.457 1200.09 243 231 219
-24.8151 169.437 1079.69 72 34 16
-8.70007 191.724 1084.05 157 130 121
56.8979 11.0783 1155.41 255 249 229
345.065 319.01 1870.71 123 142 137
40.8118 309.055 1123.94 158 119 122
55.1446 346.923 1129.29 255 240 232
52.4138 359.305 1169.39 161 139 133
-233.811 49.9538 1169.2 27 11 3
-30.1796 115.17 1075.58 75 33 26
39.3639 289.838 1169.76 136 92 67
256.112 -12.8153 1689.46 35 24 20
338.128 -2.37474 1592.27 153 126 106
315.274 -37.8883 1692.75 150 122 116
43.3151 216.111 1236.72 116 82 63
50.4564 449.717 1353.82 135 126 125
1.99092 155.097 1130.3 140 115 113
312.689 -19.4133 1531.7 103 68 62
275.703 -20.99 1366.6 198 167 157
-38.8126 371.381 1184.91 18 8 0
43.5218 468.152 1263.64 59 37 28
40.1589 166.585 1160.33 171 127 99
-9.24888 143.41 1127.34 75 30 20
10.054 137.899 1084.62 115 47 31
380.558 -29.7216 1702.89 251 235 214
-109.377 228.549 1086.76 45 6 1
-56.6126 93.208 1069.03 120 99 97
42.499 6.96475 1176.46 203 178 156
-113.376 260.363 1161.77 69 11 4
383.354 385.583 1999.49 141 168 166
310.494 319.248 1667.56 103 127 127
259.445 -13.794 1315.84 104 58 50
359.113 39.6174 1787.94 47 21 16
54.3986 172.548 1265.55 164 111 93
-111.06 55.0635 1055.47 168 139 120
29.6806 7.50026 1101.72 125 111 91
-35.4928 109.695 1074.22 90 76 77
319.113 270.589 1856.1 108 134 130
94.041 128.832 1195.74 148 113 84
269.942 239.028 1627.3 62 87 90
72.4844 423.206 1135.09 246 249 233
4.46508 -35.8485 1274.62 91 115 122
-177.582 449.925 1256.69 63 38 20
-98.6964 76.1584 1108.92 101 49 38
-32.9706 330.014 1183.98 110 89 78
11.3922 145.344 1120.27 194 154 143
6.58817 195.201 1025.03 138 87 75
310.808 -64.4641 1523.52 27 9 6
