25.6538 -40.9336 1221.69 255 241 223
-9.95868 368.763 1246.96 253 246 235
-28.4727 361.238 1242.42 242 247 247
19.7381 423.548 1384.99 234 224 219
-57.0676 42.0122 1086.8 65 30 16
-24.1498 362.908 1187.77 242 226 206
-16.1272 380.903 1246.33 137 106 98
-37.0883 58.5424 1116.18 98 84 90
-70.7402 29.977 1131.35 255 182 154
-7.1634 470.355 1314.9 248 249 245
18.7573 365.914 1313.87 253 249 229
20.2545 -36.4375 1167.33 141 113 92
-21.2214 348.153 1187.62 73 78 68
520.196 268.268 2030.11 44 96 107
68.309 -27.0469 1207.85 122 57 53
81.6281 -29.3227 1330.32 139 48 21
515.46 -165.404 1909.96 255 248 240
-44.9044 150.514 1195.68 125 89 84
517.959 -2.66957 1877.44 98 102 101
491.973 -238.785 1893.69 168 163 158
9.37063 415.787 1382.02 54 53 46
115.265 425.534 1431.39 94 95 96
-71.4348 17.8057 1150.67 255 244 226
62.3946 92.7589 1336.39 248 236 214
59.5079 94.4251 1272.24 129 94 62
392.667 193.169 2232.61 238 240 228
-71.4521 37.7277 1151.39 251 163 142
5.25125 -26.9179 1195.8 255 250 231
59.9469 180.24 1277.65 104 97 89
-121.91 453.976 1352.55 214 215 201
64.818 157.963 1370.65 128 101 83
66.1111 132.615 1276.02 159 132 110
-54.7806 88.0944 1105.82 251 240 233
498.103 79.5005 1848.2 237 229 206
66.5963 127.493 1303.71 244 230 205
-46.8156 269.73 1232.32 153 151 147
50.2725 127.149 1300.42 255 248 233
81.5474 -39.1115 1329.44 123 47 15
475.114 -66.6043 1917.84 237 219 208
35.3269 20.58 1204.79 115 73 76
13.0747 89.6526 761.769 72 52 49
34.8343 313.491 1279.21 242 237 224
83.1478 176.832 1346.67 167 165 160
-30.0393 335.647 1185.04 229 211 211
18.7355 359.276 1313.4 217 199 174
17.0851 283.017 1410.34 114 87 76
-57.4619 157.929 1229.47 142 98 87
-15.7989 422.062 1272.57 196 173 156
477.34 242.587 1872.15 204 227 242
443.231 -4.54466 1549.45 123 94 86
-31.611 205.418 1231.05 251 227 202
488.171 345.582 2012.69 189 226 244
79.9555 126.247 1412.76 170 126 97
38.3514 337.243 1316.02 245 233 207
467.928 -118.619 1806.04 155 131 130
408.617 -105.71 1605.62 212 175 162
-115.361 461.352 1354.81 11 10 4
495.923 -47.8287 1924.42 243 239 233
-68.9663 45.798 1207.44 86 40 26
-114.445 75.1267 1176.01 147 121 113
-45.1451 215.339 1218.39 180 160 142
-23.6221 271.284 1297.23 127 99 74
-38.4206 38.8754 1107.68 97 104 103
520.262 193.396 1959.12 79 81 69
53.4138 118.228 1274.42 145 106 89
549.564 92.4774 2028.11 126 115 95
12.3954 431.961 1316.92 110 94 85
-27.0351 258.709 1223.34 252 252 248
5.48537 292.445 1305.44 155 150 149
4.98596 122.867 1290.6 180 125 115
10.0357 272.057 1407.99 114 59 42
62.4931 109.391 1337.65 255 247 217
543.93 -126.769 2009.37 138 130 125
-39.6338 474.199 1307.69 136 131 120
45.1457 100.996 1295.61 255 242 224
-68.6515 72.0448 1153.17 248 177 162
460.421 -84.2881 1786.64 212 162 154
-10.361 413.995 1221.17 75 60 43
13.9613 363.685 1366.18 149 131 127
79.6956 166.654 1345.27 251 250 240
-3.95094 271.915 1241.94 248 249 251
477.751 -109.884 1809.15 218 215 216
-81.9495 102.965 1132.55 103 55 45
-75.6636 165.012 1271.36 64 32 28
-10.0129 334.204 1244.8 132 115 114
492.941 -11.707 1830.54 249 236 236
53.44 114.214 1299.8 140 107 78
-25.7349 278.596 1167.36 173 144 134
537.266 17.264 2020.42 74 52 45
-34.5331 261.726 1202.82 156 156 150
-56.9109 143.29 1139.79 183 183 179
379.165 -249.667 1870.7 83 87 84
-24.1811 324.073 1185.66 253 252 254
499.081 -140.901 1805.67 251 254 255
477.511 -34.2063 1824.04 114 111 109
474.309 -55.3336 1706.46 250 232 210
535.706 -91.7888 2060.64 123 76 61
402.979 -88.2813 1691.96 152 129 120
458.163 -38.5229 1709.02 226 219 211
526.616 189.044 1964.32 118 109 90
-0.576017 26.234 1198.02 255 255 240
59.4488 166.097 1341.03 255 249 240
62.8873 179.601 1342.66 248 237 218
614.316 272.08 2293.33 132 156 152
-0.545801 96.4213 1259.97 255 235 215
-56.6532 201.422 1344.85 187 185 165
-42.8095 224.807 1289.02 157 142 124
-44.6179 204.445 1173.91 255 252 237
-10.079 293.501 1242.1 254 241 215
-56.6866 177.012 1194.42 112 89 81
5.11585 236.181 1186.48 255 246 233
-27.2472 125.673 1172.15 153 102 79
-209.723 43.4256 1297.9 73 15 7
412.182 262.303 1985.17 59 89 78
-169.731 203.407 1255.6 62 17 4
-27.0483 237.381 1222.84 155 64 46
547.164 -45.9322 1944.5 255 248 248
66.1978 78.7779 1298.77 155 112 87
11.9638 282.268 1213.71 187 148 157
14.3449 188.547 1239.59 102 73 63
-11.8321 293.011 1227.24 249 246 246
27.787 103.29 1266.37 155 98 95
-169.09 15.6773 1183.61 155 128 118
-24.102 121.92 1220.09 219 183 164
-65.3629 66.9477 1186.7 192 106 75
546.521 -37.5946 2018.04 229 217 220
-10.9561 449.986 1280.29 246 242 222
73.1499 203.466 1346.36 178 166 154
-134.977 445.993 1348.5 153 148 139
637.861 88.4134 2108.62 254 251 229
-12.1458 262.888 1207.92 144 137 146
-76.8864 11.1053 1180.92 152 128 101
72.6176 148.683 1278.31 176 139 127
-74.1401 6.93904 1077.23 230 203 177
-20.2074 459.299 1311.28 98 74 53
389.316 -20.2767 2042.71 143 137 112
26.0288 229.382 1296.12 190 153 156
-62.865 99.8342 1057.73 105 39 15
12.0231 312.624 1214.89 255 237 234
378.737 -20.2508 2040.37 33 29 8
392.578 5.35689 1619.79 172 161 151
-144.712 438.201 1345.35 96 94 83
380.538 -279.043 1866.47 201 177 166
-131.674 439.434 1348.89 86 78 65
1.70427 421.576 1280.62 247 242 241
532.285 -61.3 1826.07 241 226 219
508.992 -80.5193 1801.28 253 231 202
-28.765 209.706 1102.91 173 147 126
86.6818 158.356 1388.57 222 197 190
-28.4536 392.603 1244.29 170 149 135
337.971 -94.906 1335.11 28 8 4
0.661635 242.812 1242.48 254 245 232
65.4576 396.641 1307.63 146 138 118
-25.6311 228.733 1201.65 246 214 195
498.29 9.25511 1932.82 130 118 112
868.643 -221.723 2604.19 255 255 242
519.172 -54.1106 1982.33 84 59 48
510.188 -84.4685 1790.36 244 239 216
-28.7094 127.589 1163.31 146 119 110
533.748 -38.8489 1830.72 221 195 191
1381.06 -526.277 2008.2 118 124 121
120.534 52.8854 1369.3 254 238 223
-131.324 28.3876 1169.45 145 124 114
-15.3973 43.8988 1196.06 255 246 245
590.44 -163.736 1811.5 241 248 221
390.741 333.902 1987.92 45 61 58
-64.5796 108.126 1113.77 179 146 129
426.481 -278.064 1875.08 134 116 110
111.205 35.9101 1314.25 255 241 218
-66.34 257.409 1276.57 243 243 236
-61.89 177.388 1168.32 166 142 117
-19.621 34.319 1219.58 164 168 163
101.553 151.433 1419.39 175 154 137
435.246 314.406 1988.91 85 115 108
-22.0526 27.664 1098.89 250 255 242
40.2784 62.5682 1266.24 185 165 151
552.714 -106.034 1819.48 253 251 225
-12.7944 76.2486 1171.43 254 228 216
28.1585 214.203 1272.99 194 171 165
22.2789 83.6375 1460.94 246 255 246
664.734 -178.084 2028.26 179 184 160
115.286 69.6213 1307 255 243 227
29.0216 88.852 1329.05 206 162 148
-80.5502 175.074 1275.86 172 136 122
522.992 -272.514 1682.05 163 189 197
661.178 -158.707 2070.04 254 254 227
-8.17853 6.77544 1050.2 198 139 114
-36.0437 162.752 1198.22 235 207 176
-66.2749 127.29 1272.11 255 252 248
-2.81806 41.2489 1165.81 255 246 234
-80.0656 164.326 1188.58 151 126 107
-13.9509 68.6934 1451.64 255 244 235
-166.877 222.499 1257.93 92 35 24
121.958 42.4626 1414.03 218 160 132
-23.3041 103.608 1109.81 128 119 110
115.203 63.1298 1306.3 255 244 213
513.816 336.074 2015.42 164 187 184
116.943 179.99 1382.47 163 145 124
545.549 -2.66606 1839.31 206 190 174
-108.723 451.426 1355.86 144 127 107
-64.8429 233.034 1171.31 213 201 194
73.0873 612.472 1485.12 201 231 218
-23.2872 47.6058 1118.17 189 167 160
412.824 -0.273448 1914.97 115 95 79
671.641 -163.871 2070.7 194 191 170
1.51622 7.23257 1221.48 255 239 212
-21.1353 55.3524 1218.27 185 173 166
1681.42 -632.252 2483.48 129 130 128
-3.94326 6.17691 1118.94 255 234 207
504.543 -145.221 1560.91 209 214 190
119.04 449.316 1486.29 86 85 86
