11.9248 402.458 1254.58 250 250 251
280.261 159.484 1729.88 21 19 13
29.8485 48.9085 1128.55 29 3 2
475.591 -115.104 1609.54 255 249 242
24.6195 460.465 1260.49 57 61 55
17.0764 407.33 1227.5 255 251 242
465.503 96.9733 1570.94 237 224 199
-15.5587 387.164 1167.04 107 75 67
425.733 -168.526 1516.74 211 205 207
67.1748 162.558 1248.6 120 102 83
-10.3556 392.97 1220.42 254 249 231
-24.2224 386.554 1165.13 255 244 229
127.865 212.602 1358.6 59 34 28
-9.74569 483.068 1254.24 243 245 239
24.9008 -9.5647 1171.88 255 220 210
-107.876 522.23 1435.02 215 215 207
36.7797 340.762 1256 249 253 238
72.0167 -6.88048 1180.6 84 19 1
-0.352227 382.915 1198.8 53 41 40
15.5983 -6.56588 1121.65 67 46 34
-77.419 56.9529 1062.8 249 191 165
462.62 -3.88575 1632.36 228 224 218
-121.785 513.582 1430.58 180 173 166
410.103 209.782 1976.16 253 254 244
-32.8676 359.39 1161.27 245 237 234
74.6401 0.580775 1211.01 133 26 0
17.3777 363.138 1197.35 255 251 246
4.39831 258.678 1161.03 255 238 219
65.5053 -2.36493 1209.11 111 74 65
471.211 0.126529 1634.01 51 43 40
40.4613 -8.68664 1392.39 130 81 83
122.215 424.526 1323.18 73 72 69
-27.0744 315.615 1185.3 139 121 122
-46.0508 163.63 1075.61 115 71 69
-76.3428 49.1899 1038.63 255 234 212
14.9555 367.898 1253.14 98 74 72
-31.4831 151.649 1123.84 92 43 28
439.158 -76.0693 1535.94 216 208 202
520.778 215.564 1773.51 73 76 66
-56.548 86.0859 1068.88 138 124 114
58.0844 119.268 1188.93 133 84 61
-75.587 172.935 1115.82 40 31 17
512.288 39.0212 1732.76 255 251 246
-76.9903 563.218 1527.6 181 173 159
55.0671 113.314 1187.89 244 215 189
-12.415 289.594 1186.87 105 89 96
422.235 -30.7838 1542.98 253 218 194
-61.7387 73.3633 1112.29 250 242 229
464.896 -32.1143 1626.61 255 240 224
15.1207 343.057 1141.25 247 231 228
17.0911 264.054 1191.4 103 69 53
-67.0346 83.3399 1066.56 240 190 179
448.982 284.769 1879.06 38 60 57
452.341 336.316 1687.43 75 111 110
-101.561 456.572 1260.11 83 80 71
472.324 262.588 1670.7 70 102 121
64.371 211.442 1272.77 115 98 86
441.46 -38.4232 1543.41 118 74 60
439.619 -68.5816 1537.44 87 77 73
79.9397 187.908 1253.21 253 249 252
60.9948 174.913 1248.44 114 96 90
559.594 -25.1672 1720.69 253 241 224
417.477 -83.3905 1459.15 55 39 32
-59.1608 195.789 1120.78 88 72 70
544.65 276.608 1887.71 231 255 255
-16.728 425.829 1190.15 249 241 231
10.6263 252.276 1097.37 105 83 76
83.1451 194.287 1254.35 145 140 135
-78.0732 70.5116 1108.63 242 160 150
-22.4435 389.048 1217.43 129 119 120
-28.4106 393.403 1245.2 253 252 254
-28.5831 277.118 1171.38 91 49 19
1.68204 1.8467 1119.72 169 156 133
416.345 13.184 1431.99 132 106 105
61.1594 199.941 1250.56 253 244 234
-67.0882 115.11 1068.46 253 252 239
487.059 344.324 1770.43 187 233 244
29.1137 297.603 1195.95 134 110 106
17.1881 438.568 1230.01 95 70 54
-32.9003 222.188 1150.1 255 245 204
-50.4084 287.706 1178.52 117 113 102
-43.662 98.8736 1220.24 162 158 153
8.23371 278.61 1190.51 124 122 123
66.3342 147.982 1218.75 241 202 176
70.2955 138.077 1211.86 168 124 93
60.6511 579.529 1307.22 83 118 103
13.6919 317.054 1218.99 96 69 62
-79.0375 186.576 1165.55 172 146 130
477.889 -23.4332 1549.6 255 244 229
22.955 240.347 1191.04 254 252 252
-27.4805 75.7703 1074.01 132 140 135
40.2598 121.94 1185.77 235 215 196
73.3441 173.347 1178.2 255 246 233
-68.2696 94.7841 1187.84 249 225 216
-9.75882 473.594 1253.75 255 254 237
-31.4211 263.009 1107.03 200 191 171
-51.697 110.836 1091.19 100 111 116
67.6472 208.96 1197.59 150 139 132
76.6917 175.297 1251.52 181 160 145
430.997 -15.5115 1546.73 239 213 205
505.352 -10.0604 1633.38 246 238 236
477.967 -82.6183 1592.18 240 237 238
524.261 -25.8796 1594.53 152 135 120
533.256 24.0884 1738.02 252 249 248
-16.3058 464.031 1224.65 137 110 82
-14.5776 302.286 1136.24 247 254 246
-41.6907 305.915 1181.55 116 113 113
-69.6747 96.5928 1066.81 228 174 159
67.2036 576.826 1308.39 184 212 198
492.224 -97.8092 1617.93 249 245 243
124.54 226.932 1344.13 156 133 106
-167.911 47.8881 1161.73 153 128 116
606.5 -166.196 1687.16 249 249 236
-84.7451 189.415 1164.42 200 183 170
-36.8868 268.326 1106.28 152 157 150
-86.1829 464.43 1264.58 85 78 72
61.743 127.552 1238.24 235 188 170
-150.574 521.266 1503.07 42 31 19
-28.5417 355.075 1180.15 253 251 254
-12.2205 252.688 1110.21 159 113 87
8.60273 98.812 1204.48 255 242 235
94.621 594.402 1378.79 115 141 129
39.9755 353.572 1257.5 210 206 184
7.95661 422.27 1226.75 174 163 164
-5.95857 116.768 1149.4 255 247 224
-15.0898 411.078 1096.94 68 44 30
-51.2434 38.6348 1066.96 254 237 224
397.284 -55.7559 1496.07 143 118 110
528.883 -8.09676 1637.04 241 213 197
500.648 190.839 1675.47 93 82 63
-22.6273 419.259 1188.19 205 198 187
455.283 -68.7227 1538.83 160 158 155
57.9433 187.322 1248.88 223 208 202
-113.237 100.509 1102.84 146 124 112
523.897 260.954 1783.43 222 251 255
68.7822 422.325 1267.51 159 152 134
590.264 -246.431 1666.13 215 230 211
-67.1183 133.783 1069.55 156 128 110
465.279 36.6572 1641.09 158 153 153
-21.2532 265.354 1183.48 250 198 177
526.35 69.4418 1653.47 255 250 217
78.066 -51.3224 1287.14 90 62 42
-40.7274 75.595 1071.4 208 197 194
355.961 -7.40855 1705.48 10 10 1
453.283 261.006 1441.32 149 161 158
538.884 -12.3817 1722.46 248 235 228
535.712 -50.4818 1712.93 255 246 230
459.041 16.565 1432.42 142 113 90
-59.2855 179.404 1073.76 128 120 104
34.2213 426.382 1180.19 241 241 241
-183.957 67.7724 1132.03 96 41 20
-25.9339 134.976 1123.88 151 102 101
-5.44826 469.159 1411.39 255 250 241
-78.2546 145.061 1113.49 224 195 184
27.2921 318.127 1252.51 218 184 173
538.326 -121.078 1695.56 239 203 177
610.14 -129.598 1696.73 237 245 219
476.434 338.625 1894.59 100 125 120
610.954 -121.372 1698.87 180 188 159
-8.34118 468.169 1247.63 153 132 110
519.955 -16.1833 1634.62 136 119 117
65.2507 314.444 1204.12 199 197 176
-67.4995 257.261 1122.56 111 87 83
48.8507 -27.8058 1141.07 140 110 91
-18.037 95.8177 1220.72 255 255 242
-166.969 237.167 1259.45 99 45 26
-8.48219 32.7252 1096.02 200 135 122
-20.4187 84.8115 1121.55 255 248 234
523.92 36.5713 1646.31 199 169 158
55.3773 375.328 1132.31 249 248 219
-59.1382 176.176 1119.58 194 141 121
-20.2308 71.0903 1144.15 252 252 243
544.792 -68.1913 1624.82 252 251 224
429.139 -204.238 1374.97 168 196 191
-99.3206 549.525 1520.18 174 161 151
545.662 -238.685 1599.7 200 220 227
143.3 170.641 1263.28 255 249 224
5.32124 299.434 1191.19 169 145 143
574.934 335.1 1803.79 163 170 171
110.082 51.4644 1246.18 255 241 228
90.3895 302.184 1232.8 254 254 247
104.268 -50.5421 1181.91 236 218 196
533.891 -243.285 1688.94 186 210 203
580.198 -118.302 1820.47 227 204 181
22.4698 109.902 1181.37 188 146 120
-107.084 110.848 1153.76 96 59 56
-72.1843 430.524 1177.98 128 117 106
-4.09733 33.8222 1169.99 255 233 213
547.915 293.391 2103.43 89 122 124
669.004 114.649 1876.87 243 245 215
14.649 237.039 1096.17 213 161 149
-80.6325 35.5676 1047.93 215 186 163
-4.37461 53.7576 1224.66 197 120 109
410.445 27.4681 1435.86 112 96 98
103.329 171.527 1315.67 189 169 157
-80.1853 125.589 1066.32 113 61 46
-0.552166 485.137 1318.26 171 148 125
478.231 272.748 1504.44 172 178 177
-17.3733 130.931 1031.02 253 209 189
-61.2445 158.434 1049.91 204 198 199
130.489 95.235 1381.72 255 243 209
701.212 -170.901 1938.22 233 236 215
603.23 -113.025 1700.72 147 150 117
489.926 443.36 2029.18 101 121 112
-12.0409 107.221 1124.78 246 221 216
-33.1378 126.84 1242.84 197 180 179
-27.4158 178.945 1080.45 225 152 135
-12.9596 98.8243 1067.64 222 174 165
120.616 96.5202 1310.89 254 242 215
84.6556 407.34 1269.83 119 107 92
42.9971 617.526 1369.65 111 142 129
114.06 334.932 1420.36 164 165 167
-48.4577 229.932 1145.75 237 224 203
113.89 342.281 1436.16 173 173 173
-146.564 62.4385 1224.1 152 125 106
-25.7264 430.197 1139.87 153 130 105
