-117.77 -38.6511 1690.36 235 215 211
143.761 366.042 982.985 227 233 232
44.3985 286.233 941.58 186 183 171
84.3601 352.907 995.048 192 181 174
-103.854 90.4018 993.982 194 185 180
5.09506 24.5647 1098.02 250 251 252
60.8913 268.181 943.691 187 160 148
-28.9115 46.89 1029.69 30 30 45
-221.051 -89.6653 1561.34 179 154 142
-189.473 -81.4157 1417.37 226 200 182
230.247 373.661 1006.94 203 176 164
-7.00272 85.1313 938.01 225 225 217
93.1762 294.993 958.617 226 210 202
124.961 1.2359 1012.39 255 253 242
97.9041 12.6974 1026.12 239 231 227
130.744 345.564 956.261 182 192 193
88.0391 29.4996 1039.8 244 251 247
195.958 39.3627 919.238 46 44 39
194.237 37.6966 965.616 146 158 154
-170.466 -100.569 1494.74 210 183 164
165.811 408.792 1092.09 24 25 25
-0.41485 83.0078 926.677 242 239 242
124.536 1.24036 1051.96 225 206 193
16.014 16.5386 1099.63 239 227 224
-206.536 -78.1147 1487.6 204 177 160
46.8351 314.674 942.738 203 178 168
237.115 183.823 964.739 27 5 3
140.513 -9.62271 1096.03 217 211 196
-202.129 -84.0853 1530.03 203 175 156
188.754 380.743 1040.7 244 182 179
94.162 25.3515 1026.68 101 108 109
-177.645 -100.428 1492.66 201 174 150
-221.177 -31.1271 1738.2 176 159 155
8.29716 -45.5187 1633.8 82 75 74
95.4374 22.825 1026.64 50 56 55
85.4725 -3.98148 1088.18 69 18 8
33.8427 8.07047 1057.65 237 229 233
39.66 25.5964 1153.07 241 204 195
156.09 377.331 996.816 160 150 154
87.9052 284.418 983.918 184 175 156
-267.934 -89.1735 1458.42 254 247 221
135.656 10.1078 1032.16 196 201 197
182.996 382.919 1050.36 236 207 202
-193.526 -10.8091 1574.96 139 144 131
247.591 383.8 1048.89 85 45 27
214.46 280.425 1040.74 186 168 161
-123.885 -119.994 1581.04 153 129 111
154.7 272.49 945.915 6 9 5
-57.0182 90.8517 987.655 207 245 245
228.311 241.871 1024.29 44 30 15
-11.0773 -117.05 1709.57 23 14 5
101.028 289.718 972.983 209 186 179
159.145 -4.0637 1056.35 110 109 100
106.118 312.04 974.865 207 210 198
-59.6292 79.9748 916.299 47 79 76
-66.9069 173.409 929.9 124 124 115
-37.9721 90.5927 899.661 189 205 205
237.301 249.746 1015.09 119 126 130
-39.8051 47.9431 1114.89 217 183 164
140.435 81.9589 926.296 181 171 148
120.162 -32.2848 1136.87 74 65 55
-186.124 0.853836 1578.84 160 153 151
-283.247 -3.33547 1782.33 230 210 194
234.918 287.491 1015.49 144 152 152
173.433 12.0307 998.361 85 85 76
-59.5524 96.8793 951.004 81 107 99
-76.9282 94.093 1023 88 97 94
-127.859 -100.514 1550.97 238 222 206
217.56 242.766 986.538 45 62 64
160.919 1.09789 1017.17 114 112 104
177.069 404.677 1066.66 173 182 185
-215.162 -41.2775 1628.37 142 123 115
89.7206 -5.18953 1066.28 75 28 17
-54.9486 -50.7578 1677.18 180 153 141
-253.069 -6.95136 1556.1 159 149 130
-45.492 90.051 953.296 73 96 103
221.942 301.897 1066.9 155 159 155
183.526 246.013 970.556 138 117 111
195.07 251.9 984.262 99 69 49
-279.163 5.46202 1784.63 145 123 101
-256.606 -96.3075 1608.39 51 35 23
-59.4408 85.9983 986.949 93 137 134
-64.0593 88.07 884.097 105 119 111
-39.1379 -72.8583 1458.21 98 125 115
215.024 231.285 939.443 121 133 135
165.047 8.37998 981.059 190 191 179
12.425 47.4284 1014.24 167 131 114
-260.51 -88.3613 1607.92 189 165 136
-123.138 -32.7496 1711.91 49 29 25
-24.2856 64.6534 955.905 110 69 58
164.114 467.281 1001.49 156 158 153
-232.502 -9.85904 1412.44 229 210 194
0.0435065 93.4103 906.051 56 62 64
-214.493 -46.1188 1658.74 185 157 136
195.991 263.338 972.466 96 78 69
106.919 222.074 916.11 108 44 23
199.485 125.804 957.325 86 49 41
-111.673 76.0468 1014.87 160 156 143
27.0208 24.5557 1102.07 205 181 154
188.722 311.28 972.13 32 51 66
123.909 -9.52531 1093.62 217 174 161
95.0438 272.233 937.3 170 148 134
-95.2672 96.5652 957.901 203 238 229
222.451 280.724 1041.83 111 98 101
-292.324 -123.035 1620.51 179 187 177
274.914 322.233 998.242 100 75 67
72.0807 30.847 1088.6 208 172 163
168.427 371.062 972.706 64 47 55
64.991 296.907 961.206 194 194 187
33.0857 337.212 964.043 147 136 133
33.0122 315.316 963.076 126 86 70
-120.187 -100.771 1584.85 172 159 144
24.194 347.138 975.296 174 161 154
217.601 271.012 940.299 103 119 128
-95.5643 -139.817 1655.13 154 126 100
120.736 288.21 975.91 92 47 35
-117.015 104.506 976.324 193 181 172
130.204 217.604 888.214 84 57 54
115.005 202.728 970.162 187 109 93
16.3212 339.173 938.247 166 150 146
138.13 300.468 1030.57 62 39 23
-315.949 -142.548 1689.21 215 213 193
43.648 314.017 977.662 102 64 49
153.305 316.865 982.15 46 81 93
87.0251 231.044 902.524 173 100 76
150.803 270.78 931.843 161 183 178
-167.147 -97.637 1352.31 73 45 29
-354.191 -148.986 2034.27 166 166 155
-2.67683 54.7626 1011.88 163 132 126
121.701 -14.2825 1050.42 152 115 103
-184.479 57.883 1373.22 177 150 138
111.606 231.356 917.078 104 42 22
155.351 275.026 980.234 119 112 111
126.807 223.592 999.34 125 76 50
-6.79196 52.5578 947.334 248 223 201
-157.651 -21.3542 1496.16 121 105 102
159.893 323.284 1059.43 39 66 54
166.557 250.139 1032.71 53 23 20
-15.2154 54.6591 1009.63 146 127 114
265.797 321.565 1049.15 53 29 24
176.388 170.81 907.789 117 60 33
119.815 337.204 1054 188 180 186
