317.929 -78.652 1521.76 242 233 220
-9.09574 18.3049 1219.21 255 241 235
-42.6434 392.225 1133.67 240 240 240
-8.51156 402.319 1158.59 216 207 200
357.26 297.448 1768.03 51 74 83
-1.19809 437.428 1224.74 227 222 215
-37.0369 412.583 1135.69 254 242 223
-25.8384 469.369 1120.43 246 240 231
-15.5989 17.4404 1076.63 104 72 64
44.1429 228.879 1276.96 83 76 64
28.7659 28.072 1324.16 112 53 42
396.282 233.384 1813.34 42 43 30
-4.89612 16.0399 1277.85 116 101 87
-14.984 281.36 1110.91 254 235 227
-10.043 316.566 1243.47 101 80 70
383.784 70.4169 1828.26 120 118 118
-89.041 97.7106 1082.49 241 190 161
11.3388 354.297 1194.6 251 252 231
26.6376 221.018 1176.58 128 119 107
-0.564462 417.661 1251.64 207 198 191
31.0505 165.563 1206.74 131 88 76
387.669 66.9647 1796.44 239 234 237
-28.7938 29.7429 1139.92 255 244 224
-81.332 281.649 1090.78 190 187 173
79.3735 462.956 1318.83 85 82 82
-45.4389 386.331 1132.83 228 217 217
-10.0693 7.98809 1251.85 240 205 194
327.516 -51.2771 1606.85 244 224 211
-87.9192 88.5456 1037.99 108 49 27
-3.43901 392.316 1193.48 255 247 236
354.56 278.636 1746 56 87 98
371.731 47.0529 1718.83 247 234 233
-50.8298 265.354 1199.57 240 220 190
0.0603429 517.105 1345.09 134 119 107
299.998 -137.581 1508.94 184 178 169
-95.255 78.7303 1097.03 253 204 172
28.2074 231.455 1273.78 254 243 232
330.77 22.2111 1612.22 208 205 205
17.0279 171.663 1360.63 126 81 64
345.926 15.1295 1708.13 235 221 211
23.4712 153.117 1238.45 152 108 92
324.255 62.4347 1675.48 214 210 205
-78.4445 100.599 1084.85 232 225 213
-42.6421 298.598 1129.31 94 72 50
313.246 -3.6689 1614.28 239 195 164
29.8729 184.403 1212.89 147 99 75
-86.8801 80.0964 996.895 229 145 120
403.806 28.8796 1916.86 97 90 89
-76.2794 146.254 1066.18 160 84 72
20.6792 141.989 1208.87 245 199 176
-72.5545 219.943 1072.5 91 64 58
20.4317 165.404 1238.84 201 174 153
351.629 -64.5747 1696.31 171 152 146
-62.557 204.463 1141.09 138 102 92
432.744 0.45808 1918.96 255 251 240
361.024 -47.9443 1700.57 212 204 203
372.425 59.8922 1721.74 243 246 246
-73.2413 203.343 1089.92 143 110 96
-35.8723 416.847 1187.75 120 111 106
419.733 -84.2059 1904.52 255 254 240
-131.098 131.507 1074.72 165 145 133
-78.9255 258.738 1012 155 131 126
382.515 49.1951 1719.51 255 251 252
412.772 0.329284 1713.24 150 139 138
-9.28628 448.91 1194.87 128 118 123
349.529 -5.9571 1705.43 253 223 212
6.67565 487.647 1232.92 35 38 34
-190.097 80.7965 1106.38 168 142 125
39.2184 203.244 1245.68 173 165 145
-46.5976 161.762 1109.25 121 90 89
18.5631 167.326 1230.38 173 133 117
26.7776 202.825 1243.12 174 152 138
-64.8466 308.589 1125.06 117 106 99
432.204 -1.85974 1823.26 250 243 237
-95.6366 152.717 1038.69 77 29 24
5.71174 135.146 1115.99 238 205 184
232.831 -145.269 1662.1 66 71 68
-42.6439 378.007 1133.06 141 128 131
-59.7922 114.455 1089.3 152 151 144
195.418 -120.394 1658.86 13 13 0
-197.803 276.533 1222.76 57 11 5
361.939 -19.6783 1617.48 250 242 212
66.0836 644.557 1408.97 119 141 127
-24.5108 358.684 1116.47 153 106 112
24.7515 191.945 1232.34 192 165 141
-73.4232 216.538 1168.17 179 147 144
-89.9483 127.762 1099.49 188 120 87
413.457 -95.3178 1802.55 233 214 191
-42.6438 332.583 1130.99 184 149 144
-49.303 168.284 1032.03 181 153 140
-31.3923 467.278 1138.93 116 96 73
17.7854 187.042 1210.57 255 232 210
-35.8583 461.685 1189.76 110 84 68
63.4411 92.1317 1241.06 240 185 164
329.682 -30.2472 1774.1 154 126 118
415.959 -79.2389 1898.57 162 164 165
34.471 -10.5455 951.658 246 232 206
-89.2176 200.008 1086.43 104 79 80
81.2523 483.005 1361.39 97 95 94
2.24946 282.852 1243.86 187 141 136
451.909 57.3296 1919.22 248 229 218
344.101 -16.1677 1671.92 137 98 93
-3.80238 348.249 1246.86 166 133 130
25.4206 128.687 1182.85 186 135 107
18.0961 117.974 1084.83 254 239 210
35.6396 182.767 1296.59 249 237 205
395.791 374.089 1890.03 158 176 171
178.243 -194.905 1720.69 213 212 206
-22.0493 315.178 1287.86 143 97 85
-42.6405 278.81 1128.29 184 130 107
328.93 -21.2579 1586.55 252 245 232
453.53 -204.749 1786.32 224 233 214
-31.4717 343.222 1167.02 251 253 246
433.978 -225.885 1779.25 174 196 199
-56.7155 229.245 1196.72 244 228 209
236.725 -157.457 1660.82 117 118 116
5.50172 78.8718 1202.28 182 140 124
-54.1647 330.318 1147.33 145 127 132
274.76 -179.457 1655.49 118 105 105
-59.2402 95.1046 1068.5 178 172 170
59.0356 650.961 1407.75 207 230 218
34.7892 238.729 1192.48 192 180 174
-25.6946 343.563 1168.17 160 126 124
-28.7286 145.865 1145.69 254 225 205
73.0149 223.543 1282.55 187 178 171
-35.6066 28.4291 1090.34 200 175 154
67.9154 99.7729 1300.17 251 226 200
17.3896 177.697 1239.2 226 177 156
-48.7714 111.765 1158.58 177 159 151
524.176 144.897 1981.91 234 230 208
-9.0188 256.938 1066.62 140 109 80
-19.5234 117.201 1077.68 225 218 208
366.566 -25.9995 1782.01 170 141 137
-54.054 290.732 1018.93 135 132 136
26.7837 -21.8655 1280.41 124 99 75
-63.3097 304.349 1119.78 221 221 213
12.7229 381.099 1233.43 200 188 165
-223.487 109.622 1150.69 77 29 20
-50.5276 505.217 1188.35 107 103 94
-21.1932 379.097 1189.06 198 136 119
383.009 266.543 1765.98 159 175 176
408.055 406.343 1955.09 169 193 190
19.1882 656.848 1365.8 154 170 162
22.5069 517.143 1323.93 87 97 108
210.731 233.365 1474.44 41 57 62
503.624 -108.668 2157.76 234 218 192
415.65 47.1814 1724.16 191 170 160
-50.5907 31.6858 1271.48 224 198 180
-83.8492 162.407 1086.18 184 103 76
-56.813 10.0005 1133.1 154 154 142
469.739 -86.9245 1812.49 176 175 149
-26.643 539.27 1314.08 231 220 205
-91.3737 203.166 1054.15 176 145 127
303.472 12.8252 1458.19 136 112 101
-85.6788 179.495 1152.57 219 211 210
-28.727 35.3745 1185.83 251 223 203
444.141 -85.9748 1704.35 199 204 183
425.335 -217.166 1779.84 184 194 195
-41.1206 320.521 1283.78 254 192 154
-25.5405 179.45 1230.22 176 135 109
-47.3126 171.461 1067.66 177 146 130
418.555 -45.9513 1703.22 255 255 222
-30.1786 -15.384 1269.31 133 147 141
-55.8791 484.541 1163.48 71 57 44
5.6688 76.4554 1259.86 255 242 229
436.396 -7.09406 2060.73 214 195 172
665.526 -290.026 1223.17 121 118 116
-50.4558 297.005 1178.24 225 196 167
-47.2047 81.1479 1058.79 255 253 247
277.372 61.3719 1702.72 135 111 90
-38.8201 135.998 1170.28 245 218 197
-47.3257 599.37 1413.57 147 142 131
-20.7954 224.878 1076.98 174 151 137
-88.3547 62.7614 940.721 169 138 108
80.2402 258.891 1351.08 249 236 218
-108.981 189.126 1063.09 91 46 26
69.7068 109.576 1302.37 255 242 218
57.4224 74.7089 1161.58 254 228 200
57.5629 95.2417 1202.78 251 215 202
-4.25854 279.517 1160.1 245 211 198
-67.9498 21.1575 1131.35 115 85 70
-28.7258 62.6492 1176.05 255 225 205
4.06247 448.106 1147.53 255 252 238
-155.563 92.445 1115.23 138 113 98
1219.45 -511.497 2215.42 112 114 110
-67.495 21.126 1207.96 109 83 69
4.75206 436.303 1124.54 218 209 184
311.097 104.202 1451.77 117 98 75
-43.0108 290.535 1163.94 180 107 72
260.226 -201.79 1820.81 202 163 156
