-249.251 93.677 1002.13 212 207 198
-103.13 3.5093 1054.06 255 240 237
-109.145 -5.98484 1121.04 243 249 244
125.105 310.066 1028.84 210 199 195
-5.8904 -24.6267 1093.35 252 247 242
-457.739 120.924 1512.32 249 244 237
-10.7338 180.73 828.434 200 190 187
-486.957 79.9865 1479.98 155 143 133
-424.685 137.287 1528.91 223 217 207
-337.939 455.369 1794.37 235 231 224
52.1608 219.678 950.997 234 224 216
-485.421 312.982 1610.57 223 216 210
59.0136 469.177 960.988 38 51 42
127.494 -28.1065 1028.95 71 67 50
-581.121 18.4308 1523.24 231 217 201
-142.956 88.1315 869.234 19 25 24
-447.093 263.627 1542.19 99 76 59
-419.681 228.081 1460.73 188 163 150
-60.1813 145.514 837.062 252 250 244
-245.388 92.1781 946.964 223 214 212
-432.243 118.362 1604.25 226 219 213
-240.962 94.2616 948.097 49 51 47
-590.25 38.6313 1375.02 225 207 183
-481.235 7.74034 1259.92 220 204 188
-468.187 26.2435 1650.06 193 232 228
58.2718 292.395 979.378 211 206 196
-11.3068 173.604 804.633 155 149 147
13.115 -21.7873 974 249 255 248
79.8071 307.378 1033.58 195 174 170
-45.4827 54.4217 951.573 240 248 245
-79.7815 65.4818 911.957 9 28 25
-135.887 96.974 881.972 187 218 217
-123.823 29.5924 971.441 95 96 97
35.0123 -17.7985 1015.19 246 255 255
13.9785 404.925 963.51 250 253 248
8.87536 378.451 927.58 249 253 247
124.065 314.445 1084.05 182 182 177
-17.9365 258.79 897.704 196 194 191
-59.5369 140.314 818.724 49 41 39
-563.311 95.9841 1449.33 198 197 195
-402.465 98.318 1245.98 79 61 55
-23.7529 -13.268 1046.27 237 231 222
-109.484 351.128 1071.52 117 110 109
-589.961 38.2218 1491.74 161 149 126
-528.712 114.51 1634.96 203 173 168
44.2268 236.787 939.907 183 177 163
-236.847 186.746 1033.02 202 204 203
-405.182 284.827 1474.69 77 61 54
-69.7447 112.411 799.956 141 141 128
-393.253 225.578 1470.57 177 157 152
-119.81 131.958 906.832 248 253 249
-64.287 137.082 836.223 231 226 217
-456.185 325.178 1322.38 255 248 239
77.7826 242.238 980.696 191 148 155
-17.9337 263.231 897.837 108 106 103
-392.352 103.764 1535.81 52 24 5
-535.512 30.4524 1307.91 148 129 111
-524.42 30.5555 1312.73 183 166 149
-428.134 79.6937 1294.49 19 2 2
-72.0283 107.855 825.643 156 157 150
-177.584 83.1842 962.294 177 168 164
-540.007 80.805 1372.15 173 162 147
-408.994 299.542 1475.38 155 134 126
-453.25 247.567 1536.88 206 181 170
-522.601 350.206 1499.99 255 245 236
-424.793 260.55 1383.83 160 134 118
-434.983 307.206 1327.66 172 172 169
-573.822 130.246 1363.65 245 235 225
-4.75888 186.886 856.955 204 188 189
-153.994 97.8789 911.071 202 202 197
-141.148 42.402 997.842 240 181 174
-160.321 37.3711 993.667 85 92 79
-132.282 299.523 1021.19 252 247 239
-571.226 137.133 1365.6 185 155 139
-115.226 73.9041 905.545 54 57 55
-14.315 -4.3987 1071.04 100 93 92
-344.761 100.921 1392.21 216 212 186
-620.423 100.003 1485.12 192 158 146
-404.236 93.1483 1514.81 155 121 112
-123.058 108.635 854.112 219 217 200
-41.492 129.198 831.38 151 149 139
-0.214442 204.258 931.509 71 54 57
-136.944 44.1775 1041.07 56 73 63
-399.489 52.1437 1365.79 149 130 118
2.27949 329.858 935.784 75 72 64
157.839 168.146 1027.23 61 62 57
-33.9246 4.62908 1004.37 229 215 198
4.66041 371.962 937.187 246 254 247
-119.826 97.1713 874.036 86 104 104
-143.031 343.642 1129.27 255 251 243
-509.325 38.4521 1252.12 162 148 121
-463.903 304.119 1316.08 161 142 129
-78.6474 111.281 852.484 240 246 236
171.604 114.13 1066.48 76 47 33
-72.1375 31.5609 998.075 132 87 75
-39.8278 164.059 703.71 229 234 221
-409.286 32.7303 1566.53 67 66 60
-28.0432 161.648 862.773 31 24 19
-28.7222 452.012 1047.89 125 124 112
-509.576 319.897 1438.61 253 243 242
-48.6618 46.0497 784.536 217 209 206
-15.753 -1.72884 1064.1 177 179 183
-204.772 330.309 1198.9 83 86 84
-251.777 204.246 1114.71 66 62 63
-362.809 23.7316 1374.41 53 56 54
-166.776 89.489 929.144 164 129 121
-489.007 255.105 1366.63 136 125 97
-0.717045 22.7777 994.231 32 88 86
-79.6932 -17.8608 1178.44 212 181 156
131.745 534.672 1108.67 46 81 99
-559.783 269.696 1495.14 245 226 204
-86.5093 36.5171 969.4 248 231 225
-66.7815 215.97 822.25 97 100 87
-602.244 148.48 1443.94 251 239 220
-11.4648 286.009 889.062 238 248 238
-482.653 -5.29372 1398.86 143 125 109
-25.9049 170.336 863.389 155 144 136
-447.582 275.385 1544.02 247 227 213
-554.805 306.577 1580.2 145 131 113
78.5453 227.917 966.006 215 202 184
-578.845 113.152 1359.41 224 203 173
-417.983 272.704 1468.01 118 92 80
-409.992 63.5738 1569.48 153 129 125
-144.057 41.9047 1047.42 225 165 160
168.352 167.816 1049.16 148 143 137
-90.031 16.1625 1126.41 150 127 122
-470.68 175.251 1230.53 106 93 69
-88.2302 -21.5204 1145.43 144 112 104
-80.1133 111.73 824.376 136 145 126
240.109 343.126 1114.51 38 2 0
-70.9113 103.01 803.448 53 65 65
-170.405 94.1867 953.898 194 162 148
-157.465 208.814 972.283 243 238 222
-691.302 70.0935 1552.64 111 80 41
-607.758 57.8786 1352.48 234 212 178
-74.5586 172.707 855.15 251 253 253
-110.321 67.4821 939.896 131 155 153
-0.0474095 373.739 971.855 253 254 243
-464.339 299.707 1384.77 112 104 102
-125.918 344.104 1007.32 164 161 146
-86.3907 12.3874 1033.68 255 206 183
-28.798 -31.2044 1136.5 199 175 164
-164.675 325.747 1123.49 255 252 241
-35.3338 160.255 833.31 158 156 153
164.816 203.432 1087.21 120 103 93
-110.979 36.1015 990.571 155 133 109
150.208 532.242 1138.47 155 179 195
-406.244 394.63 1457.89 124 126 126
-65.3306 272.584 983.704 132 132 125
96.8654 128.645 978.601 160 115 95
-430.5 66.4029 1501.1 171 147 133
-64.1641 192.427 887.601 249 255 241
-14.5525 115.761 843.82 49 66 59
-4.71989 128.272 895.592 60 64 62
241.583 295.631 1200.17 50 20 17
-64.675 256.205 932.1 157 157 149
-115.325 105.198 906.709 160 178 178
-633.189 225.696 1601.95 255 250 235
-85.2537 27.677 1036.18 168 137 129
-358.7 84.3259 1461.91 128 120 114
-416.702 48.0626 1565.26 46 50 48
138.181 313.321 1030.96 153 133 135
-35.1426 150.802 799.239 73 77 70
-111.742 98.2534 846.094 74 86 86
137.427 231.945 1083.93 41 50 41
125.469 531.641 1122.66 89 131 153
-120.732 98.3095 904.744 243 255 254
-71.1326 195.347 896.31 253 254 253
-65.2476 23.3327 1012.58 241 211 196
-127.358 99.3224 883.665 147 168 169
-233.377 309.308 1246.85 255 254 251
-98.1724 105.279 821.031 174 176 157
-142.96 80.0997 912.788 40 64 53
-439.895 185.888 1128.89 150 124 115
-544.008 153.75 1321.59 236 222 195
-537.003 248.529 1415.98 172 146 127
218.832 269.701 1105.86 118 85 74
-44.8393 -15.1182 1186.15 143 138 117
-171.37 79.5817 907.016 155 143 139
-28.0499 138.239 862.004 56 60 55
16.3398 273.367 836.002 175 156 141
67.8477 224.797 978.423 171 161 140
-24.4846 249.454 912.325 62 59 49
-87.2144 179.106 870.95 190 197 188
-4.89282 356.502 970.537 240 253 241
-96.7621 20.7766 1077.53 164 110 90
-589.772 36.0763 1284.4 146 135 119
-641.919 365.679 1849.64 106 84 68
-164.131 36.5884 1042.55 226 204 211
72.8588 244.484 979.995 136 121 111
-201.034 296.64 1115.96 175 173 174
-140.41 69.5187 969.779 183 203 202
-539.49 237.601 1413.17 201 183 171
-111.753 102.427 846.222 115 121 106
-179.507 101.91 1033.32 151 120 105
-101.335 40.8737 992.671 184 166 159
-476.034 351.731 1389.41 180 149 142
-7.54571 455.875 1010.77 138 138 120
-24.6636 289.697 886.895 240 253 239
-431.417 -7.90031 1585.2 109 109 96
-95.1965 96.9186 762.103 236 244 230
-25.9431 230.724 855.202 120 118 104
-12.1142 356.034 969.236 249 255 251
57.417 204.999 896.719 48 11 3
-525.054 337.838 1597.43 203 195 191
88.0398 124.389 928.475 104 48 27
-75.0132 169.153 864.044 249 254 243
-515.122 304.73 1434 226 213 191
162.96 199.113 1148.08 85 54 32
-390.578 58.1377 1528.22 84 82 77
-582.113 328.556 1495.81 159 160 154
-527.383 108.454 1379.43 40 41 34
-519.25 173.913 1338.59 66 50 34
-396.036 247.858 1157.59 110 99 86
-516.83 159.514 1263.71 255 251 223
-383.509 378.492 1417.21 22 28 26
-201.997 298.663 1113.42 253 252 253
-517.877 297.183 1431.69 163 148 127
-131.362 215.952 941.67 254 251 228
-478.478 -8.39584 1354.93 128 120 108
-203.197 178.37 979.558 250 245 237
-166.006 199.131 1009.04 247 237 216
-55.8886 161.384 867.128 119 112 106
-68.2889 192.079 856.832 229 228 229
-132.263 294.439 1020.98 248 242 235
-520.12 96.8245 1432.81 125 120 119
122.77 155.685 929.971 153 125 107
-100.422 35.1134 1033.39 184 140 135
-733.211 113.224 1483.57 242 244 239
-55.45 217.023 889.955 245 253 238
-101.013 16.095 1124.01 230 170 147
-57.6422 225.836 889.816 249 254 236
-313.623 361.302 1562.43 103 94 75
-137.748 285.227 1001.4 243 214 203
-795.345 121.745 1623.13 254 253 246
-614.397 169.388 1368.14 167 157 145
171.685 342.761 1190.71 211 147 136
148.034 182.53 1067.33 141 115 101
-268.014 109.138 1088.09 148 146 141
-28.9696 301.186 911.802 158 172 159
-158.2 156.69 933.684 150 140 117
-83.4412 -14.4917 1050.51 69 46 44
-178.073 201.462 1006.31 255 251 230
33.4734 416.576 1027.62 58 51 42
-147.942 290.054 1060 241 214 207
-147.415 69.4254 968.279 203 219 214
-158.248 165.935 934.05 124 122 109
-552.662 212.769 1469.83 112 109 88
-124.811 284.696 1022.18 199 182 178
-527.974 173.331 1309.46 208 175 160
-35.8324 45.3311 907.96 129 132 133
-29.1314 138.169 848.48 98 95 93
-95.7149 250.836 855.196 179 162 151
-436.857 215.603 1193.62 175 166 154
25.735 380.334 940.911 169 162 150
-191.181 262.872 1114.64 254 253 237
-116.673 5.84861 999.918 112 94 96
25.6068 308.106 939.054 115 104 97
-37.9525 218.972 902.556 180 179 159
-17.9242 276.674 898.191 230 231 223
-31.1818 277.685 843.782 244 255 249
155.71 340.695 1121.12 79 46 39
-106.994 62.9402 875.31 242 253 248
-32.4128 297.601 928.877 245 254 242
-47.194 222.874 861.361 246 255 245
-512.068 175.641 1267.59 255 251 235
27.9384 301.248 939.249 174 155 145
-557.614 183.055 1396.5 129 86 68
-558.598 100.967 1289.54 219 189 160
-209.443 187.33 1015.07 255 252 243
