-59.0167 352.022 1063.37 239 224 208
10.6031 43.3228 1100.04 104 61 46
572.832 -29.7858 1342.18 87 86 85
-13.6693 -16.2355 1028.54 234 211 197
757.509 292.68 1540.94 40 58 56
-18.7629 -13.6648 1027.79 38 21 10
-77.8072 210.448 1071.59 254 236 201
-6.99502 359.786 1167.31 248 241 227
48.1408 141.607 1092.21 85 52 27
55.4414 -17.3833 1082.24 54 0 0
-5.29762 -14.5352 1008.38 255 252 236
97.6216 126.272 1099.69 74 41 13
-16.4553 409.199 1221.15 215 211 205
593.11 -36.7916 1410.74 220 215 210
663.519 233.683 1527.28 46 77 104
-15.3458 353.521 1190.5 68 38 33
784.346 -279.195 1445.97 217 247 232
23.5253 114.01 1085.98 67 33 16
125.037 191.603 1206.89 86 57 45
34.3383 103.373 1087.25 242 217 194
-21.7891 314.511 966.299 232 233 231
726.183 -42.5555 1483.11 245 213 212
-6.54883 376.061 1120.43 238 236 230
614.676 8.46877 1419.77 230 229 232
39.8017 108.881 1088.59 146 92 64
45.3809 136.122 1091.37 245 231 205
768.189 249.905 1706.6 222 251 253
30.6002 143.075 1003.39 213 201 186
-2.44514 -18.5518 1018.8 56 31 17
529.157 -130.122 1215.01 224 216 211
-14.5728 369.754 1139.94 200 196 193
-20.2047 383.679 1139.42 58 38 38
-47.9388 373.117 1111.52 173 156 139
-28.8996 232.464 1021.21 255 243 238
-23.1091 264.016 1132.6 231 219 202
59.221 163.7 1095.57 254 241 232
33.2422 151.584 1047.06 93 74 54
-46.1715 322.434 1083.83 63 57 50
40.4067 -6.10541 1038.44 255 249 238
-77.9109 264.043 1074.36 118 127 118
24.5198 138.357 1134.05 250 226 211
615.453 -149.91 1391 245 237 237
168.693 400.923 1328.68 58 50 38
50.0979 -3.97635 1082.36 98 34 21
58.6132 130.61 1139.82 123 72 52
70.4011 182.182 1145.6 108 100 87
26.2746 124.884 1087.19 121 91 73
-114.528 64.3317 974.913 235 234 217
-98.5544 164.381 1064.6 54 39 37
618.427 -6.60222 1347.09 255 248 238
9.99723 309.314 1119.11 244 247 227
-12.8185 335.813 1164.21 225 200 185
-107.452 74.1346 976.839 85 70 69
10.6838 81.5453 1102 86 80 77
-20.013 405.519 1157.87 236 234 227
-11.8858 256.025 1134.44 123 84 69
652.837 -51.3393 1345.93 215 204 205
-10.439 325.604 1062.92 214 192 178
-20.4058 389.191 1118.42 74 72 68
124.362 25.7119 1096.46 247 240 220
33.7872 -10.2728 1056.62 112 57 53
35.9206 152.783 1137.22 54 27 18
553.72 -276.67 1434.14 219 185 175
112.026 20.4584 1008.49 255 253 236
698.589 327.876 1631.31 43 62 75
618.687 -112.62 1398 230 237 236
-25.9072 269.557 1132.34 97 84 68
46.1547 89.5641 1064.49 135 87 65
34.1671 113.019 1062.52 218 182 161
85.967 370.774 1079.15 169 189 197
556.944 -77.1511 1278.77 252 251 241
682.964 224.963 1532.58 175 215 232
90.3909 154.13 1147.17 149 118 94
11.7349 99.6189 1059.34 245 219 208
-56.3018 269.424 1058.73 252 250 254
15.3466 242.09 1114.98 134 127 127
-111.72 81.7572 1015.15 131 100 93
41.0133 121.294 1066.33 240 211 185
545.132 -260.851 1434.71 197 162 159
-28.8359 397.373 1030.52 216 221 207
564.847 -34.5885 1285.46 255 248 245
-19.5841 282.06 1067.11 134 132 126
-124.126 116.122 1056.22 220 190 189
526.787 -97.2592 1253.36 159 151 141
-109.535 157.764 1019.55 231 224 226
633.608 -137.649 1389.47 227 220 217
-73.9461 69.7122 983.298 126 113 110
-6.1334 401.731 1077.13 247 248 242
-6.28904 233.59 1134.24 215 193 187
-62.0791 246.657 1033.72 100 58 45
-66.7006 274.203 1056.84 136 152 148
-9.28449 404.187 1121.68 78 62 53
-93.5067 215.142 1068.47 255 252 241
-41.9765 413.443 1065.61 213 203 192
12.5947 73.4441 1081.3 155 149 142
653.84 204.728 1454.42 193 239 248
-94.3906 82.0191 1018.79 90 88 65
-93.1124 59.7883 979.029 94 91 74
37.3608 176.747 1092.45 255 237 225
-18.4657 444.716 1171.02 168 175 168
-74.8913 74.8371 1064.34 72 59 42
627.717 -146.123 1328.81 225 202 181
60.9731 -1.31429 1084.37 255 237 201
555.348 -69.2341 1278.6 122 118 109
659.231 236.761 1698.44 32 48 46
75.6488 381.88 1204.76 232 234 208
-119.316 78.8189 974.613 255 187 171
-48.1903 326.675 1222.81 248 233 215
615.311 -54.7312 1344.18 254 238 225
708.08 -7.61681 1465.32 255 234 223
0.999136 444.011 1196.51 63 62 60
676.507 214.086 1522.65 182 226 234
97.8481 397.585 1162.8 53 59 71
665.752 -57.9504 1345.1 230 223 218
732.421 338.852 1697.52 63 84 111
15.6987 167.796 1003.06 72 39 30
-126.515 91.6215 1012.5 248 218 203
-28.6655 360.257 1136.57 102 101 93
34.4736 167.445 1112.27 209 175 157
54.6994 160.453 1163.4 145 118 103
49.162 291.685 1125.32 128 134 105
666.562 -11.5695 1353.17 142 95 85
-82.8987 148.899 1067.09 92 61 46
-64.3828 82.5237 1024.9 253 249 246
-126.492 86.5873 1012.24 166 87 59
702.76 228.642 1613.76 21 77 85
115.336 202.964 1176.67 243 221 195
603.943 -135.318 1093.96 228 246 222
-134.364 121.228 1054.2 51 26 13
-56.3211 344.914 1181.1 169 151 155
772.787 -166.47 1388.81 215 233 208
-131.021 61.8654 971.357 188 126 110
547.155 -57.8249 1340.6 184 152 143
-59.6779 106.282 1137.82 187 86 82
-47.9563 401.265 1113.31 151 136 122
693.632 306.788 1615.63 159 194 217
536.436 134.087 1501.18 163 162 154
147.854 92.1487 1151.85 250 239 220
794.014 -149.92 1459.92 235 234 210
703.721 -281.991 1442.52 118 122 116
-114.556 71.5724 975.257 67 63 53
-40.8215 268.613 1082.34 252 233 235
-53.8031 371.201 1065.59 192 186 184
40.1664 189.943 1115.29 125 107 84
-77.638 133.103 1067.28 106 83 73
844.682 307.701 1711.62 100 119 128
753.049 286.685 1626.91 118 143 147
-74.2969 69.025 1152.02 242 234 219
49.5354 206.418 1215.68 77 55 38
-20.2957 275.486 1133.84 255 251 250
812.42 -216.495 1457.37 204 215 198
591.243 -14.9294 1349.81 232 217 226
-89.6107 67.1357 961.571 200 190 181
-19.4039 239.85 1085.18 197 141 126
498.424 -230.162 1252.69 219 179 167
584.576 -100.671 1335.27 146 141 140
564.531 -262.135 1368.99 126 122 123
5.26327 300.976 1191.68 146 130 125
100.804 29.2095 1139.1 255 236 236
111.286 42.0123 1191.68 255 248 221
848.422 -226.919 1512.93 235 252 234
60.6581 400.247 1183.97 122 99 79
-191.551 26.161 1079.53 180 156 137
-71.396 248.624 1113.47 116 77 53
141.873 80.5885 1149.97 255 248 221
766.149 319.579 1706.89 90 122 126
-133.323 52.2301 970.414 219 137 113
-81.1686 145.153 1058.58 154 111 99
127.595 103.16 1149.56 181 147 133
-120.783 165.179 1078.83 89 84 81
470.929 96.8311 1557.5 65 60 48
649.151 277.715 1619.35 54 76 73
54.2246 201.567 1118.86 126 107 100
50.9294 316.416 1150.17 252 253 221
-106.608 36.6136 1013.77 239 188 184
-24.8705 271.088 1065.3 148 138 137
-30.1738 89.0688 1094.47 255 235 220
579.071 -267.089 1367.47 200 179 177
34.2935 92.5811 1086.52 255 222 199
604.365 -245.83 1253.44 31 46 36
23.3853 73.5624 1083.27 194 167 156
621.782 80.112 1416.26 122 120 109
-133.288 45.0247 970.078 223 173 144
167.641 165.51 1211.89 255 241 231
632.798 -87.5941 1339.12 250 220 212
96.9172 44.5447 1093.67 249 234 230
-66.7214 284.805 1057.54 185 156 155
-23.6118 399.808 1047.39 124 129 117
540.454 -112.346 1249.27 255 251 254
-10.5654 313.97 1214.11 85 34 29
649.946 -249.742 1199.67 65 99 92
517.636 -69.1763 1226.16 128 83 76
-56.509 30.218 1065.24 255 233 203
662.641 157.74 1885.06 123 119 112
-46.9881 62.0644 1045.26 253 237 238
-46.069 109.896 1072.38 241 196 187
-48.2677 401.679 1134.33 232 219 207
647.49 300.809 1542.5 59 81 103
-18.7501 266.235 1025.31 252 254 244
-49.3501 239.492 1035.96 163 82 48
630.256 197.573 1524.81 60 90 87
702.898 184.322 1592.41 176 174 161
-15.9763 129.679 1145.23 224 166 147
635.226 164.199 1445.27 85 79 67
835.317 -49.6734 1481.11 232 250 234
619.74 35.603 1299.71 255 253 222
94.4264 523.653 1198.68 88 125 106
-78.9704 263.135 1012.92 56 54 46
571.197 71.0875 1306.23 182 181 167
567.202 51.2979 1209.39 137 133 107
-80.2451 59.1193 1038.52 139 71 81
-55.19 360.546 1128.42 204 197 191
-75.1489 54.0142 1039.33 158 144 142
-102.474 200.812 1084.26 255 247 231
-54.1331 267.931 1079.57 184 168 173
586.887 -37.7586 1284.92 249 245 243
-101.78 66.7871 1016.43 170 154 131
-12.2314 134.546 1204.6 143 113 100
28.8905 251.271 1193.28 162 142 145
123.304 52.8494 1205.46 156 103 71
749.035 -141.83 1368.16 89 95 75
595.875 -1.9761 1417.02 146 122 117
-88.7945 242.357 1009.59 100 99 98
-27.5505 -38.0457 1066.2 126 142 140
484.658 -218.766 1373.09 47 47 46
106.955 68.798 1143.4 255 233 219
106.842 76.3494 1045.35 255 248 233
-41.2843 245.999 998.883 167 156 155
128.098 149.189 1153.2 244 238 204
630.848 -12.4834 1416.72 169 148 151
19.4177 326.076 1144.61 207 203 182
690.253 304.808 1544.09 124 161 170
670.728 -81.7692 1405.12 244 230 217
-56.4304 -22.1016 1061.79 92 64 44
139.864 352.359 1165.14 183 173 160
95.5639 297.339 1182.17 255 244 231
26.5785 265.119 1118.97 172 161 157
787.452 384.772 1716.17 136 164 169
744.141 -18.7704 1485.96 226 183 168
490.337 -229.386 1365.84 36 35 32
808.675 51.882 1579.64 153 149 125
-12.6634 442.284 1172.08 64 69 63
-62.2051 500.348 1305.96 132 128 118
-71.7987 224.507 990.876 208 175 156
-19.5003 123.868 1078.49 143 116 94
-55.8372 317.301 1039.63 242 231 233
671.126 197.292 1452.91 146 168 168
131.942 244.426 1181.14 223 222 211
714.853 -4.10134 1486.32 244 218 204
85.2347 -36.2509 1085.53 252 234 206
646.018 -174.749 1309.86 208 197 184
12.8378 326.371 1120.93 192 187 162
-88.1917 178.025 1067.6 214 192 159
-25.9301 402.889 1118.14 238 226 223
85.0491 214.127 1150.4 255 253 242
56.5966 293.68 1149.99 240 242 224
586.139 -123.42 1331.48 240 240 243
-48.7785 25.1953 1003.08 120 57 33
-77.85 231.846 1072.72 145 106 77
17.9426 60.0777 1081.36 172 150 140
-102.563 238.079 1046.6 102 80 74
563.463 -213.919 1181.05 146 130 121
-86.0184 91.4527 981.999 174 189 191
-108.995 187.94 1063.61 105 84 74
640.442 178.422 1522.21 190 202 196
577.271 -258.884 1294.77 80 55 41
833.139 298.047 1680.7 229 243 241
-77.5757 106.529 1065.72 177 155 141
99.3715 12.1279 1091.56 189 152 118
642.242 60.4165 1361.57 223 226 204
645.909 284.898 1538.89 98 131 150
-119.587 133.559 1048.95 251 229 212
145.361 215.596 1182.91 253 228 190
-20.5489 -37.2904 1112.32 9 13 25
-51.4909 292.356 1081.32 255 247 247
670.682 6.77254 1408.47 185 164 150
96.6715 17.5121 1091.55 255 243 224
622.779 -176.366 1265.05 194 179 163
-6.21167 243.895 969.92 232 222 213
-119.319 132.142 1016.15 192 161 157
621.993 54.2636 1428.12 121 108 89
589.814 192.156 1585.36 43 58 62
-83.1299 247.689 1072.41 138 135 121
65.9671 -65.2955 1080.2 98 71 47
626.729 -233.18 1310.5 133 120 104
711.803 -91.9698 1403.76 193 156 145
-107.768 265.492 1164.45 211 207 202
576.803 250.187 1455.51 67 86 83
-10.2874 223.551 1070.79 76 56 54
610.41 6.69818 1293.87 136 112 93
548.47 131.54 1585.14 192 187 180
829.315 -125.095 1464.57 238 247 240
699.117 -80.9832 1451.41 156 125 113
11.1676 116.327 1152.8 228 193 183
-35.4801 204.149 1080.02 220 169 144
102.736 77.0888 1097.04 250 228 220
7.04081 3.89339 1075.48 207 154 127
-47.5442 -6.88184 1001.1 197 174 151
-70.08 315.595 1078.52 163 157 160
