-508.922 23.3628 1399.82 107 101 84
-637.083 25.9532 1563.09 156 146 127
96.1383 31.8271 992.971 18 24 12
96.1383 31.8271 992.971 18 24 12
-514.163 62.0041 1486.13 203 210 202
-439.262 66.4678 1504.19 134 112 99
-564.997 74.984 1409.55 227 196 187
-617.8 82.0967 1476.62 252 243 223
-547.894 111.66 1431.71 13 4 1
-166.951 80.7435 1041.68 69 78 75
-166.951 80.7435 1041.68 69 78 75
37.2979 97.8785 1005.56 197 196 185
31.3231 95.9174 959.45 214 220 203
-543.605 148.158 1438.25 168 154 132
-173.837 112.918 1005.67 234 241 242
-167.658 107.869 940.142 237 255 250
-538.984 187.26 1468.4 232 204 185
-197.305 131.295 852.278 69 56 48
-614.036 314.09 1661.91 250 255 241
50.6807 238.477 1005.76 129 83 59
-325.724 308.915 1321.53 113 97 75
-489.723 361.815 1474.67 254 247 223
-559.63 485.409 1777.62 245 243 230
-1.25631 307.255 956.049 207 197 191
62.6964 365.049 1024.76 206 213 212
-71.2697 331.207 899.007 129 118 118
74.9157 381.897 1037.85 243 239 242
-40.7985 345.962 914.279 122 101 86
164.555 438.194 1063.94 234 221 209
-83.5318 482.867 984.051 174 174 163
-83.5318 482.867 984.051 174 174 163
-178.502 -230.477 1412.5 179 180 152
-815.798 -154.598 1435.41 131 140 134
-1236.79 -217.912 2240.99 142 144 140
-413.648 -47.2021 1546.72 27 25 12
-413.648 -47.2021 1546.72 27 25 12
-451.586 -37.7587 1522.43 161 137 112
-502.197 -35.5658 1551.14 40 29 27
-698.28 -24.9161 1497.65 147 142 133
-645.501 -20.3317 1434.49 208 194 178
-461.456 -11.2637 1527.43 177 152 138
-462.437 4.21082 1503.56 134 122 105
-520.505 24.0331 1435.7 107 101 84
-50.8878 43.3697 1048.08 97 94 93
-466.528 66.3477 1546.51 239 226 212
-591.366 69.9677 1434.09 141 96 60
-586.287 88.7548 1539.34 116 122 105
-720.401 94.2975 1698.37 216 197 186
-437.572 96.4231 1538.58 136 115 105
-422.513 100.906 1577.48 38 25 28
-568.211 110.051 1565.44 14 11 3
-533.707 107.244 1425.39 112 108 94
-187.065 102.644 973.216 189 217 212
-128.019 109.311 935.543 40 54 64
-128.019 109.311 935.543 40 54 64
-61.911 106.223 888.475 141 182 184
-524.426 185.344 1545.32 30 22 17
-260.328 124.759 1030.83 45 34 42
-58.342 114.108 906.963 5 25 38
104.01 163.429 1033.76 149 105 89
-84.0926 171.921 858.392 30 42 39
-91.1532 190.75 863.994 75 72 70
-85.3961 211.352 898.381 35 35 39
-514.845 371.725 1573.74 161 128 107
123.786 280.215 1074.38 43 26 25
161.194 300.802 1095.62 152 102 83
-179.429 299.476 976.017 255 253 249
81.9281 322.921 1027.91 28 55 70
81.9281 322.921 1027.91 28 55 70
195.078 361.555 1141.77 83 48 41
-92.7124 345.675 951.744 248 250 245
-64.5988 353.129 906.96 152 132 122
-64.5988 353.129 906.96 152 132 122
-175.106 -283.424 1399.74 200 200 192
-990.02 -189.242 1750.73 131 140 134
-411.69 -61.3592 1514.02 133 130 103
-562.299 -34.1781 1450.67 75 97 100
-638.533 -28.8255 1465.79 183 181 158
-504.992 -25.9961 1504.14 33 20 9
-63.15 31.5994 1090.63 97 95 89
-115.881 38.4195 1201.19 207 91 74
-544.911 72.4157 1481.34 201 195 190
-690.042 81.114 1565.92 255 251 246
-434.828 79.8808 1518.14 208 181 166
-498.757 75.5589 1407.51 61 41 43
68.9644 89.2866 993.76 131 102 86
68.9644 89.2866 993.76 131 102 86
-77.9775 105.525 901.538 59 66 64
-199.754 121.08 949.859 19 36 32
-168.786 151.475 900.78 95 112 101
-49.2902 199.409 929.759 147 146 142
-49.2902 199.409 929.759 147 146 142
-77.7246 198.983 888.352 48 70 81
-476.841 383.074 1493.84 178 130 100
32.0456 308.053 1003.08 110 66 42
-1160.41 -351.644 2510.79 135 146 140
-539.275 0.789542 1444.88 59 49 39
-81.2154 62.3024 1017.26 220 195 185
-142.246 75.1112 1036.52 247 234 226
56.9372 95.3546 984.739 45 43 39
-155.468 113.413 930.929 116 135 139
117.654 172.409 1052.45 49 31 17
-724.12 300.351 1859.22 253 254 255
99.7602 259.642 1058.26 56 33 23
116.38 258.482 1042.86 186 160 144
116.38 258.482 1042.86 186 160 144
-62.294 399.504 958.124 41 33 29
-1029.95 -352.545 2527.76 93 95 90
-634.875 403.053 1840.55 228 224 215
-9.0068 231.846 923.584 137 64 48
-484.163 390.395 1549.87 177 126 97
-112.711 222.01 863.508 41 37 35
-79.5251 323.26 902.272 41 30 29
-222.833 450.549 1243.47 190 197 182
-466.612 -34.2651 1497.44 59 47 40
-466.612 -34.2651 1497.44 59 47 40
-365.87 77.2515 1586.12 34 30 28
-397.362 96.7999 1523.16 30 17 17
-139.182 99.0663 925.602 138 186 176
-123.626 233.777 860.62 186 196 187
123.682 329.347 1056.26 72 58 60
123.682 329.347 1056.26 72 58 60
6.54069 344.935 973.605 177 176 164
-486.107 25.5496 1488.45 179 175 162
150.572 258.172 1072.72 57 49 47
34.7351 335.125 993.433 157 85 54
-177.972 458.796 1124.77 184 183 167
38.0961 42.5261 1015.11 129 201 194
-444.214 83.9457 1544.72 199 178 165
-175.522 128.189 929.112 231 248 241
-574.703 278.368 1562.62 221 223 216
130.258 197.826 1049.93 67 49 43
31.7259 469.682 1030.74 151 78 56
-231.127 117.831 979.79 55 45 40
-231.127 117.831 979.79 55 45 40
55.7354 216.823 997.462 185 145 110
-541.297 37.424 1377.11 60 51 45
-114.422 164.389 855.643 55 46 50
-108.542 287.128 807.642 236 238 225
-14.7534 191.492 928.71 50 43 37
-70.3796 290.154 906.939 58 52 50
-364.758 392.422 1371.16 82 90 84
-373.06 95.612 1155.73 66 50 50
