150.046 -108.349 1066.77 218 173 161
73.2614 -70.7041 1058.14 39 39 31
73.2614 -70.7041 1058.14 39 39 31
354.717 -24.6854 948.198 219 219 204
236.365 -10.332 974.762 82 56 40
303.788 7.22889 966.475 159 146 140
318.941 50.483 995.874 136 126 113
-491.495 61.79 929.04 82 60 45
312.207 83.2812 1006.87 181 178 148
100.566 109.766 1016.14 254 245 232
-398.779 110.764 948.479 175 117 91
-437.684 122.888 982.382 44 10 7
-437.684 122.888 982.382 44 10 7
137.968 137.383 1012.27 119 101 97
-440.517 136.453 1002.91 81 27 14
-537.836 145.36 942.791 241 180 161
-402.486 216.434 1020.74 255 242 231
-406.62 218.102 1013.84 30 2 0
-331.593 217.331 987.662 77 57 40
222.44 268.675 1028.01 91 90 65
292.681 283.165 1058.09 107 87 68
-368.557 268.23 997.285 252 232 200
-444.368 273.787 1012.45 117 114 117
-500.53 391.978 1084.52 226 227 214
320.677 423.758 1136.33 225 251 253
367.942 464.48 1239.12 77 91 107
369.63 490.158 1229.2 236 247 248
-300.756 534.622 1181.04 55 67 61
-347.885 555.081 1168.05 111 122 115
-216.339 -404.749 1325.4 86 89 80
-434.695 -676.337 2229.62 134 134 125
-417.588 -543.896 2355.18 66 50 37
-119.057 -445.291 1985.87 208 194 174
100.403 -134.673 1175.6 66 65 58
175.791 -117.791 1089.75 99 60 47
303.846 -75.7446 998.268 37 58 59
352.109 -64.9241 947.664 190 200 180
136.106 -44.7817 957.442 157 157 137
-1760.59 -102.412 2449.24 142 151 141
-381.989 -3.49889 1124.35 125 99 83
251.562 -3.42586 979.044 224 211 194
343.43 -1.00989 979.453 100 117 110
246.433 3.33233 989.366 74 61 44
246.433 3.33233 989.366 74 61 44
-381.996 48.5683 956.877 162 139 118
-431.657 107.85 971.596 255 222 204
-600.592 146.767 1001.84 171 176 154
-569.852 149.289 960.305 254 247 251
-367.052 180.161 1020.33 255 244 211
-411.263 207.646 1031.89 255 230 216
-313.344 243.713 1195.93 45 15 7
224.532 219.476 1024.62 249 250 242
293.722 251.778 1054.69 252 252 229
350.598 260.183 1079.6 255 255 226
258.269 255.85 1040.98 254 255 233
355.303 334.748 1140.58 164 191 189
-272.58 349.362 1171.15 168 156 137
245.9 381.66 1201.1 60 79 101
-299.583 406.42 1153.75 170 163 155
-293.788 413.732 1173.79 29 31 31
-381.705 364.768 1004.7 245 253 235
-399.483 446.362 1207.83 253 248 223
-314.422 561.628 1204.76 134 173 161
-514.117 654.875 1317.46 230 235 232
-364.258 -438.881 1548.67 85 85 78
-364.258 -438.881 1548.67 85 85 78
272.3 -131.976 1069.03 40 74 75
272.3 -131.976 1069.03 40 74 75
324.097 -119.953 1013.3 33 62 73
150.918 -98.0613 1071.8 81 27 17
150.918 -98.0613 1071.8 81 27 17
195.868 -77.7072 1006.54 200 208 195
333.479 3.50496 980.061 96 113 101
333.479 3.50496 980.061 96 113 101
-387.301 46.9538 944.146 103 77 48
207.964 82.5266 1006.18 206 209 162
-466.873 109.305 972.839 255 249 235
-364.953 114.56 946.46 218 214 194
157.924 131.94 1012.11 251 253 254
-575.354 123.756 926.464 247 244 244
-624.203 133.952 973.488 247 254 245
210.859 138.633 989.743 83 50 45
203.311 177.491 1043.41 91 57 61
203.311 177.491 1043.41 91 57 61
259.068 186.999 1014.06 255 253 243
181.969 259.769 1087.07 210 212 183
-307.738 340.743 1142.15 87 66 53
-296.058 400.34 1138.24 170 161 152
-331.926 376.036 1056.51 221 148 109
415.362 435.821 1215.73 110 131 143
-535.558 406.545 1099.86 254 251 243
281.602 483.096 1271.1 103 125 152
-300.54 424.559 1096.74 252 255 244
378.193 490.582 1217.28 165 184 181
423.64 515.386 1261.31 159 172 179
392.498 541.653 1248.57 253 255 254
392.498 541.653 1248.57 253 255 254
76.5379 -121.444 1162.8 83 78 60
123.161 -89.6722 1042.69 207 209 207
169.855 -73.3044 1030.11 111 119 127
70.6755 -62.2899 1025.56 52 48 35
325.862 -20.4582 957.65 123 147 121
-381.672 -11.0349 1166.93 59 49 39
-423.058 -7.69371 1056.25 42 70 82
-431.562 17.6268 1019.01 46 76 90
-386.118 29.8679 1013.21 59 51 39
105.394 44.6625 974.342 254 254 253
-349.398 61.5795 1194.75 157 152 140
373.499 67.2379 1040 255 255 248
-468.134 88.1239 981.411 98 55 39
243.895 103.221 1007.3 219 125 101
166.347 120.124 987.835 150 78 65
308.813 355.013 1190.66 233 249 243
-535.959 307.93 1019.16 248 255 254
-315.538 323.82 1073.82 86 67 52
-301.545 389.405 1105.16 135 83 52
201.962 -108.868 1059.13 201 171 162
353.622 -44.6491 958.507 223 224 203
347.382 -26.7426 964.46 125 144 110
347.382 -26.7426 964.46 125 144 110
91.5811 55.1196 1023.82 116 90 95
225.444 172.137 1035.88 86 56 54
121.438 166.007 984.116 255 254 255
261.534 251.183 1052.41 221 219 194
-324.211 290.906 1060.18 125 99 82
-578.748 302.426 1036.32 152 103 86
-471.315 312.25 1034.84 252 253 254
-531.613 358.133 1079.54 125 103 96
-183.759 -344.867 1065.44 160 166 161
-333.224 -450.946 1472.62 157 165 160
-431.23 -201.806 929.701 99 110 104
339.956 -92.0615 961.475 55 114 137
-505.744 61.1637 936.544 91 85 75
-364.786 73.6161 1104.9 63 52 49
-528.208 156.116 932.863 204 133 119
-460.613 179.569 953.569 148 103 83
-389.572 200.805 1007.02 247 233 226
-389.572 200.805 1007.02 247 233 226
-556.135 216.832 997.416 229 202 176
-450.87 205.213 954.983 151 110 89
-322.554 266.536 1112.43 75 60 61
-374.884 367.826 1051.63 251 254 253
-371.194 53.0573 1078.01 154 150 132
-371.194 53.0573 1078.01 154 150 132
-362.638 60.2663 1155.04 68 64 47
186.742 74.7152 1022.1 110 79 74
155.524 173.179 968.106 100 76 76
155.524 173.179 968.106 100 76 76
-601.196 194.882 981.764 255 253 251
351.488 327.634 1112.18 173 205 202
22.9293 -473.387 1557.82 116 90 78
22.9293 -473.387 1557.82 116 90 78
374.729 74.295 1030.79 216 224 212
-505.418 146.322 943.97 254 255 251
-349.138 283.365 1056.08 253 253 240
-457.891 389.983 1043.52 170 198 155
-160.22 -334.595 1411.47 97 74 57
-385.995 -4.21144 1134.32 123 100 85
-409.254 59.9979 954.124 224 193 157
-403.946 113.406 995.325 239 209 184
245.128 159.129 1033.98 116 87 74
-435.576 -211.125 876.152 88 94 91
306.466 386.055 1167 198 228 220
-568.006 -176.215 1034.38 25 24 22
322.356 190.92 1069.95 253 255 251
-232.292 -351.839 1481.16 99 71 52
234.058 -156.187 1108.08 75 80 75
-390.553 344.036 1058.84 255 254 252
