-235.566 -284.23 862.689 82 94 89
-144.035 -145.6 534.129 100 106 101
18.9429 -684.106 2501.79 108 110 108
-109.489 -222.468 983.718 113 92 71
-351.234 -409.642 1780.55 75 57 26
-276.11 -226.124 1037.8 140 120 102
425.805 -234.25 1193.5 104 104 95
425.805 -234.25 1193.5 104 104 95
351.468 -161.869 1135.56 117 71 56
253.599 -156.979 1123.96 240 202 190
1038.53 -154.595 1561.68 52 54 52
1038.53 -154.595 1561.68 52 54 52
501.02 -91.3621 1056.55 240 246 229
-288.566 15.5137 1054.53 149 135 121
364.151 27.3454 1079.99 223 206 184
273.552 32.0779 1077.43 170 152 134
530.634 36.7527 1111.13 196 206 188
-418.929 40.6274 983.909 54 36 26
-418.929 40.6274 983.909 54 36 26
-414.592 73.5119 989.371 255 235 209
245.07 96.5461 1129.78 250 237 231
585.715 124.911 1199.74 207 206 198
-515.684 109.771 1023.36 121 119 117
-303.432 117.194 942.216 62 14 9
-303.432 117.194 942.216 62 14 9
-472.195 132.295 1019.82 227 170 143
-283.141 160.326 938.517 59 32 21
-283.141 160.326 938.517 59 32 21
302.455 308.19 1240.68 83 76 64
-238.199 256.17 923.013 102 82 75
512.189 372.358 1302.41 237 255 255
-371.527 354.485 1154.96 200 199 185
476.915 402.415 1273.58 127 157 162
-463.209 351.31 1114.55 251 230 227
-455.094 387.739 1151.64 255 248 236
-344.696 362.733 1073.52 167 170 152
-418.725 398.243 1153.19 232 219 201
-377.518 405.86 1171.06 225 236 203
-248.749 607.482 1312.41 164 207 190
-113.878 -569.35 1729.87 181 182 170
-355.173 -147.208 485.979 157 164 152
-196.273 -264.017 923.693 56 65 65
-196.273 -264.017 923.693 56 65 65
-156.092 -365.708 1503.55 93 82 69
170.895 -159.6 1167.51 76 66 47
252.228 -150.191 1148.64 98 44 38
231.964 -138.273 1101.05 242 244 235
190.28 -72.9135 1017.01 152 146 143
382.303 -69.1192 1037.35 73 67 60
374.67 -62.2005 1033.85 214 208 190
-292.651 -38.288 1163.62 78 72 57
276.571 -7.6196 1092.46 90 66 59
-295.57 25.5846 1285.18 75 70 61
439.051 24.4406 1071.38 180 182 153
-303.786 21.7621 970.353 189 166 135
231.407 46.6096 1098.25 249 250 251
231.407 46.6096 1098.25 249 250 251
373.884 58.8826 1064.74 253 248 236
287.431 67.1259 1126.82 113 49 41
287.431 67.1259 1126.82 113 49 41
-282.486 74.6509 1022.81 223 189 140
242.857 101.776 1185.08 92 71 58
-274.94 108.188 1231.27 181 171 165
525.911 119.482 1138.24 231 241 231
-303.931 104.505 1010.13 173 122 119
302.647 130.847 1156.09 255 246 243
334.589 126.626 1116.53 54 38 32
-366.756 120.732 1035.27 186 148 141
-366.756 120.732 1035.27 186 148 141
400.924 140.891 1162.31 97 73 65
-563.646 138.067 1086.84 137 145 140
295.094 152.705 1129.27 74 52 48
554.84 169.804 1192.03 247 252 242
560.846 185.87 1176.11 121 127 101
494.016 208.833 1181.56 255 251 239
524.666 221.596 1229.25 188 189 175
374.027 249.84 1207.44 170 158 137
313.681 309.141 1223.79 76 75 65
-265.849 301.576 1165.39 253 238 222
-530.508 289.162 1113.52 176 157 134
-492.456 372.967 1133.45 183 156 146
-178.169 478.414 1450.29 35 30 25
-514.407 446.663 1201.82 244 245 232
-433.143 434.602 1134.95 252 251 246
-246.425 591.529 1298.82 44 68 59
-65.6195 -473.861 1416.1 175 174 163
-316.038 -368.279 1135.83 79 88 82
-412.615 -346.525 1309.1 87 82 73
-20.1472 87.6745 -264.029 247 254 253
-20.1472 87.6745 -264.029 247 254 253
247.219 -108.014 1062.09 42 50 38
247.219 -108.014 1062.09 42 50 38
474.291 -52.0777 1053.24 245 254 246
476.688 -32.0809 1059.43 243 251 241
507.832 -32.5428 1070.17 202 222 196
223.057 1.23021 1066 104 79 79
497.793 3.55426 1091.9 253 255 250
383.811 21.6958 1093.13 128 111 84
383.811 21.6958 1093.13 128 111 84
295.382 23.4337 1077.18 80 61 50
217.245 36.6633 1073.77 124 98 87
-332.961 36.9656 1004.46 251 219 193
340.009 53.8858 1109.09 136 111 86
302.332 59.2381 1096.83 250 244 210
302.332 59.2381 1096.83 250 244 210
-372.871 63.9531 978.25 250 236 232
356.061 105.168 1127.39 254 238 232
-264.796 115.56 1223.58 56 44 41
-281.346 99.5768 1020.06 153 108 66
-527.978 118.381 1025.82 247 250 246
351.212 136.576 1138.35 255 243 233
436.067 178.398 1096.53 255 255 249
376.183 198.943 1186.12 149 147 137
537.272 207.126 1193.35 180 204 184
319.323 215.293 1173.63 201 201 172
543.249 255.724 1242.4 132 136 110
-252.039 228.109 1086.82 196 136 107
376.25 333.511 1310.68 229 244 236
-400.383 288.263 1095.3 255 250 247
-449.503 321.354 1088.87 255 255 252
-206.799 365.062 1171.36 148 116 96
-365.893 358.855 1135.58 253 253 238
540.57 475.208 1384.23 163 190 188
-264.779 -256.926 1140.72 78 37 28
-392.172 68.7759 1036.53 255 243 239
-270.638 81.7512 1186.05 191 167 159
-440.981 102.19 1006.23 218 121 101
415.005 144.515 1160 255 254 253
246.254 145.954 1149.83 82 64 61
503.283 453.959 1370.66 70 118 143
503.283 453.959 1370.66 70 118 143
503.283 453.959 1370.66 70 118 143
450.351 511.049 1420.08 130 168 177
-299.976 469.881 1191.46 254 252 253
76.0538 -192.791 590.087 46 29 26
-358.911 -333.134 1171.03 155 163 158
312.687 -162.264 1124.66 209 193 182
400.29 -147.376 1029.58 151 204 199
313.973 -115.225 1007.84 19 15 19
477.95 -88.7461 1040.02 128 150 125
277.802 -38.8564 1032.46 137 145 118
-419.283 79.9079 1005.54 255 210 196
-419.283 79.9079 1005.54 255 210 196
283.69 113.232 1159.17 97 79 84
367.422 123.125 1138.95 105 83 77
420.153 165.638 1164.63 190 188 184
420.153 165.638 1164.63 190 188 184
-409.154 260.979 1091.24 255 250 249
-502.564 299.443 1088.71 141 99 73
-486.055 313.276 1078.83 254 253 253
-501.611 360.143 1126.9 252 253 254
-501.611 360.143 1126.9 252 253 254
-438.777 465.798 1176.24 56 55 51
-438.777 465.798 1176.24 56 55 51
-342.444 -0.209324 1035.44 53 96 106
218.987 3.69408 1108.4 91 70 58
450.466 33.6978 1135.1 170 161 122
450.466 33.6978 1135.1 170 161 122
-445.75 84.1108 1002.7 251 191 177
-382.611 163.633 1016.33 134 78 72
-380.627 198.969 1048.51 123 67 45
-441.507 290.038 1060.03 129 102 88
-457.631 393.236 1125.14 247 254 253
-454.485 431.897 1117.88 253 253 248
353.048 -87.5881 1049.77 95 75 69
312.419 20.5193 1068.6 115 89 81
-373.345 243.934 1083.26 122 105 98
-373.345 243.934 1083.26 122 105 98
-55.9642 -186.738 666.35 116 92 73
-306.05 11.0022 1103.16 108 91 78
501.164 10.1286 1090.93 230 237 228
275.239 68.7473 1127.42 173 133 109
-389.175 408.775 1146.76 168 193 155
-305.622 -331.06 1068.94 105 104 101
-64.6129 -372.402 1516.7 187 168 142
-64.6129 -372.402 1516.7 187 168 142
-227.752 -266.842 1225.5 97 74 49
-316.565 29.4949 1008.19 245 220 185
-407.731 67.1823 1014.98 210 176 166
-302.907 86.2922 1035 242 217 182
384.817 107.443 1129 137 110 105
264.197 181.806 1212.61 82 63 50
-190.45 447.247 1353.99 76 70 66
-557.248 -88.4423 781.75 143 160 151
540.491 143.524 1163.43 93 110 101
247.414 131.203 -500.976 85 95 88
475.588 369.602 1360.72 202 227 228
-517.98 -107.015 794.666 24 23 23
-406.613 102.602 1050.38 226 196 179
-245.544 -222.891 1032.17 102 61 50
-327.792 371.417 1217.47 233 233 236
