-1083.71 -53.3985 1579.5 141 147 142
-458.682 -34.0809 1556.2 23 20 8
-458.682 -34.0809 1556.2 23 20 8
-1185.14 -19.2213 1796.6 203 215 208
-512.311 -3.19847 1480.97 161 151 136
-512.311 -3.19847 1480.97 161 151 136
-465.967 18.8597 1397.55 119 106 80
-465.967 18.8597 1397.55 119 106 80
-410.192 35.7839 1506.24 2 6 8
-26.374 32.7812 990.616 48 81 71
-26.374 32.7812 990.616 48 81 71
-603.07 101.694 1438.46 240 206 194
-582.769 116.585 1408.3 187 155 137
-573.038 139.553 1382.7 105 67 54
-593.967 175.958 1529 31 17 1
-587.972 192.816 1533.74 29 14 0
-464.677 172.47 1221.19 26 23 5
166.129 178.83 1059.69 28 24 19
-17.2536 145.153 867.703 46 56 60
-21.3862 153.846 866.852 37 34 32
-430.389 283.268 1326.18 87 70 61
-108.39 198.168 900.876 241 225 208
-57.3201 193.141 801.27 250 255 236
-376.449 395.213 1575.08 36 46 38
-54.9741 242.326 907.152 163 179 155
-54.9741 242.326 907.152 163 179 155
-1.88636 278.484 902.771 113 98 88
-132.147 320.961 1036.43 255 251 243
-6.0826 310.619 905.245 255 255 241
-346.363 610.796 1665.9 102 128 118
-95.3638 515.453 1215.03 253 253 243
1.64181 507.708 1071.16 251 254 246
-927.695 -6.4423 1362.46 221 229 225
-536.009 12.3702 783.163 224 230 227
-536.009 12.3702 783.163 224 230 227
-880.328 28.0231 1323.95 241 245 240
-592.804 38.6388 1391.91 66 51 41
-1085.04 60.0247 1728.27 210 222 219
-935.063 63.6328 1443.32 242 249 245
-459.754 94.9103 1493.35 209 186 171
-1069.81 123.938 1743.77 134 145 138
-1379.51 172.005 2233.28 230 237 236
-746.099 121.864 1518.02 248 252 250
-597.72 122.43 1345.97 197 171 157
-479.715 115.516 1215.52 99 99 91
-609.575 134.128 1353.41 255 248 233
-623.586 182.153 1416.23 173 143 124
-24.6586 121.945 854.106 23 30 23
112.924 180.954 1012.22 45 17 13
-211.76 224.32 1074.28 207 204 183
-504.633 334.74 1535.15 228 221 220
-447.582 348.098 1513.32 78 44 34
-78.5575 237.454 906.333 255 255 244
-190.185 285.896 1089.17 153 152 149
57.0658 267.263 957.744 74 56 44
172.283 302.249 1081.35 44 33 22
-486.198 432.536 1493.43 253 251 233
-587.624 501.118 1650.23 251 251 248
-352.585 640.298 1715.23 251 249 244
-1.04762 355.825 931.227 144 156 140
-1.04762 355.825 931.227 144 156 140
-2.95663 378.114 932.351 248 255 241
167.209 447.315 1115.09 143 158 145
11.0216 371.207 927.623 134 138 129
11.0216 371.207 927.623 134 138 129
21.1107 400.228 959.287 90 89 84
23.4194 435.044 1032.76 90 89 84
156.012 526.087 1117.25 47 75 69
-1267.93 -149.42 2061.34 99 114 108
-1338.57 -79.3675 1918.75 119 129 123
-1286.89 -69.4594 1915.53 202 211 206
-7401.93 -278.638 10303.7 158 182 169
-72.8786 24.1683 1047.09 255 230 223
-536.047 36.7384 1331.83 172 154 129
-536.047 36.7384 1331.83 172 154 129
-439.006 87.2056 1565.1 52 23 9
-534.724 88.238 1375.35 198 198 189
-534.724 88.238 1375.35 198 198 189
-571.234 87.1352 1317.89 137 91 51
-524.795 96.1202 1397.79 53 43 29
-7215.27 719.371 10948.9 162 179 160
-704.349 115.838 1484.34 254 254 254
-145.829 85.0017 918.361 27 50 39
-118.51 102.149 861.64 63 76 76
-101.984 102.731 854.638 76 86 84
-85.7233 104.512 850.338 98 120 116
-96.1227 112.193 836.705 250 250 230
-0.396824 127.53 886.185 32 37 32
-554.067 306.53 1430.74 253 253 251
-1.30301 189.588 891.032 45 36 34
-1.30301 189.588 891.032 45 36 34
-100.642 194.118 905.635 143 138 123
-618.93 386.694 1563.91 172 178 161
-618.93 386.694 1563.91 172 178 161
-146.698 264.292 1024.75 255 249 240
-84.135 259.503 942.584 205 204 179
-121.843 366.829 1049.64 254 254 245
-17.6783 767.035 1715.44 162 157 141
147.169 528.262 1128.28 162 190 204
186.176 557.756 1150.51 98 123 119
-690.251 20.024 1496.93 83 107 107
-533.319 20.4131 1343.09 57 54 39
-16.919 26.3423 996.99 30 82 78
-16.919 26.3423 996.99 30 82 78
-544.209 49.7385 1180.03 255 249 232
157.452 194.941 1060.81 181 157 140
-168.011 178.15 969.315 146 126 113
-72.0637 157.234 838.58 161 181 148
-524.759 284.224 1410.8 254 254 249
-162.266 218.474 973.297 171 166 145
37.1298 259.201 940.6 59 40 33
37.1298 259.201 940.6 59 40 33
-21.4626 269.465 883.541 250 252 247
-95.9893 335.288 1014.36 169 158 147
163.856 538.393 1180.24 80 108 125
137.98 544.191 1134.11 73 107 150
-492.305 -16.9699 1456.17 71 50 39
-575.494 41.3145 1372.01 61 46 38
-175.434 95.5093 928.72 76 58 50
138.041 159.858 1037.58 73 44 33
105.343 206.258 1016.14 65 42 41
105.343 206.258 1016.14 65 42 41
-105.325 261.393 951.529 253 253 253
67.2006 285.512 975.439 162 156 143
238.171 347.109 1141.46 83 58 48
-505.361 6.5399 1388.32 70 60 52
-1246.18 133.778 1912.3 85 85 73
-122.944 86.6888 907.206 196 216 210
-15.3649 133.522 879.795 160 160 157
189.109 196.368 1104.33 49 50 44
-5.90012 262.39 890.065 57 52 47
-77.7722 413.121 992.545 184 174 148
-77.7722 413.121 992.545 184 174 148
-454.619 -35.1816 1531.38 26 25 12
-450.864 94.9242 1456.51 209 186 171
-428.036 322.653 1486.88 81 62 56
24.563 281.833 924.56 172 134 110
-127.688 444.207 1152.04 154 149 136
-127.688 444.207 1152.04 154 149 136
-50.7667 114.136 840.313 51 44 43
193.171 252.965 1095.06 110 60 57
-210.421 323.519 1256.45 227 221 228
195.171 64.9906 1131.72 178 169 147
-574.334 248.52 1407.73 209 206 199
-2.73022 232.921 900.252 53 45 41
-471.576 613.639 1595.72 254 252 250
-54.7914 257.371 809.42 254 255 252
44.9472 132.712 919.912 47 42 32
