-201.112 -600.87 1753.61 120 116 106
-150.826 -573.697 1865.39 148 136 120
-283.477 -489.263 1707.83 142 130 121
-283.477 -489.263 1707.83 142 130 121
-115.039 -499.579 1942.65 153 156 149
-1120.12 -492.687 2395.83 123 137 130
-941.596 -423.89 2145.53 60 72 69
-667.611 -486.071 2511.11 83 91 89
-720.871 -315.262 1700.57 74 79 72
557.642 -208.838 1264.13 135 126 118
439.39 -203.4 1288.79 105 103 81
-799.116 -266.794 1793.19 66 78 71
-962.984 -270.629 2489.68 172 165 139
146.091 -104.774 1139.44 219 205 181
146.091 -104.774 1139.44 219 205 181
661.398 -116.364 1375.45 146 122 93
576.494 -115.716 1430.72 56 28 26
553.872 -68.0845 1353.19 105 88 81
553.872 -68.0845 1353.19 105 88 81
617.097 -58.5126 1461.95 124 103 106
57.0801 -41.4515 990.408 229 180 161
660.761 -38.0817 1377.47 248 239 235
657.718 -18.8103 1379.33 238 223 201
164.476 -16.9494 1175.55 144 124 82
-201.945 -9.09659 1208.61 106 67 41
137.224 -1.87124 1160.89 189 124 102
-52.2882 20.219 1043.46 138 112 107
713.088 124.084 1545.58 96 96 83
664.742 129.57 1483.81 98 101 80
519.229 102.039 1123.56 182 202 201
645.822 193.882 1695.46 30 46 44
713.427 276.332 1673.83 140 191 213
533.317 263.235 1365.85 112 126 123
14.61 224.365 1177.42 255 245 245
107.6 270.563 1229.25 119 110 102
83.44 268.36 1165.19 123 106 95
188.667 370.53 1402.03 168 165 128
-1.90517 333.668 1174.85 255 252 243
24.6364 347.537 1183.69 46 40 24
24.6364 347.537 1183.69 46 40 24
138.384 384.126 1045.17 201 227 219
26.0093 581.147 1330.62 77 100 91
603.691 -293.61 1368.83 92 57 47
-691.666 -319.043 1559.83 144 156 151
635.105 -260.895 1316.3 173 170 150
635.105 -260.895 1316.3 173 170 150
655.144 -211.277 1249.82 153 158 148
713.378 -237.286 1439.91 107 97 79
577.726 -195.27 1337.63 157 147 134
-1334.28 -242.569 2335.97 106 94 79
-686.519 -169.196 1655.98 162 149 124
828.731 -144.483 1490.55 152 160 146
710.206 -96.6103 1459.72 255 250 242
-177.731 -53.3856 1173.93 161 141 122
-10.4173 -39.3907 1153.85 222 199 176
104.595 -41.6752 1138.81 255 234 208
640.984 -47.7289 1537.74 29 9 4
-58.9126 -35.0081 930.341 143 101 72
139.782 15.62 1152.61 202 118 104
-22.6241 35.0379 1060.19 234 252 239
-15.4505 72.7942 1024.46 139 74 60
158.14 100.878 1162.87 196 164 132
613.735 167.931 1665.67 43 53 57
680.004 181.62 1544.48 199 242 251
680.004 181.62 1544.48 199 242 251
65.968 155.22 1173.5 254 252 245
98.5918 143.447 1102.25 243 240 238
724.423 263.937 1840.75 72 102 103
685.927 231.755 1569.7 160 188 191
-56.3602 182.544 1091.2 129 94 80
-8.45557 238.197 1187.89 255 248 248
19.1107 238.319 1157.77 252 250 249
-33.6438 256.278 1132.63 248 249 249
26.8753 314.267 1164.63 253 253 245
6.95857 358.821 1206.26 255 250 243
-724.298 -541.258 1736.62 24 23 22
-108.062 -377.506 1227.68 164 156 138
-23.5219 -364.113 1330.81 141 140 139
-22.0499 -406.247 1486.71 141 140 139
371.594 -516.726 2001.65 83 60 43
-1068.35 -387.48 1759.92 70 85 76
637.924 -278.828 1328.4 33 39 38
-534.636 -417.892 2042.26 152 155 147
654.814 -172.342 1365.97 206 190 175
726.526 -158.558 1366.73 244 245 219
665.811 -139.737 1366.63 184 177 144
587.632 -114.71 1353.81 254 252 247
753.777 -117.834 1450.26 206 209 199
56.0894 -82.8035 1110.53 58 77 86
786.74 -85.9969 1424.82 220 241 224
62.452 -58.3764 1083.37 193 132 97
604.718 -66.5284 1383.03 240 238 235
618.165 -55.9592 1381.84 119 103 112
683.053 -52.3917 1403.61 89 64 55
-147.975 -39.5482 1149.39 174 156 135
-24.3055 -34.3804 1160.64 214 195 169
-56.9828 -34.2842 1189.91 160 131 92
-38.9761 -27.7463 1140.48 219 190 165
-38.9761 -27.7463 1140.48 219 190 165
-43.6967 -27.7066 973.403 210 198 165
-43.6967 -27.7066 973.403 210 198 165
713.584 9.29795 1495.04 238 235 222
2.55659 0.554307 1077.29 197 122 99
24.2775 1.93395 1097.29 207 124 101
505.47 20.516 1411.86 110 113 101
791.689 34.7286 1487.9 236 238 226
791.689 34.7286 1487.9 236 238 226
-42.3114 47.5604 1089.19 230 253 242
744.965 143.81 1558.23 161 182 182
95.5397 108.013 1117.34 255 248 221
95.5397 108.013 1117.34 255 248 221
640.019 169.454 1645.19 124 151 151
751.845 240.349 1632.89 155 187 194
732.561 348.058 1909.85 58 74 66
803.609 317.822 1708.66 236 255 255
25.9516 220.88 1160.2 105 47 42
153.007 268.57 1256.18 255 254 246
-22.3786 317.284 1150.78 250 250 250
188.472 366.988 1304.6 49 53 57
-5.60744 349.503 1192.77 113 73 48
-552.434 -309.782 1410.76 141 145 132
785.588 -225.792 1458.46 95 98 87
-992.025 -288.306 1980.03 62 59 52
575.646 -157.118 1356.58 41 13 8
719.667 -140.467 1377.58 173 175 144
669.163 -107.763 1260.76 254 255 245
70.5689 -91.1596 1235.52 33 51 48
631.875 -79.7133 1371.39 255 247 244
92.4928 -53.1902 1097.64 89 33 17
616.169 -38.0626 1398.75 249 252 250
46.0798 -26.6346 1078.67 255 219 203
731.524 28.5744 1467.95 254 255 240
743.738 117.296 1534.82 250 253 245
-96.8984 116.339 1087.4 99 66 47
781.31 256.22 1620.89 144 173 189
781.31 256.22 1620.89 144 173 189
719.882 341.909 1878.73 58 74 66
34.1968 387.554 1229.4 79 63 62
-7.44176 385.632 1160.56 74 61 45
-244.523 -404.349 1664.45 116 119 109
697.14 -309.11 1386.12 168 201 199
-1118.28 -382.594 1737.21 133 154 143
659.012 -247.816 1326.75 81 65 60
511.891 -251.712 1392.2 16 11 10
-1012.51 -290.796 1760.38 73 75 71
-1012.51 -290.796 1760.38 73 75 71
-18.172 61.8563 1075.61 255 253 249
-38.0165 74.9738 1079.75 251 255 255
-38.0165 74.9738 1079.75 251 255 255
77.7974 96.6118 1136.93 143 86 62
77.7974 96.6118 1136.93 143 86 62
66.6637 120.591 1138.79 249 220 201
-26.7713 212.963 1105.09 154 75 51
33.3376 266.943 1175.48 121 96 81
-37.7477 306.233 1175.93 76 64 64
-879.909 -658.346 2101.06 58 57 56
-754.604 -575.536 2012.27 77 75 64
-784.989 -515.653 1889.61 88 90 80
-40.5964 -548.417 2145.72 81 78 72
-110.084 -524.566 2134.07 81 76 68
-752.719 -512.064 2118.7 100 101 87
-650.413 -476.142 2345.15 137 145 139
-1271.83 -395.181 1963.4 60 67 60
-1271.83 -395.181 1963.4 60 67 60
594.407 -160.28 1340.02 253 255 255
793.438 -131.498 1437.29 180 193 182
91.7073 -103.168 1150.17 64 93 109
8.79671 4.4442 1071.88 250 168 137
-178.923 14.1328 1166.29 109 80 64
845.536 24.1745 1533.18 152 158 128
-72.7616 53.2223 1043.37 246 241 230
127.09 140.143 1200.65 252 254 249
147.679 184.335 1219.01 254 248 249
18.1375 185.64 1144.76 255 236 219
20.7069 207.745 1131.01 195 132 116
-31.6685 237.122 1115.38 244 245 240
473.087 -516.189 1884.61 40 35 26
-743.798 -497.113 1918.67 133 144 137
-743.798 -497.113 1918.67 133 144 137
-1081.54 -307.16 1989.88 113 127 119
709.282 -70.1584 1430.96 127 103 90
4.03347 50.5947 1072.4 211 124 100
47.8244 227.716 1150.14 253 253 249
47.8244 227.716 1150.14 253 253 249
-0.124978 362.317 1167.77 245 238 229
35.4096 -497.476 1665.35 119 122 112
-560.12 -307.804 1630.55 91 75 60
-560.12 -307.804 1630.55 91 75 60
-102.862 31.1232 1114.44 76 52 45
34.2758 32.0725 1112.61 255 253 255
34.2758 32.0725 1112.61 255 253 255
76.4122 307.405 1176.58 175 193 150
41.8021 349.283 1185.88 81 63 62
-38.1142 405.404 1225.8 58 51 49
-1060.13 -220.169 2203.52 73 63 43
751.412 -105.398 1439.03 255 253 250
751.412 -105.398 1439.03 255 253 250
737.444 -27.1859 1418.11 253 252 251
590.762 133.781 1747.59 164 156 145
-88.4277 -502.989 1724.27 138 137 133
415.519 -206.355 1381.25 52 48 38
-1076.41 -381.828 1945.93 135 147 140
540.261 -201.171 1349.69 53 47 40
24.3941 -87.2364 1109.58 74 101 106
551.908 344.976 1638.46 208 208 199
692.925 -257.65 1392.9 88 71 64
64.3559 -6.63717 1094.67 255 219 203
702.458 -75.0893 1388.5 213 209 197
-1406.93 -231.843 2542.52 67 58 41
-1406.93 -231.843 2542.52 67 58 41
81.9752 104.275 1146.3 206 142 124
81.9752 104.275 1146.3 206 142 124
81.9752 104.275 1146.3 206 142 124
