-1082.28 -387.794 2773.2 144 152 146
-379.053 -364.083 2671.53 75 52 37
369.058 -216.256 1620.32 118 95 94
246.662 -173.283 1616.48 97 99 77
491.973 -95.3603 1655.15 253 252 225
380.4 -53.9133 1605.88 105 61 52
445.393 -50.7257 1650.47 253 242 220
15.9337 65.9299 1175.95 218 159 144
-95.6218 103.634 1105.77 176 157 148
-100.892 108.759 1099.6 63 25 11
4.9258 110.215 1115.98 255 251 228
-49.0287 126.943 1123.39 96 59 50
335.963 253.641 1842.1 51 69 71
455.117 336.468 1748.99 200 222 215
455.117 336.468 1748.99 200 222 215
-158.183 232.649 1224.36 63 21 8
-9.58197 541.626 1394.01 176 167 154
42.8166 636.237 1392.99 152 188 173
475.247 -221.925 1568.91 222 217 202
452.071 -146.42 1612.81 185 180 165
406.252 -120.287 1583.98 89 73 69
459.689 -75.557 1575.22 194 191 157
478.373 -67.4646 1657.39 255 255 227
516.773 -60.2846 1714.86 251 249 245
442.197 -18.738 1659.35 250 233 227
-183.482 76.1378 1157.06 65 25 12
-6.64165 82.2122 1110.37 255 248 247
-3.53617 99.7929 1069.84 255 241 233
460.503 304.022 1742.57 242 255 255
-81.5921 282.104 1202.93 51 31 26
97.5311 324.137 1312.03 251 252 240
21.5933 317.644 1220.35 238 215 207
-80.6952 375.014 1266.09 50 27 6
123.179 587.559 1425.37 244 243 235
81.1348 576.001 1320.41 183 201 192
58.6186 605.283 1371.66 47 53 48
268.967 -200.063 1551.65 144 119 119
529.834 -123.853 1757.12 152 150 123
379.503 -91.5625 1558.6 26 15 7
-85.1335 -35.4425 1309.64 60 96 101
-10.3974 77.3566 1038.44 254 246 255
-55.186 86.8792 1065.25 109 13 2
473.815 160.721 1722.08 141 121 97
25.035 102.342 1137.26 219 138 108
-49.9271 123.962 1086.06 127 40 12
72.0362 172.237 1235.47 166 129 117
-63.6411 178.901 1125.44 206 171 159
399.525 334.591 1939.22 102 130 130
476.252 334.171 1905.13 243 255 253
-152.412 220.089 1115.58 144 91 66
-152.412 220.089 1115.58 144 91 66
7.14703 245.259 1163.85 255 254 236
36.7956 245.14 1135.2 254 249 247
33.3205 314.276 1211.95 103 83 70
33.3205 314.276 1211.95 103 83 70
-8.12834 372.736 1196.02 252 251 249
-159.735 440.522 1363.8 138 87 64
-59.7584 422.67 1311.04 43 24 11
-210.387 511.639 1521.32 160 147 127
11.0837 470.581 1238.43 251 248 234
-2092.06 -579.742 3693.46 123 119 108
-402.499 -384.119 2756.6 99 73 55
295.782 -168.745 1562.83 21 25 21
-2208.67 -211.549 3176.47 135 144 140
407.807 -101.119 1592.74 255 250 254
-2299.66 -172.806 3129.24 125 145 132
1.0901 57.2331 1136.79 247 255 255
468.579 158.982 1705.15 141 121 97
-1.76729 108.855 1128.33 241 249 239
-16.1178 120.077 1123.36 251 253 255
142.99 209.17 1347.23 251 248 252
473.311 298.851 1889.26 247 255 247
276.293 204.555 1195.23 195 221 214
-10.3595 264.934 1159.69 187 103 70
36.6736 358.601 1244.36 121 95 81
36.6736 358.601 1244.36 121 95 81
-1484.15 -563.112 3189.54 143 146 138
-1000.13 -442.951 3397.04 41 25 11
330.961 29.4051 1797.05 119 129 110
-131.291 71.699 1088.25 44 29 19
430.018 215.269 1751.61 232 241 238
95.9181 184.586 1266.59 251 254 255
-5.78872 203.165 1151.89 248 212 181
658.368 456.562 2558.5 243 254 245
45.0595 284.709 1229.12 252 255 255
-14.5696 289.886 1169.99 255 251 255
-23.988 351.03 1172.97 87 48 47
-1331.89 -420.439 3379 68 72 68
-1326.24 -358.357 3099.16 65 71 69
-2499.47 -304.477 3563.66 68 78 71
33.5495 91.1564 1199.12 255 251 243
365.332 279.281 1956.83 99 123 132
-118.851 329.939 1207.68 143 89 62
7.79621 421.186 1228.38 253 251 248
-287.659 -379.918 2631.95 53 41 29
-1299.73 -479.387 3488.79 65 66 62
-1299.73 -479.387 3488.79 65 66 62
343.302 -217.179 1688.68 202 179 174
451.451 -194.261 1597.3 107 91 83
451.451 -194.261 1597.3 107 91 83
-140.94 199.139 1192.26 149 88 60
-140.94 199.139 1192.26 149 88 60
-131.977 270.452 1228.76 139 88 76
-1179.9 -552.449 3319.09 113 115 113
231.919 -432.253 2210.22 181 177 161
405.893 133.21 1720.32 58 42 44
405.893 133.21 1720.32 58 42 44
75.4211 543.375 1373.7 79 79 74
423.797 -18.3264 1478.24 191 180 170
265.24 54.1772 1427.04 89 96 63
41.3646 127.98 1295.22 255 243 226
-147.101 144.841 1129.53 148 87 54
