654.784 -274.781 1709.48 195 211 192
-802.617 -350.112 2543.72 97 83 60
-1053.37 -181.566 1571.43 109 123 115
-915.035 -131.415 1438.27 125 137 134
-1374.95 -202.27 2185.83 125 137 134
-1236.95 -229.705 2547.4 54 49 29
-1460.06 -178.722 2067.03 64 73 67
-177.118 -88.2102 1264.63 150 142 130
-893.914 -95.801 1453.64 152 138 112
-278.275 -32.6549 1211.95 79 69 46
554.337 -20.6653 1635.95 255 246 233
-150.582 65.0026 1122.68 134 109 93
-38.9686 91.9581 1208.01 178 92 61
-43.0769 82.3801 1048.97 157 87 63
-43.0769 82.3801 1048.97 157 87 63
550.053 149.116 1721.39 122 113 91
16.2917 107.896 1214.86 255 244 231
532.691 156.057 1752.73 38 29 15
72.0159 140.262 1288.2 244 236 221
28.5405 159.981 1246.71 254 247 230
-117.887 139.415 1057.42 56 35 14
31.6055 177.894 1297.42 166 152 140
31.6055 177.894 1297.42 166 152 140
539.193 304.642 1852.68 217 251 255
539.193 304.642 1852.68 217 251 255
-126.626 301.256 1224.25 131 110 96
-126.626 301.256 1224.25 131 110 96
-22.2014 332.189 1191.33 65 60 59
-32.6321 353.271 1244.21 23 23 20
-57.2148 321.004 1070.48 254 252 226
106.052 527.334 1423.79 233 235 227
434.462 -516.512 1761.65 212 193 180
504.022 -298.96 1685.67 111 83 82
-658.497 -192.308 1132.58 59 64 51
492.709 -184.805 1509.8 165 169 151
470.918 -185.49 1550.03 129 123 99
-889.745 -131.397 1166.93 36 63 51
-1757.45 -256.841 2527.72 33 47 44
635.337 -157.262 1699.18 245 244 217
583.294 -135.981 1696.97 193 180 146
-2145.37 -210.035 2951.43 40 52 45
-536.797 -44.7212 839.362 160 156 133
-714.331 -54.6953 1068.79 81 83 61
-413.333 -26.5737 603.244 152 154 132
-117.911 9.26968 1082.69 243 220 190
660.637 55.4147 1753.2 251 250 223
-56.8754 48.9733 1112.03 255 253 246
-56.8754 48.9733 1112.03 255 253 246
437.923 104.168 1844.5 106 118 101
-108.799 137.847 1117.77 54 31 23
-98.0526 152.544 1086.92 75 57 49
-163.946 214.951 1291.04 64 39 20
-92.2124 250.453 1177.27 62 42 37
93.3793 361.11 1362.3 175 158 117
-29.437 422.929 1248.88 252 242 229
15.0669 -348.625 1687.56 94 76 54
-51.7957 -18.4742 77.3668 150 129 102
-392.746 -102.244 725.219 139 150 142
668.792 -167.579 1714.32 253 255 249
126.593 22.5723 -292.476 148 140 114
-830.478 -96.9819 1303 137 126 106
-855.326 -90.1713 1363.85 68 55 42
-2.19752 -87.8513 1282.05 154 155 157
611.118 -107.379 1628.26 252 253 244
515.913 -65.5744 1588.84 235 228 227
-336.033 -16.5313 462.079 123 126 113
42.8663 -40.9164 1190.23 120 69 56
498.015 -23.3376 1603.14 254 252 252
498.015 -23.3376 1603.14 254 252 252
456.008 -14.8001 1575.79 160 147 141
-79.9228 -11.2839 1125.63 227 208 185
-79.9228 -11.2839 1125.63 227 208 185
-77.1639 1.58543 1049.9 184 108 94
601.461 46.4509 1701.84 253 250 241
-95.0009 37.1777 1100.65 250 252 251
609.026 143.218 1787.96 251 253 247
516.576 149.559 1701.64 50 33 18
142.533 278.523 1341.42 255 220 195
-63.7127 326.56 1171.66 249 252 252
-44.1373 440.466 1274.7 242 233 215
389.61 -240.111 1606.14 25 13 12
622.447 -205.508 1657.38 91 93 84
531.12 -181.616 1575.95 97 73 65
-756.033 -51.7005 1104.75 38 48 35
697.63 82.0237 1881.48 145 137 110
697.63 82.0237 1881.48 145 137 110
96.6677 84.8461 1300.94 248 252 235
71.1862 176.404 1277.17 199 172 140
71.1862 176.404 1277.17 199 172 140
-40.3165 242.937 1212.92 252 251 248
-160.697 374.235 1297.48 94 62 49
-185.1 445.976 1467.05 128 122 109
-17.0523 394.13 1251.01 79 71 66
-683.88 -199.821 1129.18 130 138 129
-740.287 -195.499 1163.26 140 148 138
506.893 -157.073 1623.68 244 241 243
-1444.4 -121.887 2122.3 213 220 216
-48.8829 22.7843 1112.41 254 252 255
-48.8829 22.7843 1112.41 254 252 255
751.555 45.2023 1922.69 163 168 134
-63.4617 172.942 1164.03 232 193 154
-24.2078 220.319 1179.18 159 115 104
-66.0486 229.665 1165.36 169 68 53
-71.9584 251.743 1157.28 249 249 253
-64.899 285.913 1176.55 254 253 254
-540.273 -181.906 1078.04 91 97 92
-270.379 -20.2986 1218.63 80 55 39
-114.721 2.94824 1092.5 202 180 160
-139.572 78.3189 1139.21 166 116 93
-139.572 78.3189 1139.21 166 116 93
83.3418 -381.256 1803.66 56 42 33
-641.801 -208.203 1064.12 95 97 89
-723.668 -200.058 1107.06 88 92 82
614.078 -277.032 1691.55 95 88 82
614.078 -277.032 1691.55 95 88 82
382.11 -252.314 1444.92 174 153 145
-647.936 -167.347 1046.54 128 140 135
-690.696 -163.212 1191.25 85 74 63
-690.696 -163.212 1191.25 85 74 63
-690.696 -163.212 1191.25 85 74 63
77.1656 -76.0943 1253.63 228 195 165
-147.942 293.75 1259.67 124 81 51
-49.066 327.954 1214.94 252 252 250
-8.54668 367.824 1251.63 85 77 71
417.58 -55.5713 1558.73 58 43 36
20.455 -22.2431 1218 255 248 233
-127.669 160.481 1158.53 78 60 41
-300.298 -265.244 1131.35 136 137 133
-1066.33 -154.407 1865.83 121 111 86
-1066.33 -154.407 1865.83 121 111 86
-24.0537 -67.6102 1165.12 48 67 74
-169.843 -35.3875 1018.44 154 130 99
459.925 442.159 2097.53 213 212 201
424.294 -188.45 1548.71 50 45 37
-53.1355 574.925 1522.43 53 52 49
463.971 10.6624 1913.59 70 74 48
22.1456 114.122 1300.74 129 80 54
22.1456 114.122 1300.74 129 80 54
