-167.351 -55.5526 197.595 38 55 46
-133.942 -72.0319 284.154 117 111 102
661.521 -193.677 1768.15 241 248 232
420.091 -181.474 1805.16 153 157 150
305.46 -130.506 1694.88 76 68 59
702.13 -111.871 1918.98 254 255 222
544.567 -56.0331 1695.97 139 116 92
478.961 -17.0453 1597.02 75 62 47
36.6158 -3.48318 1214.68 255 248 230
589.071 33.7203 1751.76 251 236 219
46.2556 55.8674 1196.48 127 69 49
718.423 119.518 1938.12 250 252 223
-180.768 75.6952 1161.6 69 21 8
59.3971 100.255 1237.41 253 250 242
671.186 166.449 1858.12 213 208 191
-54.6003 94.4654 976.491 255 241 226
550.861 173.483 1842.25 82 73 68
-105.528 112.634 1147.11 164 147 140
595.272 293.288 1957.63 205 245 253
36.8654 184.175 1223.18 251 250 237
-88.9791 177.492 1160.35 66 26 4
10.6498 210.16 1324.87 156 114 99
-72.346 189.348 1152.68 196 164 153
-72.346 189.348 1152.68 196 164 153
263.449 163.023 923.792 87 123 128
-4.78132 241.449 1195.62 252 230 207
39.3045 214.856 820.474 85 87 66
29.9178 425.396 1266.62 255 252 248
29.9178 425.396 1266.62 255 252 248
-117.1 510.073 1443.93 170 150 142
-15.0825 449.36 1260.92 48 9 5
-105.316 511.639 1424.06 214 196 189
65.0875 491.047 1342.09 50 57 62
103.718 607.13 1383.55 206 236 221
-189.501 -90.6229 311.78 77 87 82
-203.195 -96.0945 332.126 132 142 138
-203.195 -96.0945 332.126 132 142 138
-459.129 -232.214 806.713 67 81 73
-459.129 -232.214 806.713 67 81 73
-148.296 -77.9622 476.741 150 154 152
322.641 -227.248 1868.49 65 59 58
-776.478 -89.4536 1005.43 61 85 76
504.506 -136.35 1563.83 150 146 126
-416.833 -38.8406 526.519 62 74 67
582.981 -119.011 1755.07 244 234 212
681.067 -114.365 1798.54 254 254 236
479.031 -77.5791 1682.45 49 23 12
608.672 -68.6476 1733.91 255 252 241
-146.718 -7.3055 187.605 88 93 85
-352.975 -16.5089 451.159 50 67 60
-83.7658 -3.33592 83.9256 40 50 47
-343.339 -10.3451 422.047 39 52 49
-343.339 -10.3451 422.047 39 52 49
-30.3396 -3.11221 3.24505 45 43 30
588.562 -30.9445 1793.1 186 151 138
502.052 -17.2241 1666.13 88 72 54
579.896 -12.682 1742.34 151 134 135
540.884 -7.70454 1813.1 249 234 228
-802.09 -1.39411 1065.96 244 251 245
-804.373 10.0864 1097.88 57 59 41
-804.373 10.0864 1097.88 57 59 41
445.369 -12.5293 -677.025 153 148 123
508.781 53.0421 1692.81 37 17 15
131.69 65.0011 1323.69 255 246 223
12.7151 73.6505 1162.62 222 161 136
397.622 125.991 1758.99 41 39 31
-10.711 94.0586 1162.02 255 253 244
-10.711 94.0586 1162.02 255 253 244
671.602 167.72 1904.95 152 144 122
446.221 169.871 1883.54 129 135 116
-175.612 144.58 1234.72 82 30 11
-99.7866 165.076 1150.54 67 29 14
68.7466 195.574 1288.21 254 252 234
434.312 315.952 1751.29 145 166 167
-44.107 243.245 1166.93 158 125 109
27.0959 282.615 1238.08 126 79 75
-87.5766 328.369 1291.88 67 45 35
27.9319 381.327 1244 254 247 235
-2.59256 407.499 1229.47 86 58 41
-2.59256 407.499 1229.47 86 58 41
68.4149 615.731 1384.95 35 36 31
-364.599 -131.437 487.42 140 152 145
508.067 -98.4335 1712.81 54 29 18
536.444 -81.7387 1683.65 101 88 89
-1205.22 -63.5189 1734.24 123 137 131
32.9013 -37.8222 1276.96 133 131 127
565.535 -15.8955 1753.46 254 252 240
-795.034 -8.36299 1148.41 53 43 28
-602.901 -4.82507 801.59 49 49 33
84.3955 2.54075 1235.32 129 75 74
522.135 98.4538 1979.07 125 91 70
650.096 107.895 1858.85 252 254 246
617.938 206.187 1841.09 246 248 240
481.181 330.201 1855.57 84 112 112
644.714 429.862 2018.85 240 253 250
-43.8833 293.588 1171.75 54 26 28
147.924 434.637 1421.3 255 255 240
-16.7753 380.812 1205.57 253 252 248
-60.879 406.624 1252.91 59 39 32
2.96039 468.281 1217.05 249 248 236
-330.851 -85.3723 425.697 141 149 143
-12.9183 2.70347 -26.2926 137 144 133
404.224 -185.057 1669.23 30 21 15
-347.021 -45.013 543.696 130 141 135
534.937 -107.051 1719.07 255 250 254
-941.383 -50.2938 1345.4 123 137 131
-7.67466 -2.01296 1101.38 92 57 44
-613.927 11.3179 808.077 38 62 47
49.3524 29.5967 1238.61 255 237 216
728.349 103.287 1913.31 164 166 146
-136.791 73.8235 1111.39 57 21 14
-6.91936 122.053 1179.19 252 249 237
-6.91936 122.053 1179.19 252 249 237
-48.389 170.547 1116.54 253 254 254
596.316 319.185 1931.35 246 255 254
487.223 421.538 1947.8 68 78 71
-18.3166 277.132 1182.96 169 80 61
32.3293 331.738 1241.52 109 77 71
-8.40557 457.483 1225.33 31 42 40
-201.49 -67.7189 244.406 47 47 46
-201.49 -67.7189 244.406 47 47 46
-62.4091 -12.1229 43.7147 33 43 33
-121.45 -84.6438 561.075 48 32 17
605.131 -220.206 1628.37 170 181 156
-580.96 -164.366 1468.05 69 73 68
560.248 -87.4889 1720.76 145 127 120
-139.662 -34.4193 1365.93 92 69 52
-139.662 -34.4193 1365.93 92 69 52
-3.72191 67.1098 1165.67 255 247 255
694.315 139.673 1909.68 149 137 112
65.3652 127.609 1274.55 142 97 81
510.084 195.52 1675.11 38 18 11
541.578 235.833 1809.21 203 222 217
173.057 226.793 1402.83 252 250 246
23.5724 276.63 1244.72 140 98 80
-32.3689 369.893 1218.97 95 74 69
17.1339 380.552 1245.87 255 254 253
-131.041 454.444 1379.91 72 47 35
-136.793 457.35 1328.81 137 132 118
-136.793 457.35 1328.81 137 132 118
-168.458 -39.6228 210.319 58 66 59
-133.818 -59.5859 404.137 70 69 65
295.543 55.661 -595.929 129 143 136
10.5686 109.132 1162.66 228 142 127
-54.6421 109.878 1111.61 252 254 254
94.1974 135.841 1308.22 254 212 183
-210.936 -51.9279 260.651 119 138 127
-94.1262 -55.2142 294.336 119 122 117
-45.5951 158.845 1137.54 252 253 248
-214.59 -42.8382 273.225 121 144 134
-214.59 -42.8382 273.225 121 144 134
439.744 -222.876 1679.62 169 154 141
666.018 -45.9559 1854.87 237 237 232
666.018 -45.9559 1854.87 237 237 232
-0.172957 372.776 1215.82 237 230 229
-85.4518 208.636 1173.22 81 61 41
-38.2298 -6.86482 27.5325 33 21 18
-121.281 -57.6236 314.281 132 134 130
299.894 -127.064 1684.86 80 75 66
-546.596 -21.763 840.862 119 107 84
680.238 71.8703 1937.41 210 209 181
-97.8522 80.2952 1125.04 61 39 25
450.28 489.926 2034 210 210 200
82.5596 542.051 1353.32 74 72 74
-138.582 110.73 1065.84 188 157 143
410.259 65.7243 1716.61 80 88 56
61.3917 166.555 1337.54 255 246 236
