1085.86 -397.758 1532.2 205 213 209
-408.988 -220.239 1159.98 144 148 141
430.691 -264.34 1746.33 180 197 196
503.358 -236.676 1598.88 58 71 65
414.845 -240.604 1667.96 113 92 83
269.998 -252.251 1769.1 167 157 139
415.229 -188.389 1501.85 49 31 19
415.229 -188.389 1501.85 49 31 19
421.333 -145.498 1588.42 171 161 150
215.233 -132.957 1539.09 94 82 67
-1296.36 -94.2331 2225.01 37 32 16
472.385 -62.2608 1651.16 255 247 232
515.33 -39.3982 1702.46 128 120 107
412.514 -18.9868 1674.52 134 107 102
437.906 -18.1339 1628.54 254 250 250
32.9563 31.5807 1189.33 255 253 236
-196.962 58.2249 1152.4 50 10 1
52.8953 101.064 1222.07 248 230 206
-65.6467 101.127 1086.58 247 251 252
119.461 167.502 1359.19 217 176 158
372.668 248.818 1771.47 19 45 41
61.1816 191.329 1223.27 251 251 228
-166.58 231.584 1200.51 62 11 2
-111.738 257.718 1234.85 124 106 91
70.969 301.775 1280.06 145 138 130
70.969 301.775 1280.06 145 138 130
29.7596 313.782 1224.19 243 247 228
-26.6355 374.417 1167.76 251 233 209
-26.6355 374.417 1167.76 251 233 209
-107.564 389.328 1118.45 204 188 180
-107.564 389.328 1118.45 204 188 180
-124.874 524.395 1492.74 240 237 229
-738.358 -344.729 1169.32 144 151 144
1074.84 -400.219 1546.75 45 53 49
1074.84 -400.219 1546.75 45 53 49
-454.856 -247.052 964.818 121 117 109
-498.356 -174.177 956.679 132 135 123
462.41 -230.65 1644.03 67 67 67
181.676 72.7295 -611.567 136 113 76
325.364 34.823 -508.899 131 151 141
530.917 -122.595 1635.01 142 145 121
518.29 -92.8135 1652.44 185 182 150
-40.1111 10.946 1195.02 248 233 211
-40.9707 49.3121 1094.94 238 255 252
-40.9707 49.3121 1094.94 238 255 252
104.979 63.3682 1299.58 255 249 230
54.9952 118.573 1234.9 255 233 212
-58.4418 147.662 1076.9 255 253 255
406.568 238.919 1637.82 227 250 253
-82.782 163.67 1101.83 199 164 155
58.9368 210.298 1238.63 255 252 246
398.912 361.43 1968.73 134 141 134
398.912 361.43 1968.73 134 141 134
-51.7708 214.905 1183.79 251 250 242
107.626 540.304 1366.06 246 247 240
-519.195 -243.385 821.823 85 91 85
-519.195 -243.385 821.823 85 91 85
1016.82 -364.67 1469.93 187 193 188
-553.386 -266.504 1329.29 157 148 132
-116.796 -27.4562 227.905 139 109 79
-1141.95 -199.952 2292.5 129 115 88
468.255 -142.302 1612.51 99 75 65
472.871 -32.4891 1671.33 248 242 236
62.8939 -15.4498 1225.48 127 39 14
518.075 -5.8382 1716.44 136 111 90
-62.6109 5.91994 1089.47 158 121 96
-43.0081 24.0016 1117.11 169 123 106
-34.8584 91.5356 1121.52 162 109 103
502.006 152.822 1719.86 136 121 101
66.9829 150.818 1248.23 255 253 243
486.223 312.352 1828.55 246 255 251
-28.1066 320.335 1133.62 246 252 252
-30.5667 361.617 1202.06 248 253 255
-171.025 465.234 1407.37 166 156 140
-166.72 510.606 1498.75 16 9 5
21.745 421.992 1216.81 245 237 237
530.431 -161.316 1656.02 106 106 87
-914.954 -137.157 1452.16 139 149 141
-20.8511 101.951 1165.41 255 248 254
32.5383 114.192 925.832 247 240 231
499.81 285.549 1868.36 246 255 250
99.019 218.793 1295.14 251 253 255
99.019 218.793 1295.14 251 253 255
-169.967 460.231 1391.42 158 153 140
11.7192 412.482 1228.86 95 77 70
-73.2838 24.6154 1068.97 185 166 143
-150.509 59.1901 1118.21 59 39 30
-63.777 88.9286 1084.63 245 255 242
449.029 203.243 1728.99 221 233 232
-103.989 158.086 1121.81 78 59 40
20.406 168.935 1193.14 247 242 227
-28.2619 191.006 1136.92 240 194 165
4.69399 242.846 1178.12 153 96 90
4.69399 242.846 1178.12 153 96 90
-36.1646 268.666 1135.6 250 251 246
1.18039 358.025 1236.97 253 255 255
-24.7793 414.001 1156.35 40 27 26
-88.6359 -280.415 1193.23 34 29 18
-593.615 -219.331 1581.51 67 71 69
-661.279 -116.673 1025.76 60 75 65
-251.141 14.5664 1163.83 115 90 72
-4.73989 88.8899 1160.21 229 146 109
366.478 245.187 1813.64 101 121 128
-45.9372 323.887 1130.08 105 78 71
-14.7097 402.547 1210.23 252 252 247
-90.0365 -218.026 1329.3 51 43 30
-840.769 -157.172 1111.44 79 83 76
374.827 -233.72 1683.38 200 184 184
-473.228 -66.4156 697.807 121 136 126
343.744 -60.0706 1723.22 98 99 63
534.308 -55.2014 1694.71 249 250 244
17.491 71.2904 1185.62 248 254 253
17.491 71.2904 1185.62 248 254 253
-153.975 176.645 1164.43 154 93 56
-583.508 -63.781 786.065 73 62 50
-66.6423 -57.8037 1233.02 60 100 102
-66.6423 -57.8037 1233.02 60 100 102
-70.3148 267.295 1112.82 78 38 29
-1.4738 -40.0997 1207.57 80 114 124
-208.553 75.9017 1068.28 79 51 39
-420.885 -199.175 1082.77 131 135 129
-109.399 61.4863 1121.85 60 39 29
-98.3719 188.279 1152.85 75 59 43
428.553 120.106 1719.74 55 40 38
54.4918 503.402 1306.65 74 73 72
453.856 -27.2538 1483 185 183 169
306.925 43.584 1532.26 77 81 51
