-51.2474 -382.299 1197.77 172 157 145
-18.6518 -164.124 645.54 128 131 128
-61.1994 -70.7055 321.585 97 87 80
546.262 -225.458 1237.2 115 113 107
599.729 -227.324 1308.15 46 31 31
-498.085 -218.712 1398.45 131 141 133
-498.085 -218.712 1398.45 131 141 133
-282.543 -102.533 669.107 45 53 49
44.625 49.8416 -283.915 108 88 61
-380.194 -103.73 843.222 55 42 26
-119.077 -30.7685 275.501 171 163 140
615.825 -132.96 1313.9 101 97 79
708.274 -136.976 1379.82 209 201 163
532.199 -103.359 1327.88 163 138 135
518.803 -89.1554 1292.3 77 39 35
631.687 7.52833 1342.54 255 243 215
618.671 60.6904 1386.66 122 117 103
620.86 66.3495 1373.37 188 184 165
-36.6643 101.849 1030.72 252 240 204
695.682 154.218 1413.94 236 252 252
768.705 164.284 1536.82 163 175 175
5.69344 125.562 1102.88 255 244 225
-3.61107 136.136 1088.09 155 134 110
-16.7015 139.615 1070.21 153 137 107
-125.198 145.074 971.43 99 62 62
701.361 313.138 1621.77 41 76 90
174.364 262.017 1232.82 248 236 213
777.428 350.259 1615.43 158 175 175
-92.6092 227.665 1065.04 247 210 167
49.4163 254.672 1153.79 254 253 247
-85.156 255.418 1119.1 130 36 15
71.3319 284.79 1153.55 255 246 231
47.097 292.415 1164.1 108 100 86
27.633 295.312 1130.21 89 81 59
9.34819 318.024 1118.51 160 171 133
-46.9302 348.955 1106.49 42 31 24
175.34 450.991 1377.47 66 55 48
75.3762 515.705 1197.32 166 193 181
-32.3789 63.4634 -195.12 165 165 156
578.494 -273.645 1324.59 77 50 42
-302.562 -97.2578 462.499 146 160 152
683.731 -234.239 1216.51 253 255 240
604.318 -238.199 1274.14 176 179 167
-485.339 -144.036 809.827 49 55 42
627.098 -194.844 1281.79 96 85 74
-324.229 -97.7645 649.813 143 145 137
-432.89 -165.112 1160.59 138 133 115
-125.626 -30.9154 285.41 160 148 124
-131.146 -81.6697 1223.09 69 42 29
604.728 -73.9687 1354.59 150 84 66
548.702 -16.1652 1349.47 29 23 19
615.765 -14.3429 1385.68 252 238 245
84.5592 33.7778 1094.23 253 246 237
663.197 52.4189 1416.77 251 246 225
594.271 65.1651 1377.95 175 166 149
96.783 70.8726 1112.65 255 249 235
585.764 109.067 1408.32 74 66 60
644.967 134.71 1428.19 138 132 130
597.866 190.533 1625.04 41 49 53
104.752 134.167 1139.27 229 146 123
26.7574 134.446 1094.51 89 55 34
601.093 209.109 1586.56 43 57 57
678.158 212.91 1537.31 206 235 251
33.3969 144.911 1055.24 125 90 73
678.703 226.16 1570.12 23 65 78
47.5402 160.639 1113.57 249 247 244
41.374 184.687 1122.42 254 254 251
737.973 275.485 1610.64 116 142 151
648.225 288.933 1563.06 27 52 59
153.915 296.588 1230.86 223 145 108
-1.21768 276.255 1102.88 182 128 117
-76.4711 325.487 1065.61 255 253 252
-216.273 -165.663 592.847 157 157 144
-117.383 -90.2308 433.663 149 156 149
597.645 -255.265 1331.57 30 33 32
603.068 -180.052 1316.99 159 161 143
558.551 -170.618 1267.75 124 124 109
534.985 -168.179 1278.54 141 133 119
700.451 -129.093 1392.02 155 127 107
602.777 -92.5103 1336.32 117 98 80
553.585 -89.8281 1310.72 255 235 235
612.481 -69.0228 1335.52 173 120 107
642.9 -64.6967 1338.57 255 248 239
590.805 -28.9674 1352.49 129 130 130
1.74344 -24.313 1034.98 193 135 104
634.622 -7.99931 1365.62 125 80 80
571.266 -4.41892 1400.03 134 124 107
652.952 34.4776 1379.13 255 255 237
-36.0859 34.8549 1048.84 215 135 99
-59.4694 35.446 1019.8 202 108 85
91.1434 54.2351 1113.03 233 219 220
-100.564 76.8187 990.699 224 242 240
618.102 123.425 1393.53 104 92 86
587.49 122.811 1231.39 250 254 250
630.104 154.038 1421.15 90 91 85
42.5435 143.87 1124.45 255 245 227
-122.297 144.498 1020.73 254 254 253
3.65973 177.746 1066.14 253 252 240
-0.385808 211.793 1122.94 230 176 168
-109.968 197.551 1050.97 253 254 244
172.421 276.501 1236.26 198 143 119
33.2583 308.771 1188.65 124 114 92
-248.936 -175.704 647.732 146 150 139
-233.259 -142.757 630.304 142 141 133
486.672 -275.49 1384.29 103 77 71
450.508 -216.63 1282.24 4 10 6
-266.031 -61.0654 399.548 61 68 59
-266.031 -61.0654 399.548 61 68 59
-729.96 -235.568 1878.45 210 217 217
-199.486 -51.5649 437.45 215 221 218
-199.486 -51.5649 437.45 215 221 218
-629.287 -156.106 1282.55 59 32 18
531.676 -128.026 1295.52 36 15 6
742.843 -125.632 1414.7 187 177 143
588.361 -52.6838 1302.67 242 235 236
32.845 -19.1886 1058.59 78 34 24
688.137 53.6567 1382.78 248 251 245
-101.823 54.1246 1003.28 252 253 253
631.14 130.022 1360.15 103 85 74
4.35707 184.6 1096.44 251 252 244
720.074 350.123 1614.15 130 159 170
108.9 368.57 1241.65 161 151 106
-60.6217 412.824 1144.77 81 64 51
-174.487 -134.459 461.716 77 70 58
-265.996 -188.715 671.156 87 85 70
61.0912 -186.369 704.169 54 32 16
-154.842 -137.056 603.389 81 81 76
668.462 -285.872 1331.89 143 181 173
-242.626 -104.268 559.745 113 127 121
460.464 -243.6 1360.08 155 158 157
785.319 -152.629 1404.16 246 252 238
608.419 -119.562 1303.24 107 82 71
608.419 -119.562 1303.24 107 82 71
-7.68387 52.152 1057.4 253 246 247
759.919 84.9879 1452.33 129 118 101
759.919 84.9879 1452.33 129 118 101
-20.5298 159.75 1076.54 241 221 214
-84.0856 239.081 1067.44 142 46 39
-88.118 256.178 1051.14 242 241 241
-80.3126 295.229 1088.16 254 253 251
-22.1595 401.98 1168.04 90 79 78
-22.1595 401.98 1168.04 90 79 78
-1.93122 -197.276 752.61 76 81 68
-174.364 -101.15 430.562 86 85 75
-308.942 -84.9767 480.645 129 148 141
-355.955 -112.579 648.079 85 84 74
-147.653 25.5345 972.568 194 173 137
-52.3905 39.2728 1025.43 218 135 115
-74.7787 43.9617 1020.99 250 254 244
-133.09 86.6648 1001.19 249 237 231
98.0015 98.248 1130.12 250 239 238
10.5249 95.9884 1086.86 137 77 72
10.5249 95.9884 1086.86 137 77 72
10.5249 95.9884 1086.86 137 77 72
19.7663 128.466 1095.12 131 98 82
19.7663 128.466 1095.12 131 98 82
-29.3101 124.695 1059.54 236 214 194
-39.4075 211.228 1095.59 253 238 212
-36.9532 237.754 1102.41 139 84 77
-36.9532 237.754 1102.41 139 84 77
-58.4999 315.213 1130.15 228 180 160
213.385 -217.986 779.294 47 41 32
-203.366 -141.769 534.414 136 143 140
-203.366 -141.769 534.414 136 143 140
-272.012 -83.2802 510.277 122 135 127
556.431 117.489 1491.76 65 55 44
-54.5855 84.5617 1026.13 208 120 101
142.479 182.35 1195.04 241 237 225
-9.32459 252.308 1106.49 255 254 247
-54.6181 384.364 1133.61 241 232 222
713.522 -257.343 1287.28 150 179 150
-27.2156 63.7768 1043.72 253 255 244
20.8462 328.992 1128.46 170 186 140
-166.482 -72.3631 490.754 151 136 110
-166.482 -72.3631 490.754 151 136 110
-356.191 -86.9375 778.206 72 62 40
72.0716 -50.7824 1074.11 226 181 139
722.959 -3.98909 1383.7 255 255 252
722.959 -3.98909 1383.7 255 255 252
590.904 162.22 1740.19 158 148 138
565.912 -306.037 1435.11 119 115 113
394.23 -192.777 1360.57 57 46 38
743.109 196.801 1570.46 224 243 238
615.078 289.309 1682.63 79 69 59
498.544 -176.352 1292.15 55 47 43
2.89417 28.3984 1059.32 244 206 188
738.134 -54.4852 1457.2 199 196 176
19.6257 139.654 1089.87 176 159 152
19.6257 139.654 1089.87 176 159 152
