-8.3579 -134.625 423.601 123 129 124
570.02 -328.607 1237.88 156 183 187
-15.0177 17.4947 -82.8604 79 66 47
430.011 -250.617 1211.41 247 250 243
-377.581 -205.489 1052.53 66 67 49
-144.915 -71.0121 388.616 174 169 148
65.1715 56.9667 -325.406 94 90 75
580.863 -197.636 1328.94 88 84 67
-141.31 -156.216 1214.94 132 141 139
590.983 -140.403 1322.32 199 150 130
560.354 -72.7893 1354.71 238 207 193
508.655 -10.4181 1354.04 160 160 135
717.802 -0.152566 1529.63 255 255 222
548.425 103.566 1406.33 78 73 64
-72.246 86.8201 1142.39 108 47 16
-49.3995 123.238 1180.29 127 104 81
-77.7208 119.301 1132.01 246 229 219
645.878 229.455 1649.98 195 225 219
-95.2305 180.004 1225.54 253 247 236
-199.601 171.032 1115.12 149 120 82
669.413 331.702 1838.53 93 117 113
-71.5021 249.512 1189.1 95 76 60
-179.45 314.591 1171.9 255 243 233
-143.471 392.114 1236.75 13 10 6
29.2892 472.526 1372.14 48 52 48
222.083 280.954 -896.557 136 142 132
-388.4 -177.853 668.001 52 56 50
-247.047 -108.744 439.04 116 123 114
-247.047 -108.744 439.04 116 123 114
478.546 -288.761 1260.35 33 29 24
-236.417 -147.532 677.678 118 130 123
534.224 -156.246 1298.58 191 173 150
-349.754 -58.47 484.467 10 12 8
500.591 -146.369 1293.34 169 163 136
720.216 -127.167 1386.51 151 185 146
567.633 -112.509 1313.93 254 249 240
481.745 -106.968 1318.88 83 66 46
592.239 -95.064 1367.67 253 237 228
-91.6683 -57.8587 1065.48 225 178 161
-54.5968 -61.411 1117.01 254 233 214
479.572 -70.5247 1357.41 35 22 12
-160.345 -40.8512 1054.54 159 77 55
-13.6199 -3.8293 1139.68 196 121 85
-13.6199 -3.8293 1139.68 196 121 85
-86.2287 -2.83895 1101.65 230 163 135
-189.619 1.1267 1075.48 255 254 243
-96.3661 6.4687 1091.24 255 251 250
556.288 16.332 1386.52 227 226 201
556.288 16.332 1386.52 227 226 201
4.78114 19.7202 1154.08 255 232 227
34.9786 35.7906 1155.91 255 255 208
571.123 83.236 1429.71 145 135 128
567.761 95.3474 1486.43 124 116 98
528.514 102.275 1419.86 42 29 20
18.5672 89.4711 1177.82 255 241 213
18.5672 89.4711 1177.82 255 241 213
532.542 147.261 1588.4 32 54 46
-222.651 104.27 1108.25 81 37 30
-53.6361 127.498 1106.37 239 233 222
565.677 179.073 1516.88 112 137 133
595.657 212.675 1708.39 62 87 89
-207.533 144.714 1103.51 106 76 33
612.348 238.11 1563.32 62 100 110
612.348 238.11 1563.32 62 100 110
-146.341 176.057 1096 94 60 45
-175.02 257.739 1149.92 157 125 109
-137.766 284.191 1205.35 41 29 22
-169.319 288.582 1187.73 255 249 245
-133.897 295.057 1202.42 254 249 240
-182.683 285.362 1143.98 247 242 243
-168.517 316.473 1187.39 63 24 13
-139.238 327.436 1217.67 30 25 14
-139.238 327.436 1217.67 30 25 14
-129.42 321.126 1167.77 253 252 240
-129.42 321.126 1167.77 253 252 240
22.6403 457.768 1318.9 23 29 26
16.0624 -174.541 508.414 143 146 144
-32.159 25.0088 -83.7654 144 112 83
-87.4783 -93.9705 341.701 150 154 147
-0.0932793 110.099 -413.581 136 115 90
-31.4082 -19.4426 88.9889 169 154 130
481.457 -193.597 1272.19 254 254 252
589.887 -209.112 1381.54 244 242 220
-461.632 -89.1837 645.109 2 8 2
705.619 -162.157 1340.98 133 154 134
71.3702 19.6285 -172.155 62 65 57
548.417 -147.615 1360.25 116 100 71
492.212 -143.929 1330.12 245 233 223
549.072 -120.722 1341.62 150 106 86
541.835 -110.979 1389.39 126 119 109
508.533 -93.0911 1361.57 224 230 227
508.533 -93.0911 1361.57 224 230 227
-80.973 -63.7689 1091.11 255 246 233
500.593 -59.9344 1409.84 126 119 115
-210.273 -41.6365 1037.9 200 184 154
563.116 -25.9782 1432.92 173 169 144
-136.478 -15.9306 1070.51 214 110 90
-240.646 6.53009 1072.5 245 251 246
-186.01 18.5773 1059.5 228 225 223
-182.775 39.9448 1067.36 255 247 225
563.138 94.381 1475.05 124 116 98
705.324 175.087 1548.59 176 186 187
58.8405 251.703 1287.74 220 137 86
-183.884 226.55 1123.98 147 111 106
-223.497 301.284 1455.34 253 254 251
-187.758 277.671 1188.61 254 250 255
115.972 -155.779 467.756 78 63 45
-597.218 -316.709 1108.08 58 77 68
-282.896 -101.014 459.062 59 61 53
456.651 -178.655 1277.42 42 17 9
722.291 -157.249 1450.59 254 253 246
-158.189 -78.2791 1072.85 95 76 60
-62.166 -71.6452 1091.48 99 30 16
746.2 -74.0211 1410.68 104 103 77
594.588 -44.077 1342.5 255 253 240
-51.0006 -22.2563 1238.57 255 231 213
-138.272 40.3513 1101.24 196 111 89
-92.1893 319.595 1216.1 138 148 120
-53.8481 389.239 1346.06 252 252 255
-168.301 373.193 1231.1 92 74 66
-53.0101 -143.823 460.899 121 121 110
-119.765 -150.364 516.254 89 91 79
573.167 -320.055 1236.29 143 187 181
396.883 -278.473 1301.85 20 21 18
396.883 -278.473 1301.85 20 21 18
440.131 -85.6316 1439.71 86 83 65
-106.453 1.13852 1081.07 255 248 245
-90.7189 100.232 1136.28 225 203 181
-90.7189 100.232 1136.28 225 203 181
-117.933 148.753 1162.61 253 252 243
-117.933 148.753 1162.61 253 252 243
-192.455 193.567 1137.2 154 57 46
-159.714 201.753 1145.59 247 240 234
-190.158 207.726 1095.39 251 252 252
-145.954 278.685 1150.92 247 249 246
-145.954 278.685 1150.92 247 249 246
-126.535 349.365 1210.45 49 43 35
13.4797 -144.475 417.907 56 55 50
-20.8905 -39.9142 122.568 73 73 70
-301.507 -139.667 506.715 61 70 66
-358.4 -147.527 605.04 129 145 137
572.429 -276.95 1275.97 82 62 64
734.464 -208.134 1400.83 249 252 250
-151.595 -11.1557 1055.3 226 134 116
-176.059 -6.33371 1049.56 244 237 237
-242.057 37.4512 1059.34 242 231 219
-88.9414 44.3497 1119.4 139 89 71
-88.9414 44.3497 1119.4 139 89 71
4.34753 47.8066 1159.68 250 226 205
-129.318 74.4639 1086.03 231 208 187
-79.2536 76.7201 1127.4 116 50 40
-79.2536 76.7201 1127.4 116 50 40
-79.2536 76.7201 1127.4 116 50 40
-167.669 90.3976 1102.27 230 182 146
-139.859 186.823 1145.42 152 99 84
-127.901 241.404 1177.99 105 66 58
-240.136 -239.099 722.504 137 145 138
-240.136 -239.099 722.504 137 145 138
750.859 -0.17637 1447.36 135 158 129
48.3335 128.565 1212.16 224 205 183
-111.996 205.606 1162.01 254 250 240
-161.147 342.576 1210.09 241 233 217
-161.147 342.576 1210.09 241 233 217
654.332 -307.363 1259.26 128 162 129
-49.8522 49.1657 1134.57 229 187 144
-223.698 78.2311 1077.45 254 247 251
-223.698 78.2311 1077.45 254 247 251
-81.6546 292.272 1218.71 162 180 134
-390.914 -189.119 696.41 82 85 78
-390.914 -189.119 696.41 82 85 78
599.056 -287.526 1247.41 87 88 89
483.755 -269.73 1199.27 90 90 83
-359.994 -150.779 847.968 80 65 38
-18.6237 -105.635 1110.18 234 196 151
331.122 -251.6 1335.02 52 48 37
665.627 -53.7677 1383.56 251 250 248
436.48 -233.369 1300.23 47 43 41
493.887 320.691 1697.18 198 199 187
-396.926 -138.377 814.945 71 62 44
653.358 -101.808 1405.23 255 254 242
-39.9762 223.019 1311.42 208 213 202
-67.1026 471.89 1394.87 57 55 59
537.4 -2.12653 1623.57 77 62 52
-81.9371 90.0355 1178.46 113 52 34
