8.9392 -66.755 1050.96 55 50 41
-385.027 -82.018 1260.35 174 168 160
-357.898 -56.0999 1362.52 123 115 99
-436.506 -53.3813 1393.27 19 16 11
-393.58 -19.6023 1326.88 110 95 73
-598.48 -8.44043 1313.53 106 90 77
-333.082 22.7819 1442.59 139 105 110
-36.6412 20.908 933.279 90 86 91
-390.973 34.1244 1366.78 213 192 177
-612.819 41.4392 1305.98 255 249 239
-372.593 64.9779 1375.94 131 108 98
-359.796 68.6804 1399.09 23 13 8
-396.012 72.4193 1379.43 69 49 38
-561.681 122.102 1354.66 159 140 119
-584.218 131.741 1389.44 255 248 235
-584.218 131.741 1389.44 255 248 235
-433.964 150.099 1282.59 42 36 23
-339.898 192.851 1480.42 19 5 4
-91.4148 142.131 960.082 150 134 113
101.543 132.071 889.757 154 141 126
186.174 170.651 989.163 46 22 9
-432.391 236.717 1245.88 193 173 166
-254.219 273.318 1403.15 255 250 234
215.625 201.251 1020.8 23 48 43
-364.911 291.497 1298.94 167 145 134
60.9365 231.069 896.016 154 174 151
65.3078 254.529 925.242 114 125 117
68.834 249.87 881.796 249 251 236
288.636 322.25 1095.88 187 174 149
103.821 349.229 947.05 252 255 249
103.821 349.229 947.05 252 255 249
92.6779 411.079 1020.62 250 248 228
19.6323 -76.6894 1136.25 84 82 78
-383.898 -56.6108 1328.27 134 111 91
73.7645 -33.0528 982.273 122 174 181
-1194.21 -38.2761 1600.12 205 209 203
-1457.44 -45.8684 1937.36 150 158 152
-479.575 -4.64491 648.567 206 218 215
-1260.07 -19.4481 1709.84 232 239 232
-428.374 34.6168 1300.94 176 169 157
-421.388 40.3983 1313.5 37 28 27
-41.7358 27.5148 924.718 47 103 99
-491.173 47.4043 1250.81 141 90 52
236.926 56.1896 1061.68 65 26 8
-1432.05 137.875 2177.63 207 219 215
73.6961 73.0437 868.967 26 31 23
61.2764 81.0758 844.882 163 160 150
100.073 97.0797 908.528 54 49 49
-62.7899 106.624 925.414 145 127 108
-62.7899 106.624 925.414 145 127 108
44.3474 114.322 845.911 250 248 242
-36.8255 129.949 929.113 135 126 113
-647.289 223.891 1531.06 255 252 253
-366.114 223.109 1428.06 217 188 173
97.1165 138.402 886.934 38 27 26
-67.8781 155.935 984.896 129 119 101
222.604 167.656 1029.78 41 27 23
222.604 167.656 1029.78 41 27 23
30.7825 153.58 885.553 149 152 131
174.311 186.395 982.605 82 59 55
-48.8967 196.933 990.361 192 148 118
-82.401 199.989 996.048 172 133 120
-412.338 292.716 1434.35 210 211 212
-90.4064 289.797 1058.3 135 130 104
-29.0344 313.712 1061.57 197 194 169
-0.559447 350.013 1098.63 255 255 239
86.2275 294.892 897.417 249 253 248
130.982 321.898 943.229 115 106 105
-49.066 421.652 1234.85 130 117 103
-278.523 522.183 1515.38 105 129 122
3.43206 384.439 1055.69 212 200 172
122.072 345.671 938.427 247 246 240
133.64 488.652 1095.6 67 108 133
-442.273 -22.9795 1284.93 156 149 126
-35.3194 -14.9316 1043.47 16 8 22
180.07 -8.19453 982.815 52 47 41
-467.878 -2.30093 1291.31 190 163 141
-467.878 -2.30093 1291.31 190 163 141
-4.02903 1.1646 953.689 181 112 98
-447.313 45.7228 1277.93 196 185 171
-442.666 51.8982 1321.7 56 38 30
-602.03 56.3237 1325.99 255 253 245
-49.0533 38.6514 907.664 28 46 36
-49.0533 38.6514 907.664 28 46 36
-1536.34 143.772 2254.1 234 243 239
-540 91.3974 1296.38 255 254 241
-540 91.3974 1296.38 255 254 241
-1380.37 158.223 2049.58 222 228 223
-995.91 117.536 1472.85 222 228 223
-1333.31 149.534 1878.88 58 56 48
39.7864 101.005 829.855 255 255 243
-62.3789 119.811 957.393 213 209 200
-477.043 174.473 1288.36 223 207 189
-113.194 164.848 1002.84 193 194 167
-31.845 181.97 953.369 180 159 140
-89.2933 216.736 1033.61 255 251 253
50.1047 195.516 894.978 254 252 255
-365.326 333.326 1354.91 207 193 183
-52.0869 259.206 1011.6 136 102 100
54.13 218.685 847.098 154 173 152
113.582 266.778 931.117 105 97 95
104.455 322.021 922.523 117 118 109
104.455 322.021 922.523 117 118 109
116.26 361.086 959.288 65 73 50
122.743 380.798 976.172 138 145 117
128.482 -69.8122 1028.07 65 91 83
128.482 -69.8122 1028.07 65 91 83
-1182.52 -61.2961 1622.81 205 215 208
72.4501 -21.7997 978.957 37 85 77
72.4501 -21.7997 978.957 37 85 77
-16.6989 -7.77208 996.676 255 236 229
-574.408 27.996 1280.76 255 238 223
-586.493 71.5381 1319.45 249 252 247
-663.84 83.6929 1421.51 255 249 255
-591.055 123.003 1375.07 252 244 233
-529.059 170.52 1286.45 254 253 254
-399.906 210.698 1354.61 55 43 37
17.3588 194.592 930.805 255 253 248
13.2233 -70.12 1121.96 57 57 54
-326.467 80.372 1437.32 155 164 162
-372.473 319.405 1297.59 165 107 71
214.216 469.792 1100.39 54 84 123
214.216 469.792 1100.39 54 84 123
85.8391 -56.2669 1035.8 202 211 205
-395.43 -53.4842 1306.5 64 55 50
-348.601 68.1828 1392.96 58 43 35
-78.2638 45.7092 912.831 63 60 54
266.702 140.177 1086.94 56 50 42
-447.049 222.313 1318.43 253 252 239
-292.304 342.203 1605.81 50 42 41
201.686 526.644 1118.83 185 208 205
-425.297 -32.5899 1304.6 57 51 42
-425.297 -32.5899 1304.6 57 51 42
-1280.13 132.213 1805.5 86 86 77
180.805 160.509 1000.26 68 48 36
180.805 160.509 1000.26 68 48 36
-13.5635 216.657 963.791 255 252 254
89.121 206.031 874.305 61 53 47
120.018 228.276 924.894 173 135 110
-834.888 -37.4954 1618.75 84 84 69
-376.677 53.1043 1369.55 187 162 142
-376.677 53.1043 1369.55 187 162 142
-466.352 154.279 1264.49 225 227 207
-345.913 214.844 1426.26 196 158 140
-345.913 214.844 1426.26 196 158 140
-345.913 214.844 1426.26 196 158 140
-355.019 267.041 1386.91 67 55 48
62.9195 201.902 882.417 251 253 253
50.0453 63.1055 837.443 48 44 34
-299.764 134.662 1426.26 62 48 40
-44.054 379.488 1108.11 130 117 103
-44.054 379.488 1108.11 130 117 103
-423.537 441.819 1479.26 93 99 94
-568.422 48.4125 1301.01 255 242 233
-341.152 427.744 1606.79 56 53 50
-341.152 427.744 1606.79 56 53 50
33.844 247.514 903.363 251 255 254
154.446 299.798 922.376 74 58 50
