198.507 -236.105 853.334 80 76 68
-96.2845 -85.7348 1572.58 110 97 72
-257.3 -35.3543 1634.16 137 85 48
-199.491 -21.7255 1465.8 111 112 93
37.4736 35.2558 1091.06 179 73 56
-59.3672 89.9155 995.045 199 226 226
-73.2806 90.1977 988.54 81 118 95
-6.99494 229.536 876.89 197 188 185
165.33 276.576 958.274 169 179 168
55.8858 276.832 910.666 28 16 4
61.6112 287.887 931.298 225 218 211
80.99 293.342 909.509 34 25 22
149.568 318.636 950.408 56 70 77
62.4897 319.223 942.532 187 161 152
62.4897 319.223 942.532 187 161 152
-5.74711 313.921 915.082 103 93 91
46.5164 350.42 962.254 47 40 36
-0.0039076 340.867 930.573 142 127 117
26.4703 343.574 928.845 217 188 191
321.24 434.218 1059.77 73 62 59
118.032 432.724 1014.98 125 86 78
148.457 440.684 980.573 161 128 111
-166.807 -52.5074 1612.35 162 145 126
-25.1917 -18.0503 1660.09 66 30 23
-73.1573 -8.51139 1650.51 192 167 153
59.347 1.37611 1127.84 218 230 227
114.351 19.1553 1020.94 247 245 237
11.8313 39.2914 1136.68 0 1 7
-1.84139 61.7059 997.462 139 103 89
-78.5145 101.039 956.553 206 230 223
208.641 130.97 938.34 50 21 13
-68.2606 130.354 840.998 146 164 166
212.524 172.013 975.545 139 94 75
30.6933 148.664 838.453 17 22 24
-37.7027 173.276 884.819 183 179 175
-25.1562 182.074 888.94 68 67 69
-16.5058 193.166 878.768 32 43 46
133.681 213.422 950.535 105 55 31
-1588.3 528.74 2191 141 145 129
15.2565 217.1 881.965 39 36 39
178.646 242.518 982.584 54 20 9
3.44424 230.074 886.568 33 21 20
167.595 264.025 958.51 119 100 95
167.595 264.025 958.51 119 100 95
-39.6787 268.657 902.025 247 246 236
157.784 295.751 958.588 31 46 63
157.784 295.751 958.588 31 46 63
77.957 307.974 961.015 193 189 185
-178.201 -48.8389 1544.02 53 37 19
85.8465 28.9493 1033.32 189 159 139
204.62 45.4511 912.991 0 4 0
167.791 96.391 925.854 138 105 82
167.791 96.391 925.854 138 105 82
7.90723 95.482 889.637 65 59 52
-1043.53 315.403 1471.91 149 153 137
268.931 307.758 1008.57 156 107 94
306.144 364.371 1035.17 49 30 21
11.3802 359.031 932.704 118 113 112
-184.545 -93.0528 1517.39 42 25 15
36.6318 42.2007 1020.33 212 192 179
204.258 45.4485 911.823 0 4 0
1.00206 51.8535 1006.72 210 200 194
-49.4608 93.7362 948.571 64 88 83
-1017.51 307.783 1436.35 151 158 141
144.165 321.114 974.798 173 197 190
242.863 401.639 1032.06 175 141 125
242.863 401.639 1032.06 175 141 125
190.672 403.568 1025.47 43 22 18
209.034 410.415 1039.75 162 99 75
-223.102 -80.0695 1564.3 71 56 52
163.379 0.323271 1091.6 83 97 90
153.074 102.136 918.742 45 45 47
218.515 176.457 948.888 53 36 29
73.4705 232.478 934.266 137 61 41
191.047 252.231 957.258 56 33 27
218.32 262.681 975.488 178 151 139
50.2296 305.278 943.204 49 44 42
-13.9783 305.632 914.006 39 31 29
51.8056 48.1605 968.446 206 176 158
51.8056 48.1605 968.446 206 176 158
-124.691 -66.0355 1572.5 169 154 140
-6.14445 173.359 878.279 182 189 182
-48.8898 187.856 868.658 66 59 61
-32.1621 -127.457 1526.55 56 49 46
129.963 -13.5108 1142.02 87 95 104
267.703 270.02 1011.39 42 36 39
28.538 325.763 930.818 184 143 130
28.538 325.763 930.818 184 143 130
280.211 383.228 1026.69 174 139 118
317.456 432.554 1065.19 58 45 44
317.456 432.554 1065.19 58 45 44
106.952 445.68 984.153 148 72 55
-212.994 -62.3037 1550.28 61 50 39
238.223 204.266 964.712 58 41 33
149.914 218.171 952.506 185 138 113
149.914 218.171 952.506 185 138 113
149.914 218.171 952.506 185 138 113
-54.8663 107.507 952.294 182 218 211
22.9001 62.8392 899.355 244 216 195
244.574 130.937 919.723 161 155 146
-2.56072 279.654 918.56 59 55 52
268.373 321.274 1036.91 78 38 30
162.935 334.626 996.51 117 123 133
-136.888 38.6131 1407.5 69 52 46
-109.707 -11.593 1191.43 56 41 41
