214.996 -120.629 1030.3 240 211 198
110.948 -110.329 1070.23 121 113 117
235.886 -15.7482 926.352 228 215 204
235.886 -15.7482 926.352 228 215 204
-510.998 19.2255 1030.05 66 45 39
-480.199 19.7571 956.946 76 62 51
-432.144 67.6575 1019.66 255 226 205
-607.121 82.4301 1043.72 249 253 254
391.296 81.3986 1012.15 236 253 237
341.398 85.2059 972.675 133 160 138
-422.678 106.293 1022.45 79 24 10
-394.241 122.733 1043.08 252 234 220
266.544 129.612 1038.24 252 233 215
-419.237 131.377 1026.29 254 243 225
266.751 155.553 1089.8 165 135 123
-394.656 149.423 1007.18 52 26 23
-394.656 149.423 1007.18 52 26 23
-592.82 212.149 1086.42 107 90 69
240.466 221.541 1097.48 252 253 238
436.788 233.576 1098 153 147 123
323.83 238.886 1110.09 236 236 200
371.072 240.982 1073.22 254 254 242
229.717 291.946 1147.27 87 61 39
-293.173 345.745 1293.82 89 44 36
-391.635 371.095 1233.72 127 98 73
371.024 380.827 1211.26 200 217 215
-533.529 379.588 1167.39 25 24 23
364.163 412.515 1153.35 212 234 232
378.009 461.598 1259.69 100 112 119
-457.695 416.442 1133.05 23 23 19
-308.874 638.429 1399.81 219 223 218
-329.314 649.531 1424.18 106 165 148
82.2027 -91.3372 1043.96 43 39 33
285.679 -80.7127 920.887 47 62 73
284.303 -57.5742 912.485 226 233 236
349.744 -42.3702 913.469 226 228 214
-424.416 -35.8377 1051.26 152 165 170
-424.416 -35.8377 1051.26 152 165 170
270.838 -29.565 934.757 153 128 116
-364.922 -30.4575 1116.03 122 104 90
-364.922 -30.4575 1116.03 122 104 90
-364.922 -30.4575 1116.03 122 104 90
226.488 -23.7362 937.545 62 43 31
-366.562 -13.8853 1054.82 133 122 109
262.35 11.4469 961.196 78 56 54
-497.241 27.1805 1001.2 247 245 225
206.395 42.9172 999.052 105 68 56
-371.26 55.5407 1090.79 165 162 147
-436.528 55.2483 981.879 255 245 217
-436.528 55.2483 981.879 255 245 217
201.42 65.6892 976.938 203 192 164
-596.543 88.0685 1028.88 254 252 253
-379.246 97.0367 1048.09 255 252 230
353.754 111.997 970.487 107 120 102
-367.901 141.909 1068.14 247 230 209
-307.681 208.138 1286.25 50 25 16
230.077 188.638 1041.51 255 251 228
392.169 231.035 1071.1 106 127 109
348.955 252.279 1072.82 255 255 236
356.021 256.157 1067 179 176 154
-547.242 285.744 1133.58 255 253 248
442.942 347.201 1232.07 137 152 148
-285.729 358.092 1252.45 193 193 190
-510.366 351.11 1172.32 255 255 235
254.568 367.872 1217.03 70 93 99
254.568 367.872 1217.03 70 93 99
-294.884 377.499 1126.64 255 254 237
375.415 412.494 1175.33 109 141 144
384.213 481.776 1224.36 143 163 155
384.213 481.776 1224.36 143 163 155
-311.315 557.593 1413.75 113 157 143
280.112 -111.525 973.669 48 62 56
162.568 -115.008 1051.54 69 20 14
162.568 -115.008 1051.54 69 20 14
-374.86 -34.0886 1110.31 57 43 34
246.875 36.7877 942.549 98 78 62
381.101 78.9671 965.07 143 150 137
327.147 81.6767 974.907 48 47 33
260.687 97.6198 1066.22 210 137 105
-586.224 105.787 1046.65 255 248 242
156.377 115.29 1011.73 250 255 254
374.601 165.858 1037.24 106 118 99
254.354 172.919 997.685 255 251 239
283.819 233.804 1022.75 251 251 236
-274.944 327.544 1297.1 171 164 150
-551.045 295.131 1127.93 169 146 150
-277.729 351.301 1313.36 23 21 17
183.476 304.964 1108.43 141 130 120
347.212 335.817 1157.71 162 177 176
441.34 410.737 1234.35 130 150 151
-308.784 409.081 1237.89 62 58 48
433.047 438.583 1239.77 68 89 99
-461.289 493.067 1180.07 225 226 219
276.536 -141.8 1020.33 43 82 80
261.5 -130.981 1006.08 180 173 164
158.072 -27.7958 946.885 97 73 72
276.215 -18.6002 944.96 71 58 66
104.927 27.1506 981.732 253 254 255
87.6973 33.4042 984.572 102 80 81
-623.575 52.0651 995.607 226 217 198
95.7663 73.1134 973.835 254 250 248
-496.123 83.9376 1007.72 154 127 116
-496.123 83.9376 1007.72 154 127 116
189.657 87.2981 971.793 127 94 76
168.218 105.818 1002.74 153 68 55
249.69 109.792 1036.76 222 224 214
158.129 116.557 1020.24 250 255 254
119.987 121.629 995.655 206 200 198
-288.935 352.479 1166.98 173 161 149
-307.764 359.858 1183.24 130 76 40
-308.589 408.702 1237.83 62 58 48
411.767 548.73 1290.63 247 250 248
209.704 -124.043 1026.36 204 179 164
161.903 -68.0928 947.992 35 23 22
338.414 -31.8942 922.193 108 143 106
146.414 -1.02296 953.379 129 134 109
-491.639 145.667 1075.1 163 118 96
129.346 158.717 1057.14 231 225 226
225.216 159.067 1037.27 99 72 65
-332.022 257.482 1138.42 117 88 76
189.439 -72.7554 929.42 42 33 35
289.438 79.6177 965.391 150 138 108
-554.768 117.494 1040.19 200 134 127
-391.106 159.965 1057.58 250 248 251
-391.106 159.965 1057.58 250 248 251
169.752 169.389 1041.29 134 109 108
-319.74 228.71 1176.13 68 51 45
-357.508 9.83143 1114.71 144 133 121
-349.23 61.0407 1207.82 163 143 123
-498.722 100.591 981.81 250 253 251
418.912 267.238 1071.88 113 130 95
418.912 267.238 1071.88 113 130 95
-379.922 66.3704 976.098 229 199 161
259.85 96.056 997.078 255 254 246
-520.43 106.408 1029.63 253 253 251
-519.528 126.202 987.84 205 124 105
-438.233 144.343 1037.72 238 204 179
-288.771 263.21 1341.79 65 53 52
-345.545 238.778 1087.8 253 246 236
297.192 -57.9755 895.689 145 172 149
-410.034 21.6279 999.444 232 215 192
357.298 63.7234 969.894 231 236 221
-366.076 167.599 1048.87 237 193 152
380.881 188.118 1004.38 68 83 75
197.659 308.654 1179.73 87 67 64
197.659 308.654 1179.73 87 67 64
308.415 372.896 1162.37 199 225 223
310.57 174.31 1026.74 253 255 251
310.57 174.31 1026.74 253 255 251
-401.22 492.565 1237.13 71 77 74
273.159 -186.53 1155.58 112 126 123
-335.327 145.364 1173.44 86 64 52
-381.323 288.459 1082.87 250 254 255
