-102.085 -648.218 1908.52 186 183 171
-123.855 -157.733 549.367 39 57 57
-123.855 -157.733 549.367 39 57 57
-69.4058 -58.8563 230.641 134 149 149
-104.258 -251.634 1012.94 83 70 63
-93.0527 -213.699 911.251 131 109 89
-367.592 -337.985 1503.13 158 133 117
320.645 -191.967 1198.15 210 176 163
288.579 -150.527 1035.4 229 164 144
434.759 -69.7617 1064.66 168 164 154
345.244 -58.7887 1053.85 170 174 160
-424.162 -42.8336 819.075 48 48 41
399.625 22.2808 1071.98 169 127 94
536.907 41.3563 1112.43 177 191 184
406.594 127.899 1147.68 240 227 199
-350.088 193.509 1084.63 255 250 228
-313.709 200.127 1054.07 59 9 0
-289.739 236.29 1068.42 105 91 83
372.345 286.251 1261 77 66 57
546.28 319.818 1324.27 220 241 245
595.064 353.354 1332.81 235 255 255
595.064 353.354 1332.81 235 255 255
569.24 406.88 1334.48 216 246 255
-438.511 376.969 1166.26 151 120 115
558.448 459.569 1377.79 216 245 246
-138.43 404.255 1175.72 176 159 132
-186.986 570.448 1254.56 12 27 21
-51.8088 -457.817 1329.8 180 176 166
-275.312 -275.791 952.542 77 77 61
-264.652 -323.823 1385.65 80 55 34
-293.93 -76.67 386.18 21 25 19
1056.56 -193.277 1514.07 65 73 70
245.322 -96.1154 1035.2 149 152 148
401.157 -79.6539 1040.53 102 81 73
280.974 -79.5504 1042.73 133 117 105
-298.851 -78.4874 1190.35 61 63 54
-388.051 -38.2548 1168.49 129 142 138
321.154 -30.11 1061.56 104 77 65
389.466 -23.0938 1062.53 111 87 77
411.573 -9.45308 1051.15 235 211 188
301.809 1.21444 1075.78 255 254 255
564.235 6.10594 1112.85 246 255 249
476.781 38.9288 1184.36 254 250 241
352.417 35.6226 1079.28 255 252 222
379.549 68.1444 1126.69 224 217 220
291.43 72.4231 1088.93 224 213 205
-222.112 79.0549 1123.95 139 131 115
504.343 86.188 1190.88 255 255 235
589.452 91.372 1144.28 245 248 246
400.854 104.189 1136.98 93 67 63
348.169 103.486 1111.42 255 247 241
438.69 102.338 1115.47 248 225 216
-369.549 95.0431 1001.29 253 232 212
450.83 113.055 1136.6 97 72 66
-481.852 111.241 1021.16 122 129 128
-283.968 124.155 1074.81 106 55 43
-283.968 124.155 1074.81 106 55 43
-203.732 133.796 1070.93 96 82 65
617.863 157.717 1187.33 243 248 245
643.572 161.856 1211.84 101 109 79
-271.571 136.657 1021.82 252 229 208
625.952 161.744 1161.96 200 206 182
-261.956 144.126 1001.46 252 229 205
431.14 170.984 1165.92 148 147 141
462.496 173.861 1184.44 184 181 131
558.783 182.996 1186.14 255 253 237
-245.948 161.469 1001.5 55 17 8
-245.948 161.469 1001.5 55 17 8
410.413 204.895 1108.81 133 125 98
434.943 235.768 1230.8 102 92 74
434.943 235.768 1230.8 102 92 74
-178.506 250.717 1252.89 103 79 62
-297.086 229.801 1081.11 255 253 246
-295.246 323.305 1133.6 254 252 246
-298.207 335.255 1130.12 200 201 184
-143.149 346.185 1155.48 142 118 87
-203.892 367.693 1167.11 114 94 65
614.86 450.336 1390.85 159 183 174
614.86 450.336 1390.85 159 183 174
-297.911 374.072 1133.97 166 180 156
-312.245 397.657 1171.5 221 233 200
-218.572 -272.279 818.494 100 102 97
37.2433 -273.85 868.552 176 175 171
37.2433 -273.85 868.552 176 175 171
511.41 -108.946 1040.18 115 143 119
438.265 -96.4491 1040.86 75 64 62
438.265 -96.4491 1040.86 75 64 62
471.348 -98.6369 1057.31 67 59 51
526.453 -79.3172 1049.25 252 255 249
271.101 -20.5065 1046.11 111 86 80
436.583 -3.05957 1085.34 130 113 90
352.265 0.193897 1079.55 103 85 77
-314.417 5.0968 1014.82 65 88 89
-328.972 9.55021 1012.43 41 77 83
274.403 15.4405 1085.32 123 92 94
353.222 45.0327 1146.08 128 77 57
-337.491 39.9729 960.442 181 136 112
-212.678 106.521 1246.51 95 88 79
413.21 113.116 1146.08 252 244 233
-261.95 100.629 1033.59 165 90 83
-261.95 100.629 1033.59 165 90 83
-474.462 106.206 973.288 247 245 243
-309.769 112.219 1032.46 225 176 162
-236.239 119.932 1058.92 147 102 79
326.769 133.959 1148.46 136 110 106
-510.929 114.792 1022.15 89 70 55
-445.566 115.389 1003.33 162 136 131
-445.566 115.389 1003.33 162 136 131
431.798 145.247 1163.33 178 168 124
-193.946 217.554 1088.41 205 143 96
-193.946 217.554 1088.41 205 143 96
386.889 259.689 1194.98 142 134 129
600.8 296.142 1381.19 173 195 189
-178.838 349.873 1236.77 194 150 114
-395.003 320.536 1106.69 248 255 254
510.076 377.499 1226.78 93 131 151
665.78 489.142 1569.9 73 112 141
-249.198 -205.53 783.173 99 94 82
-271.698 -400.83 1523.85 68 65 55
287.505 -28.6766 1047.12 252 253 251
287.505 -28.6766 1047.12 252 253 251
555.88 -23.3844 1093.28 249 255 243
292.632 24.9077 1106.19 255 254 253
433.894 24.2305 1092.33 208 134 107
-365.954 19.3533 1020.53 39 44 37
390.915 29.4486 1094.92 143 106 82
-215.078 70.6616 1184.1 190 170 150
-391.182 96.5816 1020.6 212 127 103
351.024 148.795 1145.9 161 165 132
538.732 164.335 1116.65 254 254 240
-171.467 262.031 1305.37 190 169 148
-409.067 307.718 1103.31 243 248 236
-385.516 304.219 1096.8 166 126 114
528.538 486.209 1432.43 131 165 176
3.24966 -147.259 457.993 94 95 90
506.828 -177.918 1010.94 63 109 121
365.075 -188.887 1134.13 203 177 161
372.199 -142.18 1031.32 52 44 41
253.623 -144.755 1184.39 49 47 45
529.352 -116.425 1036.74 119 155 121
331.041 86.4708 1117.38 136 113 125
424.31 97.969 1133.63 105 79 74
319.826 109.018 1133.03 253 253 253
321.681 132.573 1203.93 86 62 51
-338.846 110.329 963.978 255 255 251
473.522 136.891 1145.09 189 187 173
-502.06 141.384 1033.37 247 245 241
-502.06 141.384 1033.37 247 245 241
-347.853 253.477 1099.58 253 254 250
-443.453 294.79 1096.56 136 103 81
588.232 434.042 1400.02 91 134 171
-438.831 355.077 1131.99 254 253 255
-438.831 355.077 1131.99 254 253 255
565.201 469.639 1385.53 203 229 230
-365.371 448.052 1151.57 62 49 50
-268.249 -251.545 878.086 156 167 160
275.993 -18.8389 1123.03 87 64 57
532.189 6.70646 1181.74 168 167 120
532.189 6.70646 1181.74 168 167 120
-396.859 78.6477 1022.63 249 199 179
-338.943 160.994 1054.21 138 89 78
-330.651 195.106 1075.8 130 85 67
-330.651 195.106 1075.8 130 85 67
-330.651 195.106 1075.8 130 85 67
-378.647 260.069 1051.32 251 242 228
-390.547 381.843 1114.82 253 251 249
-388.584 421.985 1111.2 251 251 246
377.193 -105.209 987.633 88 69 69
-272.636 -42.0282 1115.55 163 139 111
-272.557 -41.7734 1114.31 162 139 111
368.418 -3.07435 1073.56 117 93 82
557.209 -18.51 1090.63 254 255 251
326.53 45.3561 1111.27 179 137 119
-476.666 179.75 1042.69 250 253 253
-476.666 179.75 1042.69 250 253 253
538.622 229.222 1227.43 126 115 106
538.622 229.222 1227.43 126 115 106
-183.438 250.072 1093.29 255 251 235
-322.931 398.842 1144.35 177 196 157
-168.468 -170.581 554.354 98 99 93
-168.468 -170.581 554.354 98 99 93
-40.0438 -197.414 786.821 172 155 125
-40.0438 -197.414 786.821 172 155 125
-165.088 -199.788 903.067 103 75 55
-268.551 20.374 1026.59 246 209 173
440.094 82.1443 1120.71 137 111 100
-259.316 76.501 1085.22 220 192 144
505.568 -136.863 1001.76 133 169 126
-292.888 -39.5448 398.021 139 158 150
597.164 114.966 1153.23 148 163 153
321.802 160.674 1204.97 79 72 60
370.155 -212.181 1124.58 107 98 92
-325.838 -24.4863 1069.84 137 145 144
535.332 335.533 1336.47 205 229 226
-285.484 -52.3524 425.469 24 24 19
528.105 112.236 1168.37 250 255 251
-136.17 -115.258 536.097 96 60 43
238.85 -75.3596 869.272 84 69 63
-274.151 382.192 1284.3 221 219 218
