897.753 -257.493 1203.97 120 127 122
453.211 -263.491 1789.41 99 91 89
555.132 -153.33 1756.71 203 190 167
514.758 -141.796 1753.4 239 226 205
697.442 -167.102 2135.94 154 155 127
570.497 -97.1033 1839.14 255 252 224
429.897 -26.125 1729.42 145 122 123
15.4441 107.432 1274.83 215 114 102
517.22 195.775 1940.25 42 32 23
76.6841 195.021 1347.64 151 121 114
80.8089 178.745 1237.45 255 243 243
573.502 330.384 1991.64 164 174 175
-38.3964 214.272 1183.32 153 119 111
-171.914 468.729 1512.24 62 36 18
113.8 537.358 1418.26 45 39 30
112.953 554.96 1446.4 40 36 26
56.4006 656.941 1410.7 125 179 163
30.901 46.7445 -237.785 144 153 148
439.34 -272.771 1770.29 190 196 202
-1204.53 -209.146 1628.78 138 148 138
472.205 -213.769 1669.48 55 37 34
514.325 -177.76 1790.99 165 158 140
-903.095 -123.555 1276.96 71 88 83
-903.095 -123.555 1276.96 71 88 83
509.288 -40.7765 1787.21 253 249 245
510.781 52.9447 1745.64 249 244 223
-21.037 38.7538 1168.54 255 253 236
-21.037 38.7538 1168.54 255 253 236
-18.8372 48.5928 1167.14 255 248 241
400.048 146.46 2003.55 92 112 89
499.435 144.73 1912.76 85 73 68
8.00205 101.235 1174.04 173 128 114
92.4621 168.471 1324.25 255 251 245
-47.9476 174.916 1177.11 78 49 41
554.602 323.339 1981.53 239 253 253
-92.5011 233.581 1188.24 123 103 82
-92.5011 233.581 1188.24 123 103 82
462.051 441.688 2219.93 73 90 86
-5.20961 304.91 1247.3 255 247 241
-51.0655 348.65 1269.42 129 85 65
-51.0655 348.65 1269.42 129 85 65
-3.33348 381.71 1253.16 96 64 48
-3.33348 381.71 1253.16 96 64 48
912.798 -337.297 1362.63 16 19 20
530.042 -275.366 1782.85 202 224 226
399.689 -290.541 2006.05 107 86 83
399.689 -290.541 2006.05 107 86 83
-1076.36 -320.904 2580.2 130 104 73
-382.807 -51.7424 521.606 137 149 144
595.607 -147.281 1839.6 148 150 119
24.7523 -66.7079 1249.79 144 136 132
525.74 -38.6828 1741.39 136 119 110
-16.8074 -3.74549 1255.8 255 243 226
-24.6668 0.169803 1103.79 232 213 190
-24.6668 0.169803 1103.79 232 213 190
121.299 12.0825 1374.7 251 217 186
516.636 21.6094 1734.7 255 250 229
-23.5262 12.5948 1150.09 184 106 87
-16.9176 84.455 1179.1 149 103 108
547.477 157.46 1877.14 139 123 104
-68.4088 158.949 1171.97 175 149 127
528.286 408.048 2024.97 159 184 186
64.9889 272.789 1312.44 204 188 184
-16.106 349.41 1207.76 252 246 240
-64.7326 376.805 1260.95 56 39 29
-162.908 503.43 1540.72 15 9 1
1.37697 454.946 1271.59 254 251 235
1.37697 454.946 1271.59 254 251 235
359.409 -210.12 1710.63 16 10 7
555.009 -173.836 1965.65 104 83 76
-154.469 -67.0901 1368.71 101 81 66
-154.469 -67.0901 1368.71 101 81 66
3.46347 36.6719 1193.71 251 253 249
612.26 75.011 1846.05 162 165 142
601.124 108.95 1890.12 148 142 114
-1.367 91.8298 1202.09 253 251 246
534.369 153.866 1836.44 143 123 105
-17.9231 101.906 1180.31 254 247 254
547.523 234.626 2080.92 234 243 241
81.8147 177.832 1319.96 140 118 109
-15.781 252.386 1212.94 156 60 43
-14.4336 313.562 1242.12 247 252 251
26.9219 420.253 1293.01 77 61 56
26.9219 420.253 1293.01 77 61 56
46.1217 456.065 1366.84 255 254 250
-53.2843 12.5939 1103.37 223 210 187
-45.128 79.3677 1124.65 255 253 251
466.231 173.348 1759.71 61 46 36
-90.409 153.08 1190.02 73 49 28
106.413 174.325 1351.52 252 252 251
22.8089 245.382 1255.8 175 117 102
22.8089 245.382 1255.8 175 117 102
42.4068 268.76 1259.23 250 253 252
42.4068 268.76 1259.23 250 253 252
-32.0211 338.424 1224.2 74 51 46
15.3016 351.982 1263.2 253 254 255
-338.491 -122.197 821.881 67 73 73
-525.439 -100.045 772.757 72 82 78
15.3634 81.0868 1227.41 227 142 122
403.839 260.768 2014.77 94 111 121
32.5506 388.632 1316.49 109 92 89
29.6096 368.789 1241.27 109 92 89
-118.224 -246.541 1471.41 53 44 35
391.759 -248.901 1734.38 195 175 160
492.136 -216.682 1617.45 103 90 82
-570.326 -89.8113 818.843 124 138 130
-37.8022 127.745 1148.25 255 254 254
-145.667 172.763 1239.2 160 92 57
-521.219 -65.5686 671.662 77 69 57
-52.126 -73.7898 1280.95 58 86 88
231.909 -361.012 1681.06 178 174 164
18.0488 -53.2071 1239.43 66 99 106
-112.304 316.678 1265.15 154 105 66
-42.2739 399.506 1273.88 50 45 41
-389.791 -183.356 947.311 130 134 129
-93.6647 48.7047 1165.75 60 34 33
-85.1174 181.95 1209.2 74 54 42
407.682 -164.495 1689.27 59 48 39
407.682 -164.495 1689.27 59 48 39
278.452 -165.59 1898.67 47 44 35
68.3923 519.921 1385.67 76 75 74
531.969 -37.4623 1723.52 212 208 185
-43.092 528.452 1380.69 49 48 45
342.878 42.6661 1686.22 79 93 66
