-1284.06 -237.505 2637.52 30 47 42
-1257.9 -174.654 2501.17 41 35 30
286.384 -74.9754 1587.42 149 143 129
327.284 -49.8049 1607.42 246 226 209
-1569.72 -71.6199 2758.87 139 125 99
332.555 87.4574 1662.65 105 88 87
225.094 102.378 1675.88 42 22 5
411.632 215.005 1845.55 172 151 122
222.664 266.201 1890.79 46 37 26
-87.1334 210.45 1078.98 153 120 116
-80.4064 230.303 1127.9 254 235 203
308.547 409.407 1828.86 216 244 255
-221.409 281.304 1180.86 51 9 6
-94.525 281.362 1129.01 155 120 104
-220.254 310.782 1204.25 42 2 1
-47.7224 310.385 1193.61 99 76 64
-203.936 392.382 1205.81 48 23 12
-38.1649 384.647 1172.98 250 229 214
45.2869 459.171 1329.99 255 255 242
-51.6406 449.046 1182.21 252 244 234
-178.429 567.536 1353.62 241 234 222
-196.599 577.096 1372.39 8 11 3
-73.583 497.849 1128.2 153 149 133
34.747 626.508 1367.65 43 41 35
43.1393 631.453 1369.55 253 253 246
-1248.72 -307.868 2216.57 170 166 154
-1350.63 -215.584 2522.89 151 157 154
170.773 -121.513 1734.05 69 74 54
168.498 -15.6972 1619.86 118 110 90
385.092 45.3771 1795.41 144 125 127
1.34252 41.6188 1188.06 105 51 34
-64.1412 148.24 1100.52 252 255 248
-64.1412 148.24 1100.52 252 255 248
-157.697 151.645 1108.15 184 160 161
-95.9329 204.159 1060.86 253 253 254
-100.672 233.821 1082.76 77 49 44
-59.7512 342.676 1176.31 164 148 140
-186.293 442.184 1219.97 163 115 93
898.641 -357.584 1749.04 97 96 93
376.744 -85.7909 1672.3 127 122 100
304.882 -44.1501 1629.27 255 252 247
284.452 -35.5138 1616.33 49 24 13
-113.578 6.82184 1257.31 172 153 163
346.5 93.9625 1730.87 114 100 93
-84.7948 80.0181 1101.43 183 120 103
465.054 164.213 1911.52 171 174 150
363.525 226.513 1741.73 141 121 98
-77.764 151.08 1121.38 196 143 140
-11.3917 165.512 1194 148 113 99
-156.546 207.987 1136.96 49 19 5
7.13217 248.575 1266.44 146 121 94
283.504 330.537 1539.41 245 255 251
-275.798 281.282 1152.37 49 24 13
346.263 470.213 1887.47 161 179 177
-70.5528 410.338 1139.57 253 249 249
-24.8096 503.775 1238.25 253 253 246
-52.8157 508.566 1179.28 254 251 239
200.932 -115.426 1640.35 27 24 21
-239.219 20.3297 1297.81 119 90 84
215.074 101.347 1823.26 126 130 107
-64.3756 157.23 1127.73 249 248 247
-65.1577 158.849 1154.96 249 248 247
314.544 247.685 1682.8 52 38 23
67.8233 274.385 1384.52 251 251 231
-97.9139 333.682 1134.53 82 38 35
-68.8755 384.282 1134.69 252 254 254
-33.1014 480.929 1215.67 97 78 71
-33.1014 480.929 1215.67 97 78 71
23.5934 237.428 1260.67 250 255 255
-68.0376 250.709 1134.77 240 208 179
-41.5648 309.079 1186.67 194 127 121
-41.5648 309.079 1186.67 194 127 121
-22.5783 317.687 1206.28 255 254 252
-76.1342 332.881 1126.57 255 253 245
-86.0145 403.059 1156.07 73 43 43
-71.8537 501.826 1148.71 153 143 120
-1300.43 -224.309 2691.87 68 70 68
-1300.14 -186.877 2509.04 68 70 70
-21.7839 0.0576007 1112.61 80 114 125
-109.952 79.0692 1067.44 213 190 169
-196.213 119.408 1106.45 47 26 18
-33.8138 139.14 1176.1 248 251 247
220.957 329.083 1820.72 61 74 81
-142.721 216.247 1086.62 73 56 40
-22.9154 325.122 1168.46 252 253 255
-22.9154 325.122 1168.46 252 253 255
-184.18 383.65 1186.09 145 93 74
363.643 -144.562 1709.77 122 116 101
-311.177 80.7579 1154.41 108 79 56
-139.809 159.233 1076.03 172 120 97
-93.6922 192.012 1085.4 252 255 251
-201.456 242.111 1141.39 162 93 61
-132.97 3.88042 1187.77 47 87 92
243.109 52.3976 1635.61 63 49 49
-97.4584 457.932 1175.61 44 39 37
5.6646 574.999 1305.97 91 91 87
249.367 -74.9601 1616.37 66 51 49
288.078 194.812 1705.52 57 46 36
329.609 320.382 1740.01 216 233 234
336.036 36.5635 1538.5 255 251 250
-315.185 6.59634 1394.16 142 132 114
139.144 93.3166 1190.16 79 91 64
