539.527 -179.303 1124.61 107 140 113
543.667 -127.626 1178.18 157 154 143
421.789 -120.584 1173.82 151 128 117
419.004 -90.935 1142.06 161 151 135
433.382 -74.3279 1161.53 227 206 181
380.042 -15.5796 1185.44 221 200 196
380.042 -15.5796 1185.44 221 200 196
507.199 63.5108 1225.52 255 255 238
558.758 77.4641 1230.02 178 180 160
-135.052 176.738 1023.91 255 250 240
458.786 253.601 1281.73 123 163 158
481.96 276.199 1334.74 198 224 220
-110.45 255.453 1071.64 253 244 235
-21.8701 273.624 1160.59 192 141 121
-67.8419 283.051 1096.07 255 252 243
345.783 -168.558 1100.26 204 199 190
397.653 -65.7435 1143.51 173 169 143
456.342 -54.0049 1168.22 134 104 82
-109.432 8.42196 971.947 255 236 193
-115.326 40.4314 1020.88 255 245 228
-115.326 40.4314 1020.88 255 245 228
494.537 73.6165 1247.78 153 155 136
-146.311 63.4806 1032.66 216 152 131
-243.14 62.9056 892.497 240 248 243
-264.239 72.9856 945.976 72 67 55
453.942 92.767 1244.77 211 215 187
-242.124 75.5715 959.783 149 97 82
-57.5261 83.1342 1049.56 245 246 228
-275.256 85.2431 930.684 77 62 47
-275.256 85.2431 930.684 77 62 47
-236.156 84.4976 968.548 251 251 237
-71.8713 126.052 1044.67 79 42 31
-71.8713 126.052 1044.67 79 42 31
-46.6047 137.197 1057.74 201 138 96
576.257 241.271 1349.87 160 183 181
-55.9319 179.649 1048.88 60 18 10
-114.352 201.23 1130.65 254 254 246
-174.93 216.386 1069.92 251 254 252
581.129 329.374 1345.11 251 254 252
-249.038 264.773 1008.71 252 249 250
-240.651 346.476 1078.82 254 251 254
407.566 -101.511 1155.55 231 229 230
-150.108 -6.34386 966.284 162 109 75
603.811 17.4676 1214.96 67 68 56
-268.112 19.9053 976.537 150 114 89
627.133 38.032 1310.42 147 151 146
384.018 33.2876 1184.53 43 9 7
-258.566 29.9084 943.1 202 179 151
-258.566 29.9084 943.1 202 179 151
-165.449 47.9712 981.617 71 28 22
-188.49 50.791 974.404 208 109 76
504.954 102.076 1227.57 139 127 103
-220.012 100.774 972.991 167 84 67
-233.571 105.325 972.407 255 247 235
530.859 156.942 1278.96 248 253 245
472.103 223.859 1345.32 50 98 115
-266.482 208.57 1003.38 255 254 236
-237.201 280.986 1029.52 117 85 90
-77.7791 367.235 1107.95 91 69 49
442.751 -211.114 1130.59 26 18 12
555.439 -186.503 1141.2 113 146 113
368.418 -94.8245 1165.82 34 14 5
495.967 -62.4384 1157.91 253 252 247
495.967 -62.4384 1157.91 253 252 247
562.772 -54.225 1217.26 255 254 252
418.324 -24.2097 1151.55 254 251 251
418.324 -24.2097 1151.55 254 251 251
511.291 40.5681 1205.79 188 189 178
-25.8091 150.494 1094.42 224 151 110
526.756 260.11 1311.28 215 240 241
540.305 326.76 1349.29 216 243 243
540.305 326.76 1349.29 216 243 243
-114.561 417.076 1158.46 250 249 246
-209.254 393.68 1048.25 63 44 35
401.16 17.4519 1186.57 250 246 247
-301.418 45.6702 938.969 184 167 131
-161.432 66.8549 993.396 250 239 233
-44.0008 89.1517 1076.2 194 122 82
-153.82 195.253 1055.12 255 251 246
-170.314 200.894 1025.01 245 247 240
-170.314 200.894 1025.01 245 247 240
-235.514 241.775 994.271 129 43 19
-178.555 384.76 1073.9 81 80 78
-302.326 82.7231 970.074 113 61 57
-283.792 103.253 946.535 242 217 218
-145.813 108.328 1027.89 112 65 57
-145.813 108.328 1027.89 112 65 57
-181.295 135.287 993.216 232 203 182
-135.823 136.854 1021.09 93 59 37
-135.823 136.854 1021.09 93 59 37
-135.823 136.854 1021.09 93 59 37
-91.6364 168.726 1024.3 250 246 229
-193.516 240.105 1030.45 146 97 83
-193.516 240.105 1030.45 146 97 83
608.019 83.4408 1249.42 137 156 120
-123.212 172.558 1034.34 149 124 111
601.896 17.2094 1228.3 132 140 129
-179.926 77.7822 982.166 254 238 232
-216.11 102.934 1017.94 204 108 81
386.908 58.9583 1214.98 49 41 37
530.671 208.394 1332.02 216 238 236
-148.908 43.7393 983.749 224 180 166
-50.1541 132.999 1011.27 221 172 124
473.044 -167.752 1154.02 90 60 53
