640.175 -283.865 1406.72 86 56 49
781.085 -248.832 1390.25 205 227 202
421.349 -261.741 1511.8 84 82 66
-995.78 -400.121 2845.21 130 136 132
-995.78 -400.121 2845.21 130 136 132
819.611 -194.07 1446.77 238 245 219
-820.868 -256.389 1888.69 39 47 49
825.207 -185.626 1443.2 160 167 144
-890.061 -245.02 2055.5 107 113 107
684.999 -109.361 1427.69 208 188 161
657.702 -79.3435 1390.77 255 247 228
594.77 -66.1753 1413.87 166 120 109
92.4691 4.23667 1095.18 239 194 177
172.585 122.565 1191.76 255 250 228
145.984 136.501 1174.57 214 149 126
-137.877 224.374 1219.59 160 124 102
116.321 304.293 1227.62 253 251 233
0.865924 313.151 1108.68 255 246 226
165.479 363.607 1205.2 46 41 34
-11.7768 355.843 1126.02 42 33 26
-11.7768 355.843 1126.02 42 33 26
168.042 523.096 1299.8 190 209 201
-27.8676 -806.719 2528.81 15 1 0
-57.8643 -371.682 1216.46 160 154 135
-393.675 -301.888 1022.86 168 166 158
-309.855 -209.04 1001.76 74 77 70
-858.498 -339.203 1857.72 147 160 153
580.167 -179.031 1282.39 80 74 72
-406.023 -135.404 1133.85 80 57 40
-406.023 -135.404 1133.85 80 57 40
-596.062 -154.356 1432.17 237 235 233
715.617 -124.445 1384.18 136 115 95
638.111 -100.925 1387.86 166 154 136
637.531 -88.9494 1361.36 114 100 73
869.715 -100.405 1539.04 142 167 152
646.937 -72.1245 1390.14 122 67 53
-1021.6 -60.0344 1403.98 105 116 112
832.076 -57.0563 1458.4 242 255 240
574.655 -50.2404 1318.85 75 54 46
814.08 -51.9629 1408.95 126 125 113
6.57835 -20.3248 1024.74 255 248 243
652.917 12.1646 1513.84 32 15 9
58.1242 11.4161 1046.64 255 253 240
58.1242 11.4161 1046.64 255 253 240
30.7476 18.3212 1027.71 214 149 128
109.698 32.3231 1114.3 196 130 95
68.4709 47.2423 1093.14 222 174 165
115.619 50.8772 1133.83 207 135 105
136.486 92.2171 1146.53 255 247 227
837.564 244.883 1633.91 181 191 191
74.9385 205.395 1214.61 254 249 249
659.384 294.054 1698.93 49 52 44
-69.4721 248.292 1055.76 249 255 254
-45.8095 346.903 1124.19 254 252 252
-29.1058 368.122 1130.87 116 79 55
-40.9765 379.542 1151.02 255 246 237
-609.366 -427.191 1910.73 152 156 149
1.17775 350.431 -1587.05 144 112 82
-111.022 -608.853 2791.27 139 107 74
-6.82068 28.4087 -136.293 53 66 60
-284.886 -86.3965 433.745 49 61 54
-929.381 -276.377 1670.2 124 129 123
-929.381 -276.377 1670.2 124 129 123
-517.244 -138.801 857.07 55 56 51
664.369 -145.392 1359.2 238 224 195
699.196 -62.4967 1410.75 241 228 220
-890.987 -50.981 1202.48 0 2 1
588.004 -35.7059 1326.62 236 230 233
588.004 -35.7059 1326.62 236 230 233
-216.815 -0.938252 1164.1 49 28 18
574.874 -0.376738 1357.18 156 148 149
-48.5644 3.02744 1126.4 218 197 161
-80.7989 4.35745 934.824 149 108 81
107.512 7.93617 1107.5 237 140 101
-74.9514 14.4948 933.197 227 194 170
-74.9514 14.4948 933.197 227 194 170
690.359 39.6128 1413.22 250 250 233
729.321 46.4714 1452.83 167 171 156
-2.5736 35.7635 1024.29 212 126 86
-26.7552 38.0979 1020.38 200 116 96
146.985 78.2646 1164.88 184 113 74
-46.8652 93.7893 1027.91 255 252 239
695.447 144.899 1450.79 104 93 82
159.897 141.938 1144.96 225 164 124
587.163 187.232 1462.46 130 155 152
-78.8277 202.825 1066.9 252 251 235
204.989 280.947 1242.11 200 152 127
105.522 281.364 1205.01 248 253 240
-64.5644 263.877 1073.2 246 249 249
3.5174 343.127 1134.36 255 253 242
198.752 447.687 1341.98 76 62 55
-20.1533 437.18 1158.69 221 216 199
-285.537 -192.404 743.204 150 148 139
-324.716 -216.854 1149.87 136 141 139
497.075 -219.767 1346 13 16 14
-806.833 -174.593 1643.25 65 34 22
773.263 -107.921 1471.24 255 253 251
823.523 -99.7881 1491.07 255 251 247
659.846 -52.4643 1402.64 255 251 245
625.411 -6.82287 1393.99 236 235 233
625.411 -6.82287 1393.99 236 235 233
743.226 8.9296 1467.52 254 254 236
19.3172 11.9261 1074.71 249 195 174
-201.888 50.0272 1188.22 116 92 73
642.552 159.576 1453.45 31 15 9
757.04 296.718 1636.58 212 236 233
-24.5846 248.295 1072.52 247 252 249
205.169 305.523 1270.33 231 212 185
-45.9384 316.896 1096.57 253 249 253
-435.402 -357.127 1276.96 88 75 65
159.049 -394.983 1534.23 63 41 26
709.8 -288.083 1375.78 157 192 187
585.916 -129.698 1363.77 32 13 8
-27.923 -22.351 1074.66 100 74 58
23.9363 54.6446 1052.48 253 251 247
131.456 102.665 1145.76 244 252 235
-46.4479 96.6531 1019.78 255 254 246
38.3089 189.09 1109.85 252 252 246
784.029 399.423 1978.39 69 74 66
-52.1059 244.699 1079.54 153 73 51
-48.4084 298.904 1088.52 254 250 254
-60.5029 322.74 1101.24 93 79 76
10.2868 398.75 1148.31 86 77 80
-483.439 -383.501 1252.32 32 33 24
21.4423 -417.101 1648.94 78 80 78
-293.966 -209.413 881.489 108 103 91
-414.457 -254.101 1130.31 85 83 71
486.911 -236.635 1366.63 164 160 165
-525.437 -136.842 844.483 131 148 138
-408.677 -86.8886 637.035 73 73 66
810.189 -103.63 1420.71 177 202 181
637.92 -72.8042 1389.82 137 92 81
-114.847 29.2069 971.61 195 174 144
-19.4022 43.3341 1041.53 236 141 120
-42.2316 48.5511 1038.98 239 255 251
795.875 89.651 1479.16 132 118 98
795.875 89.651 1479.16 132 118 98
-101.099 90.891 1007.26 254 242 237
52.0328 132.012 1107.77 157 110 89
52.0328 132.012 1107.77 157 110 89
96.6268 165.837 1113.65 255 254 244
-382.59 -271.545 1070.52 135 143 139
-305.749 -99.1162 535.185 133 146 139
641.159 -117.416 1342.76 107 96 88
176.732 187.463 1209.63 223 217 199
23.7235 261.536 1130.43 255 252 253
23.7235 261.536 1130.43 255 252 253
-22.8146 389.686 1138.47 247 231 221
7.37052 -145.296 482.586 122 122 115
-525.83 -322.893 1751.94 100 76 55
-525.83 -322.893 1751.94 100 76 55
-525.83 -322.893 1751.94 100 76 55
724.441 -250.231 1355.82 94 91 91
-124.098 68.6017 1031.95 80 52 37
5.11194 68.2746 1061.5 254 255 249
5.11194 68.2746 1061.5 254 255 249
-86.4943 134.109 1034.43 252 250 251
-86.4943 134.109 1034.43 252 250 251
56.9351 351.665 1196.53 165 187 141
622.046 -235.386 1318.24 88 82 77
-281.209 -123.327 887.871 154 134 110
-281.209 -123.327 887.871 154 134 110
-649.032 -141.803 1460.49 69 59 41
103.58 -47.2573 1074.22 233 190 154
815.19 -3.48945 1512.76 251 253 252
815.19 -3.48945 1512.76 251 253 252
628.97 175.875 1784.43 156 151 138
-26.9389 -208.035 713.152 138 138 131
471.638 -205.893 1533.63 57 50 39
574.435 65.0357 1726.21 61 55 48
818.879 214.593 1677.37 224 248 243
642.802 298.864 1696.24 81 71 61
-367.07 -129.871 687.042 134 148 140
543.474 -176.658 1344.08 53 48 41
-2.04111 -53.1416 1086.57 46 84 90
588.454 392.189 1679.63 205 206 194
743.596 -246.568 1462.01 95 79 73
784.009 -51.1757 1503.18 178 179 154
57.9361 145.486 1136.98 112 50 29
