-270.416 -462.359 1359.47 24 35 28
-336.73 -431.642 1325.57 40 54 45
-457.659 -535.033 1657.96 45 62 53
-457.659 -535.033 1657.96 45 62 53
-254.705 -680.79 2629.04 95 84 64
-417.187 -584.985 2283.41 180 167 145
-384.882 -436.633 1727.35 222 221 217
-335.068 -249.327 991.143 119 99 80
-415.239 -626.294 2553.54 177 163 135
399.509 -295.061 1264.4 58 47 42
402.406 -247.946 1186.88 54 17 16
373.537 -247.971 1203.08 231 204 206
540.072 -202.017 1060.61 124 120 125
368.911 -176.655 1045.1 29 18 3
410.564 -164.56 1056.32 103 91 90
384.271 -151.885 1056.26 118 114 104
534.469 -144.076 1102.5 135 134 135
445.58 -132.411 1076.33 142 143 129
629.371 -123.255 1129.78 119 140 118
623.508 -113.981 1113.24 237 254 240
381.726 -93.6709 1087.15 67 49 42
489.063 -65.9776 1126.35 103 99 70
643.917 -57.1774 1150.2 85 125 99
441.267 -49.8144 1146.85 84 87 71
375.794 -33.6564 1131.75 163 128 107
413.44 -9.5041 1202.48 221 196 189
388.252 17.6371 1152.45 55 40 27
-172.062 21.5719 966.578 255 240 228
482.873 24.7674 1144.31 70 43 38
-208.021 46.8268 949.006 255 249 242
420.979 81.2764 1181.57 163 162 138
-104.229 74.9742 1031.67 138 76 40
-358.413 77.7774 952.848 255 248 247
-131.648 93.2709 1048.14 255 222 212
425.317 142.362 1444.82 150 147 134
652.322 244.808 1360.8 214 236 231
630.53 307.23 1399.68 219 245 247
-173.025 236.376 1066.44 255 231 226
-318.308 228.314 1006.47 234 231 219
669.58 358.685 1433.01 148 167 158
-98.4445 139.137 539.349 244 240 225
-292.568 282.468 1062.57 255 234 206
-220.999 288.985 1047.05 222 226 201
-38.5945 329.676 1184.43 138 112 79
-38.5945 329.676 1184.43 138 112 79
-94.1149 360.729 1137.78 31 40 41
-198.027 432.54 1324.99 9 1 0
-338.216 -518.039 1514.94 209 215 210
-407.555 -515.387 2149.05 174 160 139
408.937 -213.142 1050.73 129 107 124
649.778 -215.4 1130.64 121 155 114
513.572 -166.559 1073.72 69 55 44
496.523 -103.406 1145.48 255 255 240
591.903 -97.2553 1134.47 117 114 88
490.613 -70.381 1112.11 200 202 170
427.646 -68.8639 1147.69 66 53 53
678.367 -50.5885 1210.03 240 255 238
443.524 -34.317 1149.16 111 53 45
486.89 -16.1593 1120.34 249 242 234
-98.2197 8.40984 988.713 236 236 204
-180.296 9.69103 968.296 255 250 229
-217.968 20.3108 965.36 255 251 233
543.469 30.3272 1201.33 248 226 222
500.729 33.1904 1168.49 255 240 231
545.403 39.1315 1165.47 255 250 227
-133.893 39.4437 879.414 51 11 1
-356.799 52.1751 964.402 87 56 60
-227.801 67.9716 999.024 255 251 250
-147.949 72.1744 1066.56 62 17 9
453.127 93.9319 1241.08 74 70 52
463.743 108.598 1188.11 192 191 170
463.743 108.598 1188.11 192 191 170
-130.551 117.125 1041.75 38 15 6
-192.648 126.513 1022.88 76 30 16
494.315 217.742 1446.44 145 153 153
-114.757 171.377 1050.74 30 9 3
-168.329 166.769 1014.32 252 253 249
-343.894 177.555 1027.04 254 255 240
-219.612 174.053 985.244 253 255 251
-91.2369 186.451 1039.85 177 104 74
513.118 238.891 1305.93 167 210 219
-100.095 187.826 973.975 59 36 27
-112.166 236.673 1182.28 56 43 28
-105.185 249.21 1156.08 26 18 3
632.544 339.464 1379.12 231 250 250
-93.4267 286.172 1156.81 62 35 21
-266.16 294.2 1087.7 243 219 200
-259.996 314.215 1086.18 231 222 210
-314.26 316.831 1092.73 251 255 251
-259.724 349.387 1093.57 253 253 245
-259.724 349.387 1093.57 253 253 245
-286.643 439.092 1191.52 161 160 154
-262.484 496.198 1242.47 31 30 27
-37.3776 -464.539 1366.68 145 149 145
-37.3776 -464.539 1366.68 145 149 145
98.3988 370.207 -1392.91 176 159 134
-512.488 -448.021 1741.52 53 21 10
404.649 -193.595 1086.96 115 118 88
607.766 -168.698 1078.01 185 209 193
609.652 -149.212 1079.52 234 250 233
638.733 -135.27 1133.82 216 236 225
-169.459 -77.4735 829.562 101 105 105
-169.459 -77.4735 829.562 101 105 105
642.181 -98.3842 1139.69 247 255 242
642.181 -98.3842 1139.69 247 255 242
369.207 -86.9341 1089.94 35 15 12
401.682 -63.6638 1089.39 95 67 63
671.061 -61.9828 1184.69 104 139 109
416.007 -56.0056 1106.61 145 151 125
488.555 -46.1168 1130.71 125 96 73
-320.482 -15.2841 1038.3 215 190 159
-320.482 -15.2841 1038.3 215 190 159
-174.594 -10.5558 996.227 252 229 202
-343.752 -3.36937 987.928 191 173 142
-174.008 -0.227326 958.888 215 148 120
-144.424 11.4453 892.906 48 14 4
561.504 39.6347 1195.63 255 249 229
-317.113 33.3327 958.413 162 106 102
-317.113 33.3327 958.413 162 106 102
-343.232 40.7042 967.546 117 100 94
-343.232 40.7042 967.546 117 100 94
-312.566 45.647 955.832 137 89 78
-202.731 49.7223 1026.5 250 242 232
-305.442 55.327 958.012 210 229 213
-305.442 55.327 958.012 210 229 213
-113.778 69.1285 1021.14 228 214 202
614.256 84.7379 1221.15 254 254 240
528.38 91.7365 1221.29 139 142 134
433.644 115.46 1161.6 152 152 136
-109.977 131.803 1051.98 198 110 55
482.647 228.438 1269.06 24 63 89
482.647 228.438 1269.06 24 63 89
523.918 319.114 1422.04 29 61 75
-314.579 255.838 1058.14 152 109 101
-233.997 267.006 1083.56 203 135 141
-163.169 257.868 1033.02 102 81 68
-103.69 354.303 1131.38 250 252 241
-359.578 -303.955 944.748 62 59 53
633.721 -190.107 1105.63 101 139 99
595.955 -86.6046 1127.48 255 255 227
-218.758 -29.9259 993.095 195 124 91
637.629 218.107 1338.72 117 143 147
-64.7592 178.843 1097.32 254 254 236
-148.974 324.974 1122.61 139 162 115
-124.105 349.855 1079.02 251 250 243
-175.513 437.676 1313.95 251 253 249
-403.393 -393.255 1256.16 87 82 72
-403.393 -393.255 1256.16 87 82 72
-497.174 -369.92 1255.39 83 81 70
-497.174 -369.92 1255.39 83 81 70
634.837 -258.391 1114.38 45 91 97
482.457 -215.937 1078.47 3 7 4
544.805 -54.0072 1124.97 254 252 251
619.052 -45.3975 1170.64 255 252 245
381.9 -7.88136 1281.19 86 85 71
-234.267 1.39943 977.176 250 192 164
420.803 29.5591 1166.41 235 241 239
-366.296 44.3611 950.69 61 53 33
-366.296 44.3611 950.69 61 53 33
555.364 58.3154 1178.1 175 175 157
-307.946 80.0087 981.69 255 241 245
-226.786 179.837 1073.32 253 254 250
-239.107 180.148 1034.4 234 235 224
-239.107 180.148 1034.4 234 235 224
-315.979 217.908 1037.95 134 62 49
555.132 312.111 1384.39 163 201 185
-250.751 259.942 1047.54 101 81 70
-305.074 265.042 1034.2 250 248 244
-250.983 361.195 1085.36 62 62 62
-491.816 -403.516 1265.03 133 146 139
335.949 -230.986 1169.56 156 153 154
568.958 -68.3746 1118.31 157 156 121
-314.634 5.68937 991.226 179 122 94
-211.825 88.4424 1024.21 125 70 62
-211.825 88.4424 1024.21 125 70 62
-294.235 126.127 1015.1 225 182 146
-155.944 156.492 1032.92 249 246 228
-263.876 216.17 1039.49 188 143 132
-288.195 321.28 1127.73 237 235 235
-288.195 321.28 1127.73 237 235 235
646.112 -95.0149 1142 247 254 244
-196.115 55.6315 992.549 224 191 178
-191.999 160.146 1061.06 107 92 87
-191.999 160.146 1061.06 107 92 87
-165.825 -387.686 1215.87 97 71 56
-167.325 -85.4638 1024.32 42 82 95
-277.716 74.5085 975.61 190 90 75
-245.39 243.798 1093.73 247 235 233
-336.502 -328.969 1318.81 80 60 40
-247.517 54.3214 983.108 248 226 220
683.219 107.132 1237.21 112 139 110
618.635 -210.196 1079.03 108 155 112
668.289 34.3715 1193.32 103 121 101
574.65 233.864 1308.96 196 222 220
6.16147 519.045 1382.83 181 182 170
-80.0122 -28.4181 98.4849 65 79 73
-229.347 -100.298 1149.92 79 91 94
545.425 -185.271 1162.02 76 52 46
-156.59 276.572 1181.95 254 254 249
477.224 133.886 1434.22 60 54 43
