-582.425 -75.692 1151.55 134 142 138
-582.425 -75.692 1151.55 134 142 138
-543.043 60.6418 1419.21 138 138 121
-543.043 60.6418 1419.21 138 138 121
-401.153 76.8247 1419.13 153 117 114
-191.598 53.8624 1015.7 166 156 164
-134.732 58.6681 944.749 226 193 157
-558.858 116.375 1347.56 196 187 170
-286.526 98.3576 963.832 81 72 52
-192.331 96.5502 913.148 199 226 213
-192.331 96.5502 913.148 199 226 213
-167.668 96.3578 865.853 242 248 250
-253.609 100.702 850.348 78 78 73
-441.717 174.06 1282.06 138 155 145
27.8631 218.692 903.998 115 64 41
-98.9435 196.907 763.069 205 188 164
124.338 263.711 993.333 162 143 130
26.1531 265.588 902.845 50 16 3
-194.709 278.416 940.839 255 252 241
-22.9736 264.041 881.146 215 198 182
106.501 310.511 952.465 133 134 129
-126.6 266.562 814.588 249 255 243
-23.6702 302.487 875.893 55 38 23
99.183 340.117 975.597 55 30 26
115.276 336.928 962.642 81 45 35
-87.6138 308.191 832.657 123 122 109
-80.2437 308.593 831.874 67 46 32
101.423 362.635 960.912 198 152 136
101.423 362.635 960.912 198 152 136
169.573 392.048 1033.82 98 74 67
-66.3995 347.448 870.619 62 51 46
153.983 417.156 1036.13 112 62 31
77.6627 443.557 971.787 41 33 27
18.8341 -380.511 1792.77 69 46 28
-1404.36 -494.284 3877.69 76 76 61
-498.382 -85.1701 934.961 230 238 233
-1327.68 -247.273 2571.9 230 238 233
-1450.33 -231.413 2857.62 238 242 238
-1217.26 -109.749 2531.7 128 132 125
-379.111 -55.9438 1435.85 33 33 20
-379.111 -55.9438 1435.85 33 33 20
-422.232 -54.7423 1397.16 54 30 14
-434.065 -41.9466 1341.52 60 49 39
-518.081 -7.12714 1347.23 44 27 15
-420.887 -8.10666 1381.69 132 120 101
-121.172 26.3586 1051.12 43 27 23
-511.78 37.4001 1147.27 255 248 234
-524.423 49.1316 1274.47 145 104 53
-397.164 61.1874 1394.14 212 196 178
-350.679 65.4306 1445.25 221 175 164
-350.679 65.4306 1445.25 221 175 164
-387.945 82.2382 1457.76 19 12 7
-162.056 59.0504 1010 18 9 12
-633.519 114.18 1499.51 255 250 232
-166.466 81.7366 958.104 164 169 166
-166.466 81.7366 958.104 164 169 166
46.5657 84.4337 890.128 156 126 94
-171.538 151.309 722.704 230 229 219
-104.819 177.884 795.232 83 82 78
-97.172 191.557 805.945 43 44 46
57.2962 226.084 927.127 131 109 97
118.157 266.547 974.595 42 28 18
143.286 270.77 987.966 68 13 9
-30.9014 260.519 864.675 35 22 13
45.6345 284.825 942.859 72 83 100
-160.561 315.122 905.634 158 157 156
62.0987 342.901 958.201 68 40 33
73.4846 352.829 971.402 248 204 187
73.4846 352.829 971.402 248 204 187
136.686 429.761 1018.99 225 209 197
107.384 492.724 1063.12 77 97 93
97.2051 495.773 1030.5 66 87 87
-836.46 -273.524 1812.97 111 118 112
-1259.24 -284.777 2332.09 191 199 193
-129.645 23.097 1044.23 244 251 248
-369.846 53.8663 1450.91 77 39 21
75.079 32.9363 901.322 19 10 5
-70.9739 37.836 960.773 196 167 150
-562.377 55.5818 1288.93 255 254 249
-109.588 74.9816 898.688 222 217 202
-109.588 74.9816 898.688 222 217 202
-91.2524 99.5642 834.643 72 76 72
-224.139 138.384 904.784 72 82 74
-98.9359 161.012 793.292 25 30 22
-147.181 181.984 800.812 253 253 240
159.292 329.609 1025.16 69 35 23
67.1584 365.839 955.752 58 26 17
-71.7528 344.012 841.906 129 131 129
-55.7289 404.894 873.952 115 110 105
-772.871 -319.56 2022.1 82 85 79
-456.567 -71.5473 1345.09 81 112 109
-498.528 -11.6274 1347.49 50 37 17
-571.388 4.36847 1344.97 141 121 95
-138.76 90.7916 887.866 146 188 186
-71.9151 171.036 837.34 27 31 34
-71.9151 171.036 837.34 27 31 34
-30.6165 295.646 877.192 182 154 141
109.903 365.183 986.09 177 148 116
109.903 365.183 986.09 177 148 116
-88.4463 352.994 837.51 254 251 246
-131.748 238.233 817.085 193 198 183
148.255 307.187 1012.06 75 42 28
-20.146 265.785 875.391 183 181 176
-112.455 446.298 984.987 253 253 251
-0.288135 -472.577 1656.7 175 174 162
-41.9012 -491.839 1735.02 66 49 32
-419.251 -43.1974 1358.28 78 59 45
-1034.82 -39.9225 2076.07 78 78 69
-329.473 59.6616 1449.19 58 38 38
97.1572 307.488 968.862 70 60 69
-13.3772 320.96 895.763 180 179 176
35.9315 -334.107 1430.9 164 164 157
-303.933 16.3786 1407.63 190 194 181
-88.3221 169.258 797.289 187 190 178
140.47 351.097 1007.35 188 147 132
167.165 387.703 1034.86 70 56 55
9.92935 -203.44 861.314 164 164 157
-386.709 -58.6607 1467.25 33 33 20
-400.707 63.5449 1405.39 212 196 178
-400.707 63.5449 1405.39 212 196 178
22.6957 40.8461 930.258 132 211 201
-180.01 119.631 859.924 156 181 176
-488.146 223.353 1334.05 238 235 223
105.01 184.779 956.171 67 52 44
-59.1159 314.286 854.019 184 154 134
34.2135 201.118 907.839 188 143 116
59.9285 245.872 943.165 63 45 37
59.9285 245.872 943.165 63 45 37
-514.228 21.2927 1319.48 52 38 19
-11.7151 25.4821 555.901 126 195 191
-468.669 156.297 1189.54 254 249 244
71.2289 -443.806 1694.17 161 160 157
124.597 121.441 947.785 184 174 156
-31.9716 179.393 856.276 52 45 40
-185.174 187.047 836.438 204 203 196
-331.512 335.097 1205.56 96 104 101
-331.512 335.097 1205.56 96 104 101
-86.383 267.939 827.232 56 51 49
-323.816 66.1907 993.981 66 50 51
-18.6756 180.652 862.147 60 54 50
