-704.246 -169.162 1305.71 36 43 34
-885.914 -117.763 1498.32 134 142 136
191.563 130.104 1776.16 40 22 5
-52.0424 92.351 1230.15 255 238 220
-73.4869 109.081 1180.17 215 145 113
385.945 247.729 1969.4 167 159 128
290.438 288.906 1820.15 42 31 21
-269.715 254.408 1014.01 50 33 23
-33.0659 513.425 1237.78 28 26 46
-150.974 -75.0952 204.574 0 5 0
-708.985 -150.615 1335.95 44 48 43
-621.61 -108.879 992.382 62 67 56
-772.07 -113.205 1264.61 54 52 48
-46.0526 58.6552 1154.95 245 220 204
-46.0526 58.6552 1154.95 245 220 204
298.121 108.854 1804.85 255 252 253
-14.5562 230.776 1279.4 253 250 235
-14.5562 230.776 1279.4 253 250 235
353.397 432.851 1971.89 185 193 191
-233.087 277.703 1120.86 49 18 4
-109.407 283.038 1146.45 255 247 229
-178.009 336.268 1207.06 138 120 101
-178.009 336.268 1207.06 138 120 101
-28.9023 353.653 1264.91 194 186 186
8.42568 489.892 1264.48 71 69 71
-45.5398 81.4023 1204.93 234 233 222
404.229 168.149 1971.02 255 254 254
-99.4698 89.8163 1086.25 199 131 112
346.69 264.34 1903.9 141 125 107
287.956 284.093 1798.7 42 31 21
210.825 407.73 1863.89 98 122 122
-45.4071 297.309 1106.78 255 245 245
-182.37 371.905 1158.6 109 63 34
-93.9517 447.392 1213.54 254 254 254
8.35759 488.737 1261.73 71 69 71
-406.591 -233.594 644.885 0 3 0
-268.466 34.8505 1307.75 112 86 82
-268.466 34.8505 1307.75 112 86 82
-100.546 92.5233 1124.5 209 140 119
-68.4633 112.903 1141.11 243 163 134
-82.8433 118.599 1161.26 253 251 255
279.497 275.993 1751.88 42 31 21
-37.0224 277.601 1251.36 253 255 255
9.04487 539.633 1372.55 74 77 75
-57.2339 89.6079 1202.7 253 220 207
-125.155 89.5065 1053.45 211 193 169
160.822 179.571 1747.81 124 132 98
0.471857 253.946 1293 252 255 255
-88.1201 265.016 1153.3 247 210 180
-189.684 343.011 1189.36 54 32 26
-90.8078 378.25 1149.65 255 253 255
-106.361 409.544 1148.08 81 57 45
-215 131.199 1109.75 36 16 6
192.631 382.621 2017.14 100 112 133
-353.199 97.222 1220.74 106 79 54
-353.199 97.222 1220.74 106 79 54
-236.193 177.733 1147.49 153 116 86
-236.193 177.733 1147.49 153 116 86
-160.85 175.214 1106.4 176 129 108
-160.85 175.214 1106.4 176 129 108
-79.238 415.75 1159.65 237 236 235
-460.174 -112.284 904.756 103 115 108
-229.165 66.4989 1135.72 164 137 109
371.107 155.384 1932.16 216 214 191
-134.645 354.259 1146.58 92 52 38
-117.786 464.541 1166.01 64 52 47
68.2988 -48.6345 1937.35 100 103 91
68.5249 154.73 1395.86 102 97 86
259.943 225.744 1821.36 61 45 42
304.101 55.9314 1587.83 229 220 218
-362.527 22.5271 1469.53 141 131 116
-56.7586 168.942 1223.05 255 251 222
-238.416 209.728 1144.9 146 83 52
