2.7976 29.5749 -137.737 30 45 36
-192.293 -6.14835 1334.08 127 130 136
213.527 20.1729 1845.26 163 126 111
-326.533 54.5678 1123.77 187 182 160
-132.13 134.358 1050.68 174 151 150
-132.13 134.358 1050.68 174 151 150
-137.066 138.295 1038.72 50 7 1
-138.039 187.298 1113.9 21 3 1
-46.2601 297.257 1205.04 255 251 234
2.81155 345.184 1312.87 253 250 253
-209.213 340.782 1158.94 60 24 18
-133.911 387.309 1125.42 23 18 4
-58.175 426.941 1172.24 28 14 10
-105.459 378.255 1020.3 28 15 10
2.98239 644.236 1368.37 213 215 207
260.118 -65.037 1958.23 156 144 118
-138.433 -3.9975 1275.61 149 144 141
-334.111 65.7907 1142.79 79 69 44
-86.9844 62.0484 1060.57 218 189 164
-48.0145 96.2023 1105.72 254 252 247
-235.381 114.052 1094.56 35 1 0
183.524 215.168 1835.31 83 72 72
-101.148 125.201 1056.82 73 26 14
-49.262 140.566 1111.1 255 242 237
-229.254 236.656 1168.3 46 5 0
15.6681 271.608 1326.85 253 253 223
-211.738 264.235 1108.17 44 12 9
-45.4333 501.687 1182.85 255 253 242
316.267 -159.366 871.659 110 109 106
335.474 -207.184 1156.5 92 92 85
-529.509 -64.556 678.536 115 126 119
186.971 -144.997 1827.61 136 131 113
271.143 187.977 1989.55 161 148 125
-53.8843 117.881 1118.16 252 251 247
-17.3583 141.013 1208.92 199 140 129
182.644 357.853 1925.93 223 243 238
-85.7844 209.502 1080.95 63 21 11
-101.319 213.208 1087.19 203 167 153
-46.1319 312.937 1160.56 255 246 241
21.1755 371.353 1371.23 246 255 249
-77.7395 322.683 1130.62 78 40 33
-58.0492 411.788 1165.47 253 254 250
6.77818 494.719 1289.62 59 58 58
-32.3699 473.313 1221.37 65 62 50
-573.541 -70.0653 738.019 106 119 112
153.595 -112.814 1631.03 36 30 22
-61.7934 335.722 1170.52 252 248 250
-111.967 433.331 1164.48 35 21 19
-56.3121 483.528 1163.1 33 23 30
232.294 8.09921 1784.07 235 232 212
-80.4462 64.9464 1058.28 193 174 149
-69.3336 173.694 1094.27 254 252 254
-140.155 362.517 1159.22 113 108 109
-70.6696 378.718 1104.33 59 33 38
-181.968 -18.2483 204.366 30 45 43
-181.968 -18.2483 204.366 30 45 43
-264.903 90.4355 1066.19 141 94 65
68.4625 308.462 1831.88 85 90 115
-166.812 -4.19385 1291.66 51 88 97
-51.8837 13.6697 1138.3 10 40 59
-182.794 80.1347 1075.03 77 53 42
-193.699 315.293 1171.3 159 120 109
-193.699 315.293 1171.3 159 120 109
-194.717 398.668 1233.47 134 73 48
-193.882 236.46 1111.43 154 89 57
-193.882 236.46 1111.43 154 89 57
-129.831 42.3427 1051.24 152 127 106
-35.4285 -71.5247 1609.53 62 48 39
-172.042 386.016 1172.76 144 78 43
-93.3665 447.863 1154.68 40 35 33
133.464 -78.8946 1750.15 50 39 33
-126.988 236.988 1108.37 62 49 34
-30.5165 90.4717 1209.29 255 239 217
-285.274 146.326 1124.78 67 43 32
