145.499 -42.226 949.118 28 14 2
-497.742 -40.9291 1188.34 169 167 164
-417.007 -29.1135 1261.06 119 103 81
-632.021 58.3541 1256.56 161 143 139
19.8 31.1814 805.578 254 255 243
-525.291 74.207 1209.54 251 240 220
-525.291 74.207 1209.54 251 240 220
-509.602 82.7976 1292.03 22 9 1
-481.863 79.9696 1132.9 197 170 149
-513.872 93.4018 1200.86 255 245 233
-518.229 101.842 1335.1 42 23 18
-602.931 107.01 1318.25 164 135 116
-518.501 109.557 1233.57 254 243 227
-513.039 116.951 1341.12 32 17 11
-113.839 77.1449 910.999 136 120 98
-113.839 77.1449 910.999 136 120 98
-498.342 118.213 1238.06 253 241 223
-492.802 130.297 1283.27 162 140 125
-333.929 159.845 1399.02 23 4 2
-404.141 123.714 1061.74 178 163 137
15.2865 95.3452 836.452 250 253 245
-133.603 115.321 962.801 255 252 245
-380.355 196.356 1308.55 186 149 134
178.818 151.959 978.361 56 77 86
-593.207 206.202 1283.77 246 245 242
-593.207 206.202 1283.77 246 245 242
33.0846 138.674 864.746 243 248 229
109.905 156.489 848.368 53 34 18
-90.9632 212.368 1036.96 243 233 225
268.509 236.338 1108.69 176 148 142
-430.018 277.645 1254.44 254 249 232
-353.305 324.375 1416.12 23 27 22
51.9921 219.292 932.598 149 176 154
-69.1927 252.564 1007.34 109 103 85
45.8553 232.008 903.22 243 255 249
66.3523 239.911 916.832 240 246 224
-511.341 372.909 1351.67 249 251 248
68.5608 282.252 957.478 139 147 134
-95.7204 324.619 1079.05 98 88 76
41.9131 370.209 1035.68 255 254 233
98.0983 341.099 947.537 250 254 241
151.661 464.807 1066.83 139 167 164
151.661 464.807 1066.83 139 167 164
98.9843 521.834 1123.67 124 139 141
118.765 571.787 1193.96 101 118 117
-393.857 -76.6243 1317.08 29 24 13
-393.857 -76.6243 1317.08 29 24 13
-403.942 -64.5405 1245.62 125 102 79
-93.7141 -34.9913 1020.1 146 137 142
-55.3682 -33.7663 1007.12 36 25 25
-457.145 38.9307 1227.45 53 37 37
-390.879 53.5527 1347.16 27 13 10
-539.411 58.8914 1218.77 255 232 218
-469.872 64.7465 1237.03 15 15 8
-529.153 62.836 1174.45 181 158 149
-50.5391 44.1273 858.553 168 161 147
-510.265 123.851 1224.56 255 249 234
-507.121 135.803 1347.69 34 28 9
34.7938 85.8665 816.259 252 253 238
-66.9531 104.501 914.565 126 103 87
85.3857 112.586 875.89 37 19 16
85.3857 112.586 875.89 37 19 16
13.5151 105.903 836.016 137 142 135
13.5151 105.903 836.016 137 142 135
-79.9896 130.293 941.096 128 104 91
205.281 172.347 1015.09 99 123 127
-98.5415 182.831 993.551 169 128 116
-424.639 244.084 1294.49 229 224 221
31.7811 164.815 890.952 154 171 147
29.448 150.066 821.658 154 171 147
-94.7796 202.465 1041.09 191 171 162
46.0383 208.088 885.892 147 175 154
102.958 216.466 890.73 170 147 134
-59.561 245.413 991.41 255 246 235
244.505 280.002 1075.93 150 113 92
77.5619 225.766 872.805 251 254 236
-436.27 358.905 1351.73 255 253 241
-317.894 506.737 1502.55 98 107 97
18.2724 346.706 1032.31 249 250 241
89.9687 322.049 931.836 254 255 251
227.936 472.497 1121.08 102 128 133
194.23 513.941 1109.77 177 207 226
186.004 531.071 1114.15 20 47 58
113.164 -80.7192 998.82 168 209 195
-402.084 -67.6767 1359.28 108 103 83
-61.1411 -42.2711 1015.47 226 222 226
-417.771 -42.2703 1278.02 157 134 111
156.809 -33.5583 947.128 42 45 38
-455.148 -31.5307 1195.6 170 148 123
-503.984 -8.09234 1124.46 119 103 74
-129.227 -4.86084 975.838 158 148 121
-1184.77 28.0421 2016.34 213 218 205
-8.7939 25.2648 821.146 79 73 76
-640.877 78.5185 1295.22 168 143 132
-566.133 81.6405 1242.45 255 247 234
-586.548 101.975 1281.18 183 153 136
-461.402 132.252 1259.48 98 100 85
201.912 111.034 1026.82 39 28 2
40.349 83.6384 791.492 41 34 26
-382.993 162.507 1296.02 56 35 25
-298.81 190.438 1432.01 76 44 40
219.707 137.62 1038.62 101 121 117
23.33 116.556 855.931 248 253 249
23.33 116.556 855.931 248 253 249
-131.847 147.724 1001.23 191 187 159
-603.81 205.813 1352.4 254 247 242
57.4405 159.532 843.62 253 254 245
115.359 176.454 914.34 61 38 22
-308.767 282.349 1411.88 18 18 20
-40.1169 209.756 1014.86 254 253 254
-420.814 286.347 1257.12 156 106 82
-565.721 365.483 1562.79 255 253 234
-565.721 365.483 1562.79 255 253 234
92.4073 298.432 921.048 123 126 117
5.89758 333.356 1007.56 254 252 254
100.587 330.008 940.136 101 102 82
100.587 330.008 940.136 101 102 82
103.034 -87.5531 1000.19 68 101 97
103.034 -87.5531 1000.19 68 101 97
103.034 -87.5531 1000.19 68 101 97
-14.081 -84.0528 1044.13 53 55 50
-476.063 -26.9574 1205.99 64 51 43
53.6094 -5.75041 845.929 103 155 168
-569.833 17.109 1160.69 244 238 237
-640.631 68.2859 1247.42 254 252 252
-523.12 169.531 1249.97 255 254 253
-523.12 169.531 1249.97 255 254 253
-15.5965 117.71 873.166 135 123 114
5.71354 167.121 899.281 249 251 243
139.431 202.713 943.714 146 143 132
208.927 514.106 1129.49 76 117 133
-347.436 31.9886 1346.49 43 34 27
-352.805 73.3661 1450.12 27 19 18
-86.4191 104.362 925.703 135 108 95
160.146 191.637 975.325 134 72 56
-448.69 250.761 1177.11 250 254 254
-448.69 250.761 1177.11 250 254 254
-405.544 305.729 1265.91 167 116 80
51.7027 359.834 943.743 115 116 96
128.382 493.048 1123.92 239 254 250
128.382 493.048 1123.92 239 254 250
-520.36 -0.679038 1126.42 214 210 185
-88.5194 20.8728 881.63 71 66 53
-373.592 52.63 1311.2 53 34 27
-356.088 65.7845 1352.06 172 176 169
43.8087 67.2293 835.057 60 53 41
-450.927 -42.9177 1245.85 81 72 66
-435.491 -8.72373 1247.65 160 151 136
157.178 131.178 965.509 73 47 31
-530.393 189.979 1214.19 226 224 228
-496.466 214.916 1217.19 254 255 253
-26.6588 190.446 928.595 252 254 255
104.5 200.386 898.611 172 137 116
104.5 200.386 898.611 172 137 116
-400.387 38.8889 1290.69 186 157 142
-400.387 38.8889 1290.69 186 157 142
-372.559 194.531 1348.36 196 157 143
-372.559 194.531 1348.36 196 157 143
241.339 171.654 1068.17 91 62 57
-382.886 247.663 1323 72 55 50
52.5981 177.688 868.474 254 254 250
227.075 498.554 1168.74 150 178 179
126.915 -75.3143 982.861 121 185 178
-394.118 -77.302 1305.49 33 34 20
39.8296 35.2495 812.044 48 41 34
-45.4291 49.6515 849.555 147 144 142
-312.568 222.06 1432.85 57 52 53
-63.721 355.091 1082.52 126 115 107
47.547 338.749 1026.49 252 253 254
-491.455 7.18222 1193.21 54 39 25
83.7256 156.481 876.993 60 52 48
-120.898 23.9925 986.243 19 14 11
-545.543 36.9729 1137.51 255 238 241
-480.572 176.661 1164.93 207 196 179
117.738 50.0422 912.329 48 42 33
-355.215 375.02 1435.51 53 55 53
