428.805 -126.572 840.854 126 124 121
-307.999 -117.511 1380.56 32 12 8
107.666 -83.159 1608.89 132 130 100
146.867 -65.8995 1714.8 70 76 55
291.199 15.1784 1784.06 243 235 216
318.264 41.4576 1788.52 179 138 126
-30.693 55.1278 1195.32 255 249 235
-0.686507 264.83 1279.24 252 255 243
-110.446 244.764 1106.62 62 58 47
-237.168 322.247 1227.13 50 5 1
-141.397 310.381 1023.01 58 40 32
-31.1395 385.99 1233.4 250 255 237
-215.557 482.259 1284.03 46 21 13
-208.993 495.309 1216.35 140 123 110
-178.007 484.989 1173.69 54 34 18
559.865 -231.667 1224.64 48 50 48
559.865 -231.667 1224.64 48 50 48
591.948 -231.87 1293.16 197 196 192
-385.913 -82.6061 690.14 35 38 33
229.929 -162.983 1760.74 184 198 199
147.459 -162.598 1783.85 195 207 205
239.403 -151.786 1753.31 126 123 118
-585.957 -78.976 945.985 56 64 56
-886.76 -87.7377 1258.21 119 122 117
315.629 -76.1502 1702.05 185 165 149
-1033.21 -54.8514 1416.39 79 86 81
274.193 -49.5531 1648.26 109 84 73
325.602 -32.4422 1701.88 170 149 123
332.013 78.7197 1752.31 129 114 98
-11.4054 52.99 1232.88 147 102 92
-80.7899 69.4416 1192.9 247 229 206
313.418 103.899 1765.14 123 101 92
313.418 103.899 1765.14 123 101 92
-366.745 88.678 1286.67 95 76 53
-103.449 93.9017 1081.39 189 139 124
428.478 177.907 1969.99 169 174 150
-105.156 125.819 1106.3 251 250 246
366.983 222.009 1846.99 178 154 124
48.5874 181.727 1336.25 33 22 16
-138.818 146.31 1075.22 87 24 17
323.798 265.274 1771.67 251 247 238
213.39 433.443 1999.52 141 160 157
-813.425 -124.967 1093.03 130 123 119
-422.168 -72.9319 760.697 147 156 151
-932.536 -99.2807 1290.16 117 125 124
159.65 -98.7181 1608.68 8 7 5
124.786 -96.3663 1661.78 61 70 55
273.741 -30.8306 1664.7 254 251 246
328.292 55.7202 1744.75 142 129 124
290.439 95.1867 1723.68 254 253 252
334.963 242.341 1807.77 149 127 111
-85.9703 154.387 1095.48 173 145 149
208.959 326.247 1821.87 154 182 170
-128.864 227.225 1082.62 209 171 167
221.343 402.389 1886.16 86 113 116
322.107 454.314 1875.89 243 255 253
-90.1943 253.125 915.834 170 166 164
-159.502 378.824 1238.78 60 41 36
-43.715 370.159 1201.26 121 87 82
-81.7092 430.62 1185.79 253 250 248
-128.896 436.587 1158.67 48 31 26
19.3163 491.301 1281.07 53 54 52
19.3163 491.301 1281.07 53 54 52
-283.351 498.538 1292.02 90 56 38
-63.1894 517.145 1192.43 255 253 247
-113.491 -19.2744 138.446 141 146 135
165.131 -100.755 1652.58 24 22 16
165.131 -100.755 1652.58 24 22 16
-82.4245 140.376 1132.44 250 254 252
-77.2917 131.306 1070.93 250 254 252
232.412 297.177 1872.31 149 167 160
46.22 271.211 1353.42 254 254 250
210.468 495.919 1964.72 78 94 92
-65.615 355.002 1190.25 151 102 110
-165.128 388.946 1227.43 133 126 117
-49.5683 387.361 1107.07 255 253 253
-45.7783 148.361 1188.13 252 255 255
29.1358 174.579 1307.32 255 250 229
-63.6871 213.28 1169.44 255 225 202
-52.5202 317.836 1204.16 181 120 112
-52.5202 317.836 1204.16 181 120 112
-64.498 337.68 1200.41 254 251 252
-34.2539 332.071 1178.39 252 253 252
-34.2539 332.071 1178.39 252 253 252
-186.957 352.096 1246.52 61 39 32
-83.9358 331.286 1108.8 240 255 251
-94.6126 401.155 1140.96 78 50 49
19.9243 517.715 1338.73 91 90 89
-552.406 -376.938 1155.33 24 25 27
151.642 15.482 -238.963 111 107 102
-565.237 -110.922 1302.72 38 27 16
211.919 -147.149 1856 155 152 149
-108.791 151.982 1077.48 251 255 251
-159.733 237.965 1158.78 69 55 43
-43.3562 465.415 1275.26 114 112 108
-357.03 -150.938 1540.99 47 39 35
-102.581 199.914 1094.1 253 254 254
-212.32 246.963 1135.1 161 96 57
-154.092 15.8727 1256.51 46 94 108
-24.6969 -234.136 1573.86 183 174 162
-72.2492 29.4649 1199.3 56 92 107
337.783 130.566 1741.05 195 194 185
-120.195 335.377 1100.68 73 39 28
-10.0792 558.661 1270.46 91 90 89
-155.21 122.085 1061.5 58 38 30
38.721 221.761 1334.46 240 199 173
360.135 56.7155 1826.39 240 238 239
-328.258 15.7157 1354.29 143 132 116
-230.125 210.071 1151.08 150 110 95
