152.665 -106.412 1006.64 1 7 11
-555.723 -97.0762 1331.92 151 158 155
-107.357 -64.3224 1028.17 145 130 133
-495.744 -44.5479 1606.73 65 67 66
-995.554 -11.2263 1366.4 7 9 5
-1119.93 -11.4888 1528.2 225 234 222
-485.368 9.54933 1363.95 118 94 84
-522.808 16.7838 1142.97 19 9 5
-511.886 24.906 1149.93 101 99 85
-683.415 28.9599 1346.97 221 169 139
-459.418 32.004 1399.35 23 13 12
-357.562 34.8958 1236.89 32 26 19
-519.396 60.1661 1185.32 14 17 7
-638.58 85.1951 1303.31 254 236 214
77.97 60.9802 866.437 152 128 108
-497.855 102.187 1183.52 25 4 1
-70.0713 117.011 960.001 140 133 120
-74.2128 126.323 977.145 219 216 183
-454.917 193.556 1394.12 238 213 197
-466.982 211.688 1442.54 96 66 50
-753.066 247.095 1482.01 251 252 254
-440.044 248.629 1221.34 47 41 30
-413.301 304.263 1509.35 223 227 212
84.3608 246.804 839.919 245 248 244
21.1336 292.353 1006.06 181 184 146
118.383 280.956 962.716 88 84 73
-26.6752 318.149 1074.66 233 220 191
8.98525 335.525 1077.88 245 235 203
-362.902 510.722 1581.23 207 209 195
-429.9 563.96 1622.44 124 153 146
77.8921 505.789 1251.02 202 215 209
227.083 506.027 1206.81 168 193 197
105.18 -120.696 1045.98 163 212 199
-4.277 -130.782 1162.27 82 49 45
31.1913 -103.855 1048.7 46 54 49
-510.695 -92.8948 1389.09 111 88 72
73.7305 -45.1242 865.654 105 156 161
-497.391 -63.9104 1341.22 166 140 119
-501.189 -50.5549 1339.2 109 94 70
-501.189 -50.5549 1339.2 109 94 70
-1261.44 -53.776 1701.25 52 55 45
-1572.01 -61.892 2105.72 226 233 226
-618.407 25.3215 1319.33 129 83 43
-628.958 37.6082 1439.56 95 97 81
-1283.85 75.7892 1833.25 147 163 153
-651.471 78.827 1288.63 255 251 240
-175.815 79.4454 1014.38 144 125 124
-646.317 106.719 1263.49 255 245 234
-506.926 118.44 1245.7 119 115 100
-145.116 95.4204 1043.47 254 252 254
209.369 106.883 1102.45 49 37 25
192.786 105.207 1071.48 121 120 105
-417.702 151.869 1510.16 25 7 4
-625.319 143.595 1272.7 161 152 140
-625.319 143.595 1272.7 161 152 140
-18.3469 108.693 913.192 127 111 89
-138.356 129.904 992.845 143 114 93
-626.795 203.663 1445.7 254 242 222
-70.4807 140.225 975.088 234 229 199
70.017 126.772 846.055 253 254 240
-87.4401 148.536 989.307 255 252 240
-644.683 205.353 1258.5 251 250 251
-120.92 161.072 1003.03 140 135 123
-449.137 225.799 1234.81 226 233 226
-387.058 278.23 1441.81 173 166 152
-598.435 275.329 1423.64 254 251 246
-447.08 273.703 1262.29 95 50 39
75.7616 201.603 920.412 250 255 240
-804.736 410.783 1776.03 105 116 94
-65.2132 245.443 1043.55 183 176 145
129.632 259.266 954.961 114 107 95
10.9699 304.446 1035.68 255 254 248
-73.0972 334.202 1122.84 112 103 92
-651.016 488.405 1637.27 252 255 250
205.244 499.189 1194.9 190 218 240
-71.8892 -69.6993 1108.61 38 38 41
-138.375 -33.5441 995.535 175 155 124
-196.58 3.42857 974.451 37 37 32
-707.789 25.8276 1271.64 212 155 151
-527.552 24.2667 1280.59 38 33 27
-963.723 42.41 1365.58 239 246 233
-749.037 38.0032 1276 254 255 255
84.7652 74.5985 903.081 53 39 40
26.3365 79.9591 884.311 134 144 134
26.3365 79.9591 884.311 134 144 134
-89.3813 96.2761 943.333 247 241 224
-89.3813 96.2761 943.333 247 241 224
44.3418 117.825 864.482 252 254 250
-646.8 215.699 1463.05 209 169 144
-6.92603 146.966 953.857 166 162 134
-99.205 156.114 1001.05 201 134 112
63.6346 177.26 872.812 245 254 247
63.6346 177.26 872.812 245 254 247
-59.3822 218.54 1010.35 255 245 229
-576.429 336.806 1446.9 250 253 230
-119.441 259.37 1110.35 118 119 97
-44.7145 259.771 1050.48 193 189 153
108.554 270.676 965.676 123 119 106
-12.1113 321.765 1071.43 161 145 118
45.7499 410.353 1173.69 254 254 255
127.529 535.889 1191.11 248 254 251
-36.2442 -123.453 1128.08 63 67 60
219.416 4.76231 1113.08 56 36 28
-549.145 19.9587 1287.65 168 166 153
-754.267 43.0383 1378.21 252 251 250
-639.109 75.2017 1266.23 255 252 236
-160.741 74.1575 984.347 255 253 252
-648.216 132.018 1279.59 250 251 239
260.024 191.421 1165.89 162 128 109
-569.001 225.354 1342.4 199 190 177
-34.7603 168.079 966.195 253 252 247
-482.282 273.414 1188.3 251 252 246
-2.822 310.388 1067.95 251 251 245
-24.7943 356.859 1102.34 124 110 91
218.263 495.696 1213.2 91 118 136
227.847 543.535 1253.65 187 211 205
13.7634 -43.7559 932.041 92 88 94
-760.817 68.1122 1336.11 253 255 250
-665.046 66.5882 1211.63 201 156 145
-171.534 59.8712 979.565 105 95 87
-414.085 156.632 1401.74 28 22 17
-99.9836 111.764 979.768 138 118 104
-133.761 203.648 1082.27 252 253 255
-0.548552 336.441 1030.28 153 135 110
-582.051 -29.3788 1267.28 65 55 50
-439.585 -31.1065 1498.31 182 183 168
-34.7127 -17.6365 900.058 215 241 237
-434.334 15.3041 1455.24 50 37 31
-459.889 39.5903 1414.39 49 34 28
81.9481 24.3829 889.375 157 161 149
81.9481 24.3829 889.375 157 161 149
39.7373 38.1143 830.457 201 201 193
-481.873 183.843 1165.53 243 245 233
119.147 171.748 947.474 165 132 107
167.717 -116.726 1007.93 66 61 54
21.4548 -66.9259 960.491 213 180 165
-529.162 -87.5815 1381.91 52 39 31
-531.165 -64.8075 1313.56 48 49 42
-509.374 -27.873 1305.27 158 155 138
-435.248 -29.8426 1492.77 176 177 163
-732.313 25.59 1258.5 211 209 204
208.222 27.2708 1070.79 73 48 36
176.759 33.2852 1049.08 164 116 84
-59.5104 55.6494 901.265 202 197 185
52.8337 10.6932 837.056 58 42 36
-482.995 22.7262 1379.26 185 159 147
-482.995 22.7262 1379.26 185 159 147
68.1323 149.187 917.454 245 254 242
240.516 485.196 1276.29 141 168 168
161.282 515.865 1177.13 214 242 241
124.304 -116.486 1060.54 114 178 177
-485.061 -105.833 1406.02 40 41 24
125.302 14.2769 949.488 54 48 37
-398.975 223.094 1551.68 53 47 45
-398.975 223.094 1551.68 53 47 45
-47.573 253.11 1035.36 210 206 163
73.6894 423.304 1120.94 247 255 251
-583.006 -8.4712 1287.44 53 45 28
23.611 29.5936 818.295 148 184 131
-70.1292 344.175 1152.67 128 118 107
-70.1292 344.175 1152.67 128 118 107
-1126.74 -13.0013 1634.85 77 75 66
-645.366 31.5277 1230.56 251 244 229
-570.321 191.674 1270.6 223 206 183
28.0029 198.755 917.8 250 255 251
-482.68 94.8767 1343.55 65 59 55
-420.11 371.963 1476.66 59 58 55
151.188 231.284 853.734 132 80 64
