-394.771 -31.5896 1319.34 157 145 121
-505.519 -18.3652 1290.68 175 175 167
-507.824 -10.8269 1246.68 232 229 221
-507.824 -10.8269 1246.68 232 229 221
-43.1172 39.0404 920.415 37 53 43
-478.44 56.3618 1313.82 122 126 110
-500.908 66.2445 1357.34 12 6 2
-367.949 73.3471 1398.29 143 120 106
-360.471 83.095 1360.01 227 218 211
-505.546 86.5875 1369.34 176 161 137
-135.755 69.0306 999.578 255 239 215
-117.792 72.3983 924.569 254 238 234
-151.789 80.1937 875.573 172 171 176
-222.577 110.786 892.542 157 158 156
-213.559 136.108 844.419 61 60 46
15.0311 177.516 842.95 142 114 94
55.6553 227.161 910.58 58 15 3
-113.952 197.399 790.164 29 31 25
17.2976 235.295 915.271 113 37 12
-467.669 476.926 1616.63 252 250 245
27.003 275.659 895.755 38 7 0
108.792 359.601 1009.53 175 201 205
105.086 355.152 979.475 45 30 42
120.952 350.912 961.331 81 40 28
77.0889 364.906 967.528 249 197 186
-83.082 322.89 841.415 76 63 55
-7.61032 347.947 911.266 248 250 248
63.7488 390.666 958.481 143 99 81
161.106 439.145 1033.33 216 202 184
135.43 414.387 955.964 200 192 173
88.599 501.372 1056.65 46 43 32
11.3163 458.897 926.923 177 115 94
-337.225 -66.4304 1344.44 135 142 112
-323.902 -52.166 1305.35 38 32 25
-380.009 -47.2826 1380.43 159 133 111
-436.053 -27.5388 1316.42 38 29 17
-384.759 -9.74005 1341.59 128 119 100
-498.545 1.24062 1301.28 25 17 12
-431.888 25.2526 1295.46 179 164 142
-328.328 49.6242 1387.35 61 9 5
75.3377 39.9012 866.628 34 31 24
75.3377 39.9012 866.628 34 31 24
-328.013 64.5569 1460.98 196 145 125
-190.48 70.3505 985.822 113 94 89
-173.227 108.903 877.324 229 252 249
-173.227 108.903 877.324 229 252 249
-242.416 113.713 902.993 56 64 60
-62.0482 95.8127 691.282 14 22 36
116.695 176.256 926.607 28 4 3
-101.188 203.209 806.859 58 61 70
-87.1068 226.172 767.627 234 233 229
-154.915 271.224 877.025 197 197 182
46.5701 284.904 908.096 42 62 78
46.5701 284.904 908.096 42 62 78
95.2739 316.788 935.685 28 30 29
63.2346 348.749 937.396 81 44 38
-106.553 313.531 824.638 252 252 241
-26.2396 332.905 873.267 232 228 226
132.616 469.12 1046.32 234 230 208
101.927 507.033 1024.87 60 79 87
-547.366 -80.4431 1466.24 154 153 142
-312.565 -43.6663 1360.18 29 26 17
-419.618 -36.2775 1331.94 19 18 11
-57.0125 0.238925 1122.34 122 115 106
-449.215 29.3818 1299.71 64 46 26
-118.825 28.0834 1015.44 242 245 244
-140.801 59.8214 928.767 19 24 30
44.832 89.9769 844.065 155 122 92
-93.5502 109.896 836.409 75 80 75
-178.964 116.095 811.569 197 224 215
-207.506 139.932 846.62 77 90 82
-101.612 171.027 789.905 24 37 44
-139.084 177.74 757.042 51 38 29
45.628 207.969 854.204 199 152 132
38.2604 222.19 886.503 200 157 134
-81.8567 232.549 803.433 40 32 31
-81.8567 232.549 803.433 40 32 31
-67.3355 246.28 838.088 40 37 39
133.327 282.666 960.093 173 121 103
5.32118 281.385 890.632 225 228 226
5.32118 281.385 890.632 225 228 226
58.5139 305.277 917.269 29 49 56
20.8533 381.19 910.501 157 100 87
13.5688 394.291 917.611 56 47 42
116.511 478.204 1036.89 139 141 133
346.495 -936.491 2895.56 71 69 61
-541.364 -26.1877 1330.76 73 107 99
-541.364 -26.1877 1330.76 73 107 99
-183.331 120.115 844.756 174 202 193
-172.685 156.897 787.643 226 239 226
93.2454 249.666 938.324 190 170 152
-28.1706 230.522 858.689 153 81 62
-31.4273 305.613 869.548 200 180 164
-35.7768 324.275 866.318 56 35 27
22.1193 387.853 925.599 154 94 76
-80.0138 369.84 848.932 49 46 47
-106.838 429.554 926.301 255 254 253
90.7817 482.604 1005.15 155 171 165
-137.68 97.7978 877.086 146 203 198
36.435 100 871.128 52 53 54
-436.682 351.588 1493.04 164 118 94
-142.01 204.892 772.602 197 196 190
151.753 314.908 993.069 76 53 38
118.839 362.53 1000.59 100 60 58
-390.011 -44.2242 1343.42 75 60 41
-299.398 57.4685 1436.35 53 36 34
-249.062 134.232 881.959 192 195 184
97.4816 312.697 943.699 78 66 71
-408.861 10.1882 1334.02 184 181 168
-92.2623 182.158 806.499 191 197 193
-92.2623 182.158 806.499 191 197 193
-349.299 -58.4344 1427.64 39 32 25
-368.627 61.093 1381.4 212 189 172
106.44 191.513 929.833 57 39 32
34.1998 208.7 887.518 199 151 125
34.1998 208.7 887.518 199 151 125
60.4396 251.055 915.785 49 37 32
60.4396 251.055 915.785 49 37 32
-133.008 319.463 879.816 245 246 241
-129.278 161.642 771.884 53 43 40
-326.654 344.197 1241.87 108 107 107
-326.654 344.197 1241.87 108 107 107
259.478 -793.877 2921.94 158 157 154
122.882 125.669 909.28 188 174 156
-90.4198 284.235 840.729 64 57 55
-42.6883 383.767 863.487 61 57 54
13.092 -685.566 2742.21 130 112 91
-20.9769 184.994 827.564 60 54 47
