-1124.02 -559.581 2354.23 143 149 141
-825.417 -290.058 1598.21 108 112 104
-781.001 -352.046 2072.07 52 42 32
-475.279 -130.113 917.779 168 173 160
-515.499 -75.1184 1190.4 37 22 1
-515.499 -75.1184 1190.4 37 22 1
-576.479 -61.6493 1178.5 189 192 182
-545.514 -52.7347 1176.45 29 26 20
78.2332 -6.25266 864.184 158 172 130
-160.179 -3.84078 1019.69 105 98 80
-536.097 16.0829 1060.66 200 160 141
-75.5315 16.4811 929.786 107 102 82
-75.5315 16.4811 929.786 107 102 82
-534.143 44.7096 1200.55 82 48 43
-131.364 61.8604 1002.79 255 251 249
-645.636 108.764 1279.12 236 227 211
-535.924 129.003 1222.29 226 200 171
-592.003 135.266 1249.79 255 251 242
-20.0806 115.18 992.939 254 231 213
-442.79 159.317 1355.33 28 12 8
-439.343 167.436 1369.12 236 206 191
84.273 121.67 949.006 91 91 85
-437.641 176.789 1375.29 40 8 3
-437.641 176.789 1375.29 40 8 3
-428.87 183.974 1362.81 231 211 200
-422.732 204.95 1386.67 156 140 134
-686.302 216.564 1356.59 201 195 190
284.216 213.42 1159.23 57 38 22
-462.901 241.124 1315.44 52 46 31
-628.623 250.377 1287.69 137 137 126
-628.623 250.377 1287.69 137 137 126
-16.9023 206.804 1040.75 255 246 216
-441.385 261.245 1263.5 205 147 131
-43.8139 246.146 1083.52 247 248 222
-668.163 436.274 1616.28 250 249 243
-528.12 430.629 1383.6 248 252 247
-658.556 552.387 1763.84 249 254 249
133.229 493.759 1226.54 189 200 200
222.881 511.471 1197.65 134 154 155
222.881 511.471 1197.65 134 154 155
-1081.28 -453.582 2105.27 88 87 80
-909.09 -335.095 1740.66 117 124 117
-784.992 -209.168 1636.15 98 106 100
69.7622 -115.135 957.958 174 165 164
-36.8341 -103.192 1018.82 41 33 24
-498.27 -96.984 1282.31 146 126 116
10.4568 -65.1926 908.52 57 63 62
10.4568 -65.1926 908.52 57 63 62
30.5405 -16.97 863.359 250 253 241
-147.12 -7.12105 906.192 88 73 61
-656.814 -7.49907 1195.16 255 238 234
247.262 7.06749 1115.55 159 140 125
-662.769 7.3113 1152.74 255 247 233
-573.355 23.1052 1190.92 255 237 209
-150.423 20.7055 1022.99 84 76 72
-28.0652 18.7317 947.636 131 110 106
74.2299 22.0865 865.871 240 252 249
-1684.66 98.9289 2215.92 236 243 229
-1762.87 109.857 2375.11 160 163 149
17.6819 47.0346 950.322 126 112 95
112.191 47.212 915.643 248 253 236
-504.98 97.2132 1265.97 106 107 97
-516.789 101.218 1270.92 33 5 3
-33.1449 88.4458 979.142 209 208 188
-102.271 95.0596 990.973 142 112 88
-113.923 105.203 1029.02 199 198 169
-67.8648 111.123 1018.39 255 254 224
273.414 131.175 1151.36 58 48 42
-408.528 136.474 1075.48 151 152 140
-472.753 163.906 1267.5 158 156 148
-39.2103 134.1 1028.76 168 145 135
-728.934 188.109 1414.09 255 252 247
-50.9838 137.96 1013.7 239 233 235
-428.119 194.591 1381.85 35 19 10
-469.085 179.771 1254.66 46 31 16
-360.013 213.846 1475.54 73 39 21
-447.412 205.173 1283.1 73 51 39
-679.962 226.927 1417.09 255 252 252
-25.5903 208.334 1049.93 195 174 141
-400.605 536.948 1598.36 253 252 249
113.608 451.835 1229.81 179 195 201
169.73 454.136 1241.71 164 174 167
-802.527 -227.674 1647.79 106 113 105
53.924 -106.008 1001.32 211 178 160
-156.768 -29.4486 939.919 60 58 53
-156.768 -29.4486 939.919 60 58 53
-510.191 -4.78754 1205.07 175 169 160
-510.191 -4.78754 1205.07 175 169 160
-526.631 -1.50639 1127.14 128 89 39
-137.288 41.8527 993.266 131 122 122
-557.307 60.5651 1193.77 255 237 222
-99.6414 52.2586 963.147 253 250 249
77.7575 55.1888 904.28 130 142 123
-633.53 119.122 1267.84 255 253 245
-62.6097 122.976 1041.85 202 135 122
126.963 159.721 1028.86 248 250 240
-18.8413 158.562 1006.23 248 240 232
-20.1816 183.357 1028.97 255 245 228
-84.5238 225.875 1131.53 127 124 100
-3.83224 221.235 1057.94 204 193 164
-469.753 280.446 1299.24 253 242 222
-35.4234 309.005 1120.13 157 150 133
185.697 287.778 1022.2 240 240 223
104.501 -76.9815 895.142 76 137 147
-662.439 -88.0139 1564.68 46 33 27
-797.326 -37.3814 1284.08 253 249 232
-115.246 13.2299 961.496 151 145 127
-399.136 25.5303 1402.43 23 21 17
38.534 51.4934 924.949 130 123 111
-622.404 101.284 1255.21 133 111 93
-622.404 101.284 1255.21 133 111 93
1.75382 91.0814 959.023 157 144 117
-528.577 194.298 1262.84 208 182 151
148.17 175.825 968.567 242 239 225
99.2639 277.3 1043.86 213 216 188
-971.247 -282.221 2085.67 171 180 172
208.737 -17.3907 1042.74 161 122 95
-436.404 12.6308 1347.23 50 34 36
-711.962 50.8058 1231.83 253 253 254
-615.811 49.2075 1226.77 255 249 236
-615.811 49.2075 1226.77 255 249 236
-57.5895 74.6454 975.154 150 127 118
-57.5895 74.6454 975.154 150 127 118
-569.052 142.731 1241.64 252 253 254
52.3549 113.342 941.115 198 191 144
162.124 126.506 950.919 159 130 109
-84.6314 152.355 1084.3 156 136 135
-96.0492 163.453 1068.86 254 252 255
37.722 156.871 951.293 252 251 248
-447.524 286.014 1300.73 158 100 67
37.7479 270.298 1091.6 253 255 247
-415.758 406.435 1371.26 90 103 94
-789.055 -366.18 2087.59 59 52 43
56.1429 -105.505 957.235 223 188 176
-45.2758 -44.8259 900.037 60 52 52
-548.276 -52.5553 1202.63 47 38 31
-48.127 38.5264 942.356 136 107 95
0.745653 198.214 1023.73 249 240 229
-427.992 318.546 1318.87 59 56 62
-502.951 -88.517 1251.78 46 37 25
-84.9058 -50.1482 947.73 73 69 69
-558.812 -33.9792 1112.14 224 210 187
-507.537 179.844 1260.54 253 254 249
-485.593 -51.551 1250.22 152 147 132
-463.359 -3.98249 1332.47 181 156 136
-427.39 160.64 1386.93 186 150 133
-427.39 160.64 1386.93 186 150 133
21.0686 127.081 983.132 250 252 255
208.181 489.254 1224.61 204 233 231
-465.271 -127.799 1338.52 33 35 17
9.666 -15.1097 870.677 104 96 92
238.7 41.2408 1107.25 74 55 42
-540.511 112.097 1230.77 244 225 194
112.219 104.827 920.067 252 254 244
-8.14614 213.845 1052.22 201 193 161
-8.14614 213.845 1052.22 201 193 161
-536.428 -32.1869 1192.46 51 43 31
-32.1379 306.174 1157.98 117 104 89
194.071 376.697 1131.69 190 222 214
-606.166 -378.263 1693.18 145 154 147
-606.166 -378.263 1693.18 145 154 147
-93.1409 -32.1304 985.91 229 217 211
-639.988 13.4765 1223.96 242 227 216
-474.809 149.236 1062.94 220 211 181
-419.727 68.5775 1184.17 57 41 25
-399.585 343.038 1431.18 57 59 55
-399.585 343.038 1431.18 57 59 55
