-274.329 -37.9286 1110.56 46 32 9
-319.585 -4.95444 1035.24 160 146 121
-279.453 27.3216 1128.92 43 32 29
-227.685 72.0682 1232.25 42 28 17
173.248 227.92 956.174 160 160 139
-422.977 301.421 1151.68 244 241 229
-434.001 321.709 1173.86 255 251 244
-434.001 321.709 1173.86 255 251 244
396.128 365.473 1078.03 192 212 219
384.178 410.011 1067.93 242 255 255
479.13 428.695 1110.11 192 213 215
-800.268 -120.924 1331.41 97 92 73
-278.59 -30.7664 1142.62 152 135 117
234.961 187.448 992.402 245 224 194
305.48 253.013 1083.55 177 175 111
-193.35 211.804 851.828 255 251 247
-238.518 282.713 1103.62 249 230 218
-238.518 282.713 1103.62 249 230 218
-431.454 283.196 1090.58 162 161 157
384.04 264.31 1013.2 252 250 230
-338.797 396.527 1388.01 253 251 226
324.348 293.222 1011.51 184 168 154
-445.502 358.887 1225.97 252 251 241
-219.659 343.367 1117.2 255 254 233
477.542 340.186 1103.25 80 91 93
291.447 345.408 1090.28 100 121 130
340.614 375.213 1167.82 230 252 251
448.474 420.356 1133.37 93 128 132
-738.173 -77.6855 1207.26 92 99 91
-305.794 -11.7889 1071.75 146 126 109
-305.794 -11.7889 1071.75 146 126 109
-237.884 -12.4397 1244.37 26 18 18
231.778 166.903 986.826 124 83 80
240.116 173.973 980.419 255 247 232
254.802 226.186 991.932 144 144 135
-174.041 311.824 1303.62 14 9 6
450.077 238.447 978.036 152 152 135
-208.558 319.086 1153.65 165 151 134
276.224 313.479 1016.14 249 255 249
477.335 399.825 1107.71 94 113 124
375.675 434.801 1089.63 71 110 132
493.057 449.645 1125.34 128 138 134
-942.804 -187.973 1504.58 92 94 79
-249.869 17.6567 1211.56 170 140 119
-220.962 66.478 1254.65 153 150 140
-217.455 75.1289 1239.04 160 154 149
164.287 158.702 999.378 251 249 251
164.777 192.384 1024.81 96 81 72
194.468 248.557 1042.05 147 148 124
357.891 255.21 979.135 181 176 137
-221.692 316.498 1135.94 127 80 55
220.651 300.933 1049.47 144 137 128
-423.436 337.334 1159.76 250 250 244
302.794 296.898 963.544 245 254 251
453.189 413.229 1110.31 165 200 206
171.286 142.112 998.261 119 103 103
302.276 253.005 1023.68 226 226 206
288.571 265.337 1010.61 124 106 84
-436.36 325.767 1159.57 253 251 253
-396.698 337.345 1140.91 86 80 72
411.201 387.806 1082.05 190 214 211
411.201 387.806 1082.05 190 214 211
-260.739 10.6602 1137.69 65 58 59
261.469 167.615 998.986 108 79 76
-230.756 299.178 1148.9 127 90 73
-272.16 286.349 1032.46 252 255 251
-276.605 -8.87104 1131.67 147 130 113
-372.198 307.374 1129.78 195 216 179
-309.677 305.049 1139.04 252 255 251
-309.677 305.049 1139.04 252 255 251
-249.65 -5.57529 1228.38 66 58 54
-153.126 171.875 1429.45 179 169 150
357.775 379.405 1101.6 205 232 233
-186.164 388.141 1221.79 57 59 56
