-1375.92 -127.494 2676.98 246 252 247
-726.525 -33.662 1612.15 202 193 178
-61.6448 38.8145 990.998 83 89 88
-459.278 71.0269 1139.85 194 184 159
-425.708 84.8722 1473.24 130 114 113
-591.501 104.14 1526.97 13 12 1
-598.792 104.654 1521.16 186 159 146
12.3312 93.6441 918.769 210 207 189
-304.212 105.505 1023.63 95 82 66
-556.886 179.487 1523.31 30 15 10
-208.726 119.246 901.602 26 41 34
-205.078 118.533 873.261 101 99 84
-472.474 226.032 1290.98 254 250 225
118.898 171.907 989.256 44 19 16
-255.166 191.471 981.047 178 170 154
58.6196 222.849 960.423 57 17 11
30.7411 220.849 932.077 149 108 80
63.8808 236.825 986.045 143 123 114
-102.609 212.5 832.984 186 162 155
-18.8206 266.516 906.562 252 238 225
-197.687 287.4 965.696 255 252 246
146.172 318.508 1043.94 83 27 12
-31.3485 286.457 907.807 224 221 211
-21.1205 292.638 926.213 99 102 99
-212.815 346.365 1083.83 246 243 241
-122.236 265.738 812.621 248 255 245
-79.0298 322.079 874.655 68 45 28
-56.2611 333.728 879.562 116 96 88
-56.2611 333.728 879.562 116 96 88
70.1824 -344.3 1219.86 59 58 46
-72.4565 -446.253 1587.89 48 41 33
-901.148 -225.599 1504.64 93 112 101
-1408.61 -200.45 2663.82 238 243 236
-1408.61 -200.45 2663.82 238 243 236
-1161.51 -86.0615 2316.56 135 140 135
-430.662 -44.0418 1429.83 156 128 97
-469.722 -40.3526 1422.06 52 32 23
-482.334 -33.1145 1417.73 24 12 1
-1053.84 -19.6673 1985.06 176 189 176
-442.431 -18.2714 1443.36 179 153 132
-566.488 -3.79223 1460.95 27 20 9
-462.556 -5.17955 1485.47 136 112 93
-525.342 -1.89369 1337.88 36 28 14
78.1859 30.4238 947.935 17 21 13
-498.678 49.6898 1424.79 194 186 180
-449.482 55.088 1468.87 243 232 219
-587.371 58.6919 1406.42 143 98 46
-374.793 71.6172 1495.22 214 153 136
-600.541 76.7512 1553.02 121 122 107
-419.142 92.53 1528.94 31 15 12
-191.596 94.8836 915.118 172 207 203
-191.596 94.8836 915.118 172 207 203
-179.202 103.384 929.122 243 255 255
-179.202 103.384 929.122 243 255 255
-600.094 178.588 1448.77 255 253 246
84.4168 156.507 987.527 165 112 99
29.5241 183.652 932.748 80 24 14
-104.599 180.114 820.138 66 65 61
-90.3697 186.045 831.86 38 68 74
-503.887 351.047 1522.16 137 98 78
-503.887 351.047 1522.16 137 98 78
-97.8495 196.525 837.778 41 44 46
104.78 270.865 1036.5 48 29 23
139.249 287.654 1041.39 177 133 110
49.6993 286.667 966.181 30 53 60
62.1391 306.879 975.065 21 51 56
-19.2338 292.87 906.114 187 193 177
68.8047 356.186 1007.86 74 51 42
-103.542 319.2 875.532 248 247 241
-85.9886 319.492 864.262 121 117 106
112.513 382.841 1028.73 191 143 134
112.513 382.841 1028.73 191 143 134
186.875 407.645 1084.97 53 34 24
146.475 407.408 1077.52 185 138 119
143.583 421.785 1021.62 214 202 185
137.02 490.3 1133.59 229 223 205
108.03 524.922 1102.37 68 95 91
83.1151 531.503 1088.59 122 151 156
-47.8777 -590.966 2031.31 173 175 166
-215.292 -462.782 1783.34 114 108 88
-1247.19 -431.762 2805.4 126 132 127
-1131.25 -340.02 2371.03 94 99 96
-1270.25 -257.997 2267.39 183 189 185
-427.151 -56.4505 1564.45 30 29 16
-136.868 23.7043 1077.69 240 252 246
-74.7972 28.4201 1030.74 107 103 91
-74.7972 28.4201 1030.74 107 103 91
-72.8611 37.9448 979.028 195 169 159
-576.608 54.4292 1285.1 255 251 241
-394.959 62.1411 1510.55 68 36 27
-522.509 59.4974 1401.48 210 201 191
-522.509 59.4974 1401.48 210 201 191
-772.743 84.6112 1759.68 254 253 243
47.373 82.7923 914.14 151 115 82
47.373 82.7923 914.14 151 115 82
-91.4374 97.7804 841.669 65 71 70
-204.489 111.752 892.63 28 38 31
-214.622 132.532 872.32 74 79 70
-98.1466 162.98 816.81 25 37 32
-71.0881 170.625 850.277 31 43 38
-290.983 230.031 1156.39 175 169 158
166.008 336.067 1059.5 58 37 23
-70.1386 355.569 890.742 130 127 125
-647.31 -20.9753 1491.02 91 116 118
-537.665 -7.57559 1426.87 44 33 17
-92.8539 57.1372 970.993 223 204 186
-146.183 66.4004 925.698 227 218 206
-513.502 178.698 1505.41 36 31 24
96.2637 163.724 991.652 65 37 23
-169.799 136.549 810.777 67 95 84
-97.3454 159.437 800.494 25 37 32
-71.1636 173.009 862.924 31 43 38
97.5521 249.977 1005.59 185 163 148
-152.447 246.732 866.2 178 183 167
13.7371 294.062 954.849 115 72 50
113.847 329.042 1010.15 107 146 134
126.702 418.413 1011.08 49 35 29
-962.336 -364.348 2438.49 97 99 91
-112.312 77.9067 932.247 243 219 211
38.5116 91.6854 931.179 44 41 41
-232.97 123.546 899.396 75 55 57
75.2772 237.644 965.661 64 40 28
-132.683 245.039 850.502 186 191 176
160.165 322.943 1079.57 79 37 27
-36.7552 -616.957 2178.01 164 164 159
-464.14 -42.2022 1470.63 75 56 43
-1184.43 -25.491 2296.79 100 91 78
-365.509 67.9605 1564.71 58 45 44
-401.148 89.9802 1513.32 46 29 18
-276.922 103.199 980.318 152 153 132
-125.285 213.557 829.181 54 46 40
38.3076 253.926 958.69 74 54 46
38.3076 253.926 958.69 74 54 46
102.559 313.891 1004.7 71 61 61
102.559 313.891 1004.7 71 61 61
-10.5526 328.795 925.776 181 186 175
97.1116 -1024.79 4420.62 164 168 161
-478.105 17.1702 1441.78 188 179 167
-526.812 140.381 1396.8 89 77 65
16.7303 320.668 949.031 157 80 54
149.742 365.152 1060.38 185 140 125
177.437 403.405 1089.51 73 51 50
23.6373 -422.231 1801.99 161 163 155
-411.661 -56.8927 1517.25 47 47 34
20.4473 38.6172 939.607 127 194 185
-435.766 72.4656 1495.14 204 189 173
-435.766 72.4656 1495.14 204 189 173
69.6643 55.7944 952.748 56 50 45
69.6643 55.7944 952.748 56 50 45
-186.534 123.794 904.266 126 158 149
-576.549 267.732 1556.53 243 243 229
129.932 247.929 1025.1 56 51 49
-57.12 325.351 890.054 186 156 137
12.8889 447.922 977.318 149 81 64
110.056 190.141 1003.49 72 50 42
37.0431 205.479 943.21 198 146 117
64.6102 253.273 987.601 49 33 25
64.6102 253.273 987.601 49 33 25
-86.853 293.763 844.077 62 57 52
-543.308 27.7121 1368.65 67 54 38
69.0893 57.7144 955.65 39 29 23
69.0893 57.7144 955.65 39 29 23
-473.988 163.655 1184.06 255 252 241
-125.517 153.782 803.988 56 48 48
53.6986 -514.456 1996.92 160 160 154
132.45 124.64 1004.55 185 177 157
-30.8445 181.232 877.084 49 42 33
-347.426 353.613 1254.78 88 96 92
-347.426 353.613 1254.78 88 96 92
-85.4808 276.216 863.557 61 53 51
-349.34 76.8739 1056.71 73 58 54
-15.7935 177.421 867.489 63 56 51
