296.861 -176.956 1680.6 120 98 100
43.5699 9.26269 1238.94 214 186 158
360.543 338.128 1896.93 221 243 242
-200.384 227.101 1130.56 64 10 1
-29.2564 310.752 1243.2 255 253 241
-124.597 353.463 1232.4 112 98 88
67.1437 440.269 1469.46 255 254 235
33.4131 670.769 1378.72 170 199 189
426.941 -211.948 1745.23 114 122 121
426.941 -211.948 1745.23 114 122 121
-223.519 -34.0534 403.916 46 62 54
222.661 -118.122 1709.03 153 155 136
406.456 -103.797 1655.9 112 103 88
203.561 -29.173 1648.65 114 112 94
24.176 37.3153 1245.59 97 28 12
-186.89 96.9312 1095.23 94 51 47
434.625 188.747 1783.02 173 152 122
437.122 225.611 1887.12 143 124 106
-138.794 151.715 1123.18 170 143 135
-138.794 151.715 1123.18 170 143 135
394.08 354.362 1824.97 169 191 193
394.08 354.362 1824.97 169 191 193
440.555 383.086 1916.66 175 180 183
370.099 456.733 1932.9 173 199 193
6.3754 372.872 1226.94 237 243 225
6.3754 372.872 1226.94 237 243 225
-182.836 402.148 1251 70 41 28
-265.452 -41.5162 471.565 136 145 140
194.076 -128.908 1688.63 88 94 67
-90.6626 1.39889 1297.24 160 154 151
-90.6626 1.39889 1297.24 160 154 151
-36.3026 3.33077 1277.4 136 129 128
503.994 138.941 1901.75 171 173 145
285.608 133.932 1729.18 143 100 78
-57.2527 145.03 1108.8 167 129 118
410.953 265.254 1953.07 44 28 14
307.959 287.304 1789.42 111 138 138
27.797 223.738 1268.4 154 121 103
305.318 375.674 1875.65 104 131 128
394.367 385.246 1902.51 248 255 252
-81.5323 230.89 1087.97 84 57 49
397.894 457.336 1921.75 154 175 192
-127.008 305.088 1149.11 108 99 78
-48.2345 467.456 1185.85 82 60 53
-25.779 507.569 1200.44 246 239 228
-134.063 -59.0116 542.585 98 78 57
-245.454 -38.0181 431.428 136 145 140
247.404 -138.607 1751.51 29 27 22
366.336 -85.085 1702.91 113 97 85
345.1 -62.0557 1670.29 255 249 245
-222.951 19.4111 1337.87 88 63 57
-222.951 19.4111 1337.87 88 63 57
423.853 101.125 1681.91 255 252 255
-206.629 98.9151 1142.24 163 142 126
390.892 252.161 1866.57 55 38 22
95.2609 259.902 1377.14 250 253 245
1.27797 303.634 1193.52 248 254 254
-74.6245 328.864 1136.9 90 43 40
-32.5276 347.031 1191.04 219 165 149
-44.6125 364.162 1093.11 253 254 254
-45.5803 409.246 1156.52 245 248 243
243.388 81.0359 1766.31 114 120 93
-177.138 118.517 1108.86 39 26 15
441.615 344.894 1978.54 250 255 246
50.9705 236.911 1305.3 253 250 248
-45.9893 248.683 1152.08 239 203 175
-53.9626 334.892 1155.67 255 251 253
-47.3623 371.907 1179.29 249 252 255
-61.7591 397.587 1161.23 104 65 65
-45.8673 515.729 1201.24 144 137 112
-140.442 -21.0286 244.887 67 73 72
-238.318 -33.0228 431.128 65 68 66
-32.6829 25.4134 1200.45 89 68 64
-92.7291 77.6854 1070.55 221 207 186
-180.351 88.2067 1097.74 71 44 31
-13.3142 131.787 1171.57 248 255 244
263.847 316.92 1845.81 76 91 101
263.847 316.92 1845.81 76 91 101
-70.1789 308.614 1132.52 160 155 160
1.99673 329.611 1211.59 253 254 255
-157.986 372.895 1174.06 149 93 66
801.85 289.413 -1705.52 32 26 19
-140.39 -81.6456 716.506 48 42 35
397.635 -164.301 1725.67 96 94 81
433.588 -4.23432 1780.84 247 245 238
-300.062 84.2059 1194.56 98 77 55
-13.5896 120.96 1102 249 255 253
-122.666 161.509 1106.58 169 124 101
-122.666 161.509 1106.58 169 124 101
-75.1742 192.999 1109.57 253 250 248
-185.836 248.746 1189.37 159 97 62
-175.257 320.961 1215.1 146 97 83
-175.257 320.961 1215.1 146 97 83
-62.4135 -14.5362 93.4816 113 116 113
-121.392 1.52547 1322.67 39 78 92
287.069 39.4118 1695.33 62 48 39
-89.7721 336.793 1134.46 100 54 48
23.8754 -153.348 903.494 184 177 159
53.1866 4.97426 1383.97 214 186 158
-72.8795 466.83 1219.45 58 48 40
-28.8216 23.6612 -157.948 182 177 165
-287.682 161.952 1285.38 77 52 39
284.902 -91.5649 1648.91 66 54 48
338.627 184.457 1775.56 58 46 40
33.8909 557.587 1291.59 88 87 85
398.594 23.2158 1662.38 255 252 245
-318.475 7.5877 1532.79 142 132 115
146.92 77.912 1089.94 81 92 59
