556.134 -197.272 1021.43 229 237 230
538.302 -147.499 1082.92 211 195 187
-316.349 -104.214 1273.32 157 155 146
382.87 -34.5061 1181.98 179 158 149
-175.314 -29.6969 1059.94 226 205 179
392.576 20.7695 1167.23 181 159 153
540.219 21.4226 1209.29 244 232 227
406.365 28.097 1145.96 86 59 49
552.196 66.2221 1167.1 239 219 218
552.196 66.2221 1167.1 239 219 218
-455.127 60.9421 1050.98 230 211 192
565.173 73.2916 1208.72 255 244 233
-374.88 275.279 1103.19 234 249 236
-352.936 351.53 1185.12 172 130 127
-183.424 407.488 1328.83 244 245 227
-183.424 407.488 1328.83 244 245 227
-331.841 349.8 1093.95 255 254 254
-110.365 439.471 1260.7 65 65 65
569.01 -189.604 1094.78 122 121 123
559.882 -142.03 1053.48 54 51 52
422.087 -67.8577 1149.99 165 160 165
523.86 -21.6242 1144.31 165 121 101
417.8 2.89995 1082.16 113 70 56
-319.419 10.2625 1042.23 36 21 19
390.854 33.8593 1124.41 246 235 230
-294.355 52.6485 1011.82 255 227 205
400.458 70.0226 1181.33 170 145 139
413.278 99.4153 1116.78 78 74 66
-331.385 107.322 1051.13 203 128 120
-125.849 115.595 1090.86 247 236 214
-281.447 116.227 1105.11 255 251 248
440.943 128.481 1217.25 152 148 132
-112.57 167.303 1127.71 255 247 227
-106.148 185.149 1138.16 255 249 232
-73.7918 302.432 1216.06 253 245 230
-216.681 306.945 1187.08 255 254 251
-177.431 338.879 1179.53 255 254 244
-316.803 340.561 1173.58 224 177 159
-313.299 423.71 1230.26 57 52 45
574.451 -187.287 1041.43 213 223 212
386.782 -164.845 1076.27 162 161 136
386.782 -164.845 1076.27 162 161 136
512.085 -128.269 1086.43 93 88 74
-490.805 -11.0481 625.355 50 52 47
456.819 -1.69454 1125.68 245 236 206
-233.957 34.2545 1077.34 254 226 198
-294.038 52.7422 1009.98 255 227 205
541.352 76.4949 1222.79 255 245 240
-423.78 89.0035 1057.95 241 254 245
-178.696 92.6298 1071.68 191 115 81
533.987 133.431 1189.57 148 144 128
457.409 139.97 1232.58 92 84 65
-157.181 141.914 1148.17 255 252 236
-157.181 141.914 1148.17 255 252 236
-413.053 179.236 1087.29 254 249 255
-415.692 179.501 1098.17 254 249 255
-321.404 306.71 1168.88 249 247 248
-359.089 314.571 1147.26 168 133 130
398.64 -73.5345 1114.48 254 250 248
505.37 -36.8839 1124.96 181 185 156
373.521 -26.6815 1120.22 123 103 95
484.096 -12.2807 1103.3 143 114 93
-298.52 -8.3449 1074.13 33 14 10
464.787 9.88307 1131.96 137 73 62
-288.134 14.4716 1088.47 209 142 110
-238.884 21.4052 1046.55 86 51 40
-356.505 27.0322 1067.42 221 198 173
-294.415 321.79 1139.87 130 100 89
-166.335 443.425 1225.55 254 254 252
-322.31 444.284 1194.16 131 119 107
389.647 -99.5076 1047.2 123 114 99
-596.33 4.29285 782.958 138 149 141
396.695 16.043 1235.18 102 78 68
550.825 61.1842 1208.56 106 81 79
550.825 61.1842 1208.56 106 81 79
-450.008 54.1734 1047.93 205 187 163
-450.008 54.1734 1047.93 205 187 163
-272.02 232.435 1134.49 254 253 249
-368.176 276.444 1136.32 150 98 74
-293.49 444.125 1224.59 76 70 68
434.144 72.4927 1195.89 253 254 254
-392.955 86.2578 1145.49 251 254 249
-268.125 141.06 1119.46 146 99 87
-268.125 141.06 1119.46 146 99 87
-251.284 170.307 1104.55 140 83 68
-322.269 420.031 1190.8 251 252 245
372.702 -62.4517 1146.46 79 61 55
-219.246 -43.5775 1096.88 59 97 117
487.064 -47.468 1141.7 115 92 82
-281.327 98.7761 863.352 210 131 108
-236.435 213.164 1126.25 165 136 121
-531.621 -10.2728 699.637 70 71 62
-350.097 132.977 1116.66 192 118 92
506.451 225.777 1613.94 154 144 126
-408.669 160.555 1092.98 251 254 247
-408.669 160.555 1092.98 251 254 247
-408.669 160.555 1092.98 251 254 247
-104.96 234.527 1167.76 247 241 227
-70.747 274.677 1328.9 131 109 94
-243.706 382.435 1190.22 177 198 154
-289.506 428.905 1238.66 83 77 74
-192.956 -10.4376 1068.17 233 195 155
-157.089 12.933 1223.24 169 155 145
-282.906 33.0039 1068.54 241 193 177
594.399 -182.127 1004.02 136 175 129
529.93 -162.096 999.25 88 88 88
-270.905 -59.6657 1192.32 128 124 119
-285.594 71.3954 1120.91 216 185 174
-181.12 347.22 1283.59 255 254 255
