-124.331 -419.33 1222.66 111 104 98
-9.78777 -204.335 744.601 162 162 157
-398.079 -267.877 1217.14 78 79 68
-909.404 -413.132 2037.21 188 205 198
-501.812 -165.875 1052.31 46 56 53
588.02 -203.486 1289.91 148 139 131
-368.898 -134.382 972.813 190 165 146
-865.251 -267.315 2359.47 167 161 133
621.354 -116.279 1292.34 175 166 147
600.835 -107.591 1305.2 176 169 154
591.164 -109.336 1383.9 90 60 57
580.453 -101.871 1400.22 52 25 19
565.252 -80.616 1327.55 193 154 138
584.039 -59.1716 1387.39 114 93 90
653.418 -25.2061 1327.06 255 249 237
631.394 -18.137 1371.23 49 45 50
-190.209 -8.50738 1169.02 99 71 56
522.512 6.25999 1327.69 99 80 64
744.553 67.294 1494.16 195 183 157
84.1689 66.2562 1108.28 255 241 222
679.995 128.785 1442.78 106 104 96
95.2098 102.651 1145.84 248 228 205
95.2098 102.651 1145.84 248 228 205
647.41 132.13 1405.43 101 97 87
744.692 144.193 1507.22 160 173 180
744.692 144.193 1507.22 160 173 180
87.9025 109.139 1127.45 79 29 17
51.2384 143.318 1086.86 166 123 109
51.2384 143.318 1086.86 166 123 109
728.457 265.472 1613.85 228 251 251
664.754 264.157 1532.74 186 214 239
664.754 264.157 1532.74 186 214 239
687.596 287.958 1585.72 76 99 117
13.4721 213.045 1111.51 248 230 220
-23.4463 222.146 1121.02 146 58 44
100.565 249.256 1157.39 252 255 241
12.0667 386.393 1115.85 11 8 16
116.931 477.332 1185.85 180 221 207
-674.593 -555.023 1664.64 132 144 136
-674.593 -555.023 1664.64 132 144 136
-61.8593 -326.241 1263.69 149 148 145
-676.272 -257.173 1143.43 60 72 65
709.623 -276.797 1297.12 59 76 73
633.389 -287.608 1386.14 78 49 51
637.674 -244.703 1278.15 164 150 143
619.395 -147.974 1324.37 255 253 252
-849.326 -167.458 1532.55 97 84 72
-960.375 -203.141 1916.02 103 88 74
790.924 -133.893 1392.69 240 255 236
131.316 -96.5199 1080.73 149 124 96
559.124 -97.7974 1255.47 251 245 242
972.148 -131.877 1717.35 149 162 154
644.842 -96.3295 1345.97 237 232 217
694.316 -80.4197 1391.31 250 241 238
-166.222 -49.4823 1138.7 154 138 114
107.508 -33.99 1112.54 255 236 201
107.508 -33.99 1112.54 255 236 201
597.287 -34.0321 1398.72 35 18 17
-54.5075 -21.3504 861.94 128 90 67
103.683 -19.8436 1198.01 255 253 242
-140.075 -11.0692 1102.16 53 30 15
58.9838 0.651135 1077.41 255 250 238
145.134 8.36754 1112.65 253 253 234
142.908 21.7128 1136.51 210 142 124
-49.2755 27.7178 1054.94 163 110 111
-45.1505 41.0029 1038.06 135 94 75
-19.3659 41.8408 1055.61 254 255 255
-19.3659 41.8408 1055.61 254 255 255
659.265 64.5509 1405.15 121 122 97
-15.4525 63.6918 1068.37 250 250 226
621.96 94.557 1430.22 73 63 55
-166.188 99.7307 1387.58 93 58 45
603.161 186.117 1545.63 26 45 45
666.254 185.836 1476.81 198 232 255
91.8837 153.64 1156.87 109 82 70
104.138 155.598 1142.16 253 254 247
183.069 172.715 1206.4 208 154 137
183.069 172.715 1206.4 208 154 137
19.3162 231.118 1119.47 253 251 251
89.5832 232.991 1081.54 253 255 241
56.9112 248.947 1126.66 196 148 142
53.2493 276.942 1158.48 230 243 223
53.2493 276.942 1158.48 230 243 223
-7.02826 327.065 1121.93 85 61 41
-7.02826 327.065 1121.93 85 61 41
-7.02826 327.065 1121.93 85 61 41
6.72471 344.303 1159.79 251 248 237
14.1469 377.284 1114.94 250 246 236
-459.367 -357.122 1136.81 18 17 11
-25.4504 49.0882 -223.378 150 118 88
-234.76 -187.184 898.964 154 158 153
779.955 -261.704 1347.78 218 227 210
-575.294 -276.113 1606.88 77 65 55
575.145 -179.928 1292.19 143 139 132
675.904 -162.973 1370.72 250 242 223
66.8725 -51.0419 1081.82 195 142 107
814.581 -62.3084 1414.94 141 154 144
591.586 -53.4285 1319.53 252 252 250
591.586 -53.4285 1319.53 252 252 250
632.03 -45.0877 1373.19 136 123 123
683.175 -39.1195 1368.07 122 81 74
-138.177 -33.9781 1104.52 180 161 138
-51.9684 -26.9963 1044.59 159 120 94
-21.0823 -26.3768 1025.04 211 193 160
-33.9905 -20.9575 1023.93 208 185 160
-33.9905 -20.9575 1023.93 208 185 160
707.687 22.4664 1445.53 247 246 242
169.989 21.7101 1185.08 184 107 80
796.865 48.722 1459.54 237 239 222
796.865 48.722 1459.54 237 239 222
-39.4127 51.0469 1036.54 228 240 237
745.27 94.006 1453.45 134 128 103
-93.2616 90.1645 1068.28 171 131 126
102.001 116.08 1141.45 254 244 226
102.001 116.08 1141.45 254 244 226
620.715 175.898 1634.25 37 43 54
658.891 183.034 1644.96 138 163 158
69.329 156.458 1154.09 246 254 242
609.864 229.468 1517.2 67 91 90
734.718 232.285 1513.02 236 255 255
721.649 244.852 1499.27 240 255 255
755.586 255.311 1536.57 94 114 122
782.499 280.745 1578.51 240 254 253
755.704 305.525 1570.29 239 254 254
227.605 250.86 1263.95 195 158 114
227.77 273.968 1292.55 244 222 203
-22.0111 246.658 1093.23 167 113 114
31.0121 262.681 1158.95 122 89 86
-12.9342 249.358 1072.81 250 254 253
-12.9342 249.358 1072.81 250 254 253
158.798 333.412 1237.6 172 158 122
-20.832 321.516 1166.27 253 255 254
0.925827 381.771 1113.55 201 196 181
-14.7827 114.553 -384.702 153 150 140
-538.403 -372.239 1396.93 143 149 143
-508.318 -303.486 1367.15 153 153 145
-377.478 -244.454 1250.73 136 139 131
783.432 -205.306 1416.68 81 90 78
571.959 -141.961 1311.22 27 8 4
719.033 -101.379 1311.83 251 255 241
641.928 -67.3282 1354.22 255 254 244
96.8693 -45.6248 1088.77 94 36 19
611.985 -26.1211 1354.55 244 242 244
50.2034 -18.9738 1079.63 251 207 189
507.494 25.8644 1375.04 105 108 86
738.156 40.1358 1443.29 255 254 235
820.403 72.524 1525.33 119 117 95
820.403 72.524 1525.33 119 117 95
669.002 107.873 1384.82 105 92 81
619.941 161.525 1500.8 87 111 127
619.941 161.525 1500.8 87 111 127
190.348 362.515 1284.02 73 76 71
190.348 362.515 1284.02 73 76 71
67.2215 343.365 1187.62 150 169 140
32.9322 376.119 1194.42 80 71 74
32.9322 376.119 1194.42 80 71 74
10.7953 -289.862 1044.53 82 82 77
10.7953 -289.862 1044.53 82 82 77
66.4038 -238.566 921.691 58 37 23
518.277 -238.512 1363.78 1 2 2
106.362 -101.258 1196.06 49 79 93
71.9298 68.9746 1113.76 146 92 84
-38.0336 81.6734 1064.5 254 253 255
-38.0336 81.6734 1064.5 254 253 255
4.83885 222.658 1119.26 253 248 241
4.83885 222.658 1119.26 253 248 241
-30.329 227.839 1069.23 250 248 250
34.2847 258.952 1133.56 122 85 83
34.2847 258.952 1133.56 122 85 83
-22.9452 273.388 1134.15 250 254 254
-36.431 300.676 1161.77 89 68 64
-482.698 -373.347 1181.68 56 58 53
-520.104 -357.981 1296.76 88 86 82
-18.4429 -221.337 861.713 84 84 85
-473.98 -339.078 1388.21 103 96 85
-443.443 -421.274 1966.93 137 138 134
-103.527 -28.2028 122.8 69 77 71
-408.468 -314.654 1528.09 136 146 139
-753.136 -228.732 1351.64 81 78 69
594.7 -145.6 1303.85 254 253 250
-9.96629 16.1193 1052.96 255 249 254
749.085 67.1012 1405.88 132 128 108
749.085 67.1012 1405.88 132 128 108
-69.7294 59.0631 1034.77 243 231 224
161.193 72.7254 1173.58 247 234 221
33.941 98.9904 1103.66 249 222 204
81.7437 102.316 1135.31 161 106 91
81.7437 102.316 1135.31 161 106 91
81.7437 102.316 1135.31 161 106 91
0.0205406 112.124 1084.78 242 196 164
128.712 142.161 1178.31 249 254 242
-408.467 -343.35 1055.79 72 78 72
-472.565 -330.518 1263.13 132 143 138
-472.565 -330.518 1263.13 132 143 138
698.458 -56.0975 1372.07 133 105 98
8.46213 58.5881 1083.12 211 129 106
49.2869 226.934 1135.35 253 254 250
49.2869 226.934 1135.35 253 254 250
0.47851 356.167 1152.77 242 229 220
31.5075 -310.477 1038.41 122 122 117
-374.157 -217.229 1129.34 94 77 62
-374.157 -217.229 1129.34 94 77 62
-95.2178 35.4025 1069.5 69 42 33
37.1077 37.4233 1083.5 255 254 255
37.1077 37.4233 1083.5 255 254 255
-56.5998 102.942 1056.03 254 254 253
-56.5998 102.942 1056.03 254 254 253
-79.64 143.958 1099.5 110 89 71
80.4903 313.315 1194.84 177 194 151
43.7058 349.288 1186.72 81 73 70
-35.9752 393.409 1201.26 66 55 49
-432.791 -193.036 1321.15 155 136 113
-432.791 -193.036 1321.15 155 136 113
-776.205 -176.733 1663.94 70 60 46
750.625 -90.3746 1398.52 251 250 239
578.573 -60.5918 1417.84 50 38 37
65.3367 -31.2945 1076.3 237 177 152
725.961 -16.6982 1358 255 253 253
583.143 139.63 1673 163 153 143
-44.0556 -294.652 1007.12 139 139 134
428.988 -198.628 1371.34 56 48 46
578.895 354.606 1653.49 199 199 190
540.594 -186.858 1308.85 50 43 42
30.3624 -80.551 1100.71 64 97 110
168.853 117.122 1215.92 179 148 140
722.022 -248.06 1404.04 91 70 70
65.6006 1.41307 1072.23 255 244 231
741.221 -64.4064 1420.28 176 172 154
-753.191 -135.968 1392.86 71 57 46
87.5235 110.711 1157.24 133 77 63
87.5235 110.711 1157.24 133 77 63
