1.6094 -367.317 1154.46 72 63 47
-659.915 -732.48 2299.78 57 47 37
-637.833 -460.989 2288.74 136 136 131
-788.148 -416.739 2433.72 154 144 135
-1049.01 -389.959 2337.75 120 95 76
537.946 -188.47 1136.92 201 223 199
588.741 -82.4147 1213.13 245 254 235
467.893 -70.7047 1092.1 168 147 126
-166.214 -3.86753 961.872 59 30 17
530.838 42.9336 1224.18 255 255 250
412.034 45.242 1182.59 84 72 58
309.026 94.1584 1364.31 48 42 37
520.994 89.4152 1250.15 251 254 235
-273.151 76.8587 1036.99 244 248 240
-259.494 73.8032 960.663 242 242 236
-201.149 100.619 1056.83 255 254 249
-259.154 154.663 953.835 59 33 29
-135.119 178.098 1023.34 255 250 240
-135.119 178.098 1023.34 255 250 240
-85.4327 206.583 1042.92 255 253 229
-238.104 252.565 1007.88 255 244 231
-119.342 286.779 1084 247 251 230
-127.891 310.563 1091.36 249 242 216
-148.224 319.271 1061.51 135 155 118
-221.127 446.396 1126.12 12 7 5
207.224 -740.872 2392.97 149 152 150
-588.503 -664.332 2150.76 76 80 65
-588.503 -664.332 2150.76 76 80 65
-619.642 -502.44 2000.21 91 94 79
-1040.15 -470.153 1895.93 53 70 63
-1040.15 -470.153 1895.93 53 70 63
-833.841 -592.231 2476.93 60 67 63
-911.635 -500.889 2258.4 53 61 57
508.449 -256.157 1183.97 29 67 77
-1002.73 -331.116 2323.51 116 103 83
529.804 -163.536 1143.02 39 53 45
333.185 -120.366 1070.52 26 21 8
484.476 -135.633 1185.5 78 54 45
453.25 -56.687 1093.82 178 114 92
397.521 -60.8173 1143.69 173 169 143
-144.477 -43.3069 1014.9 104 113 108
-144.477 -43.3069 1014.9 104 113 108
428.909 -44.5265 1167.83 242 237 211
428.909 -44.5265 1167.83 242 237 211
460.478 -28.2649 1170.45 248 230 223
476.957 -7.78856 1208 250 237 228
-109.449 11.5091 972.576 255 236 193
626.992 42.5229 1258.81 103 106 94
-181.952 34.7653 1001.87 247 190 169
-115.347 43.9121 1021.29 255 245 228
-115.347 43.9121 1021.29 255 245 228
569.576 67.4043 1222.36 255 255 237
494.511 72.4938 1247.78 153 155 136
-146.344 66.6668 1033.03 216 152 131
-73.8799 65.3841 1024.31 202 110 68
-239.185 67.9407 976.212 254 253 233
-264.239 69.549 946.902 72 67 55
453.92 93.5404 1244.74 211 215 187
-57.5638 88.0406 1049.6 245 246 228
453.724 105.885 1242.6 110 108 86
-275.265 80.5112 931.731 77 62 47
-275.265 80.5112 931.731 77 62 47
-236.178 83.1114 969.258 251 251 237
548.876 141.206 1276.83 249 251 242
-71.9186 129.799 1044.41 79 42 31
-71.9186 129.799 1044.41 79 42 31
517.72 162.936 1218.98 155 173 170
-46.6494 141.845 1057.25 201 138 96
423.433 170.995 1258.86 32 25 14
500.35 184.04 1311.07 168 193 188
-93.0532 156.169 1040.55 143 113 89
421.67 212.834 1389.75 67 73 74
-114.414 205.262 1129.71 254 254 246
478.28 269.554 1476.64 129 153 151
-108.358 177.633 969.408 252 247 238
-249.142 260.171 1007.25 252 249 250
-33.0044 315.615 1123.13 240 239 217
-240.742 342.967 1075.34 254 251 254
-213.172 341.952 1019.13 83 55 38
-226.848 350.274 1034.03 243 242 239
-190.627 357.046 1051.98 30 14 14
-168.638 404.036 1076.3 18 15 15
-694.002 -742.516 2496.66 144 148 141
-681.787 -678.89 2545.39 155 154 142
-422.092 -586.37 2423.2 150 151 139
-988.804 -403.964 1919.81 118 126 120
-863.987 -353.334 2477.1 38 49 43
488.179 -146.885 1198.32 234 215 198
360 -60.365 1132.13 77 56 49
389.808 -55.1705 1186.05 255 242 245
412.004 -37.2749 1152.04 118 71 50
430.067 -32.4079 1158.21 144 94 90
-189.347 -28.5556 999.766 145 142 145
490.099 -20.2225 1224.22 100 74 68
608.465 -14.4822 1223.75 117 120 110
393.62 -6.70681 1182.09 229 232 234
413.229 29.9023 1193.26 78 83 81
383.964 34.8655 1184.49 43 9 7
-195.961 42.4696 992.813 240 172 147
-165.459 49.2392 982.195 71 28 22
-282.375 71.7923 959.326 241 253 244
-52.3567 103.357 1044.77 249 248 241
-233.607 103.615 973.049 255 247 235
530.862 151.693 1279.46 248 253 245
-266.571 204.308 1003.31 255 254 236
-203.278 236.289 1027.62 76 48 38
7.05388 274.048 1116.9 190 135 104
-227.966 258.378 1045.75 254 250 243
-237.302 277.388 1027.52 117 85 90
-16.6089 363.615 1161.22 49 42 41
-233.169 347.501 1055.28 74 49 37
-77.7639 365.332 1104 91 69 49
-203.081 354.364 1045.19 253 247 233
-191.997 401.567 1059.75 244 237 228
-870.83 -936.135 2762.58 150 150 140
-1170.47 -572.216 2270.79 58 73 65
442.299 -206.993 1131.32 26 18 12
310.882 -185.487 1176.66 23 22 20
310.882 -185.487 1176.66 23 22 20
-998.961 -344.327 2246.24 61 33 21
-998.961 -344.327 2246.24 61 33 21
368.248 -90.9203 1166.05 34 14 5
531.822 -79.2326 1185.26 171 169 137
531.822 -79.2326 1185.26 171 169 137
495.801 -63.1936 1157.65 253 252 247
495.801 -63.1936 1157.65 253 252 247
386.964 -19.7858 1112.53 112 98 79
-216.272 -5.95406 1010.92 88 65 51
-119.414 1.13872 990.764 69 16 3
477.635 5.30803 1192.81 102 78 72
477.635 5.30803 1192.81 102 78 72
486.586 34.7671 1193.84 255 254 240
511.232 40.3071 1205.72 188 189 178
563.496 84.8697 1218.3 246 245 233
540.322 319.297 1350.53 216 243 243
540.322 319.297 1350.53 216 243 243
493.823 325.641 1339.05 122 155 162
-56.8635 345.165 1091.25 149 136 102
-145.647 346.728 1045.05 142 162 124
-114.55 414.549 1154.83 250 249 246
-203.747 386.587 1075.03 254 251 248
-209.332 385.029 1038.15 63 44 35
-661.935 -754.296 2339.84 97 91 82
-133.56 -685.073 2474.8 122 120 109
-156.487 -605.93 2214.76 45 32 25
-1070.94 -518.779 1994.06 135 152 143
-414.328 -596.828 2315.9 96 96 89
-414.328 -596.828 2315.9 96 96 89
471.705 -222.094 1098.11 126 172 168
-1138.39 -379.932 2050.73 71 75 68
-1138.39 -379.932 2050.73 71 75 68
-176.979 -18.1851 996.979 24 15 14
401.093 19.7029 1186.53 250 246 247
511.164 80.302 1228.55 253 254 235
-241.297 83.862 938.971 200 213 204
363.189 127.487 1260.77 62 58 44
-235.611 237.859 993.107 129 43 19
222.277 -701.158 2252.96 71 67 57
176.64 -746.087 2569.54 78 80 75
81.5407 -700.696 2504.59 76 77 76
-652.311 -313.953 1198.16 132 151 141
-466.633 -586.979 2435.14 149 148 145
-1124.29 -432.976 2056.42 125 153 139
447.096 -172.366 1091.85 81 63 64
440.132 -82.4527 1155.24 99 78 62
-206.463 55.4484 976.907 231 137 119
-223.989 58.8971 946.815 242 237 234
-302.331 78.2067 971.09 113 61 57
-283.818 98.4638 947.537 242 217 218
-57.5544 112.577 1047.98 254 221 209
-145.853 110.507 1028.01 112 65 57
-145.853 110.507 1028.01 112 65 57
-135.876 138.746 1020.96 93 59 37
-135.876 138.746 1020.96 93 59 37
-135.876 138.746 1020.96 93 59 37
-214.056 146.346 973.393 223 180 135
-193.599 239.068 1029.02 146 97 83
-193.599 239.068 1029.02 146 97 83
-699.327 -707.817 2380.74 140 147 143
-699.327 -707.817 2380.74 140 147 143
-1016.75 -450.561 2296.44 118 131 123
386.682 -93.4008 1143.15 226 231 230
-114.21 -52.5607 1024.7 51 85 101
607.998 78.0107 1249.57 137 156 120
-123.275 174.515 1033.73 149 124 111
-207.926 367.252 1044.52 238 223 207
-216.143 103.369 1018.33 204 108 81
2.68749 159.738 1183.36 147 134 117
-170.487 363.029 1069.33 72 56 52
-1197.76 -546.882 2297.03 79 82 74
-1197.76 -546.882 2297.03 79 82 74
-1197.76 -546.882 2297.03 79 82 74
500.557 -192.327 1126.93 77 76 74
-926.043 -339.068 2338.18 76 61 42
-78.1057 -28.1538 992.511 223 178 139
-155.312 15.0649 1025.71 233 180 157
386.874 59.595 1214.95 49 41 37
331.252 74.4025 1370.24 68 58 54
426.684 281.177 1457 83 72 61
-963.825 -501.372 2123.98 136 149 140
-180.1 -47.2406 1053.17 68 92 94
472.758 -172.204 1152.88 90 60 53
-968.756 -293.901 2113.89 56 42 30
544.557 -12.8944 1261.8 243 239 226
403.071 92.0866 1365.99 75 60 46
