238.343 -162.816 1814.15 126 117 110
129.084 -110.568 1952.63 116 124 91
194.155 115.15 1801.45 59 37 29
-22.6244 85.0879 1271.23 233 197 179
-22.6244 85.0879 1271.23 233 197 179
-113.044 76.8985 1050.72 131 88 60
-93.2533 125.642 1168.59 251 252 250
-150.325 144.983 1079.31 183 156 145
41.7428 237.157 1398.74 206 177 167
173.603 435.277 2052.33 54 67 66
-142.959 311.357 1179.03 53 25 10
-155.898 361.766 1184.56 169 140 132
-145.077 405.325 1177.26 36 32 16
-74.1881 478.823 1171.95 126 113 104
-182.561 465.589 1130.14 168 157 141
6.50094 636.965 1321.44 218 237 222
270.953 -147.457 1791.34 86 82 72
270.953 -147.457 1791.34 86 82 72
330.87 50.9891 1937.31 255 255 237
330.483 51.3269 1809.06 138 128 122
294.097 90.9668 1789.11 255 249 254
-78.1021 106.569 1136.79 250 252 240
-88.9577 110.684 1061.27 250 248 236
216.602 215.71 1931.45 59 35 27
163.522 260.643 1843.34 41 41 27
53.8883 278.408 1326.58 255 249 235
-97.2323 236.179 1103.16 90 64 63
178.733 394.658 1837.65 142 168 161
-104.343 404.324 1168.08 168 114 87
-104.343 404.324 1168.08 168 114 87
-129.184 459.69 1195.79 86 76 67
347.83 -168.672 1846.81 104 95 85
347.83 -168.672 1846.81 104 95 85
-130.708 6.96253 1389.11 137 129 130
-130.708 6.96253 1389.11 137 129 130
-0.798395 228.944 1276.26 165 129 120
-0.798395 228.944 1276.26 165 129 120
-103.51 221.074 1100.41 53 23 17
-120.946 229.598 1131.33 199 168 153
-33.3827 367.701 1211.96 124 96 81
-167.571 371.191 1192.36 99 53 23
-67.6398 401.163 1119.91 254 252 253
-25.4503 503.716 1252.03 253 250 243
-60.2704 105.208 1169.94 251 254 255
38.2621 169.092 1341.41 229 230 225
55.4157 275.487 1398.63 255 254 237
190.832 482.894 1927.38 79 95 92
-33.3433 441.895 1703.82 246 254 241
-70.4729 316.459 1161.15 181 118 97
-85.5737 321.82 1139.29 227 234 227
-28.9562 396.085 1246.02 136 113 88
-28.9562 396.085 1246.02 136 113 88
21.3499 516.75 1325.93 84 82 83
-35.8455 483.663 1227.42 103 85 81
-35.8455 483.663 1227.42 103 85 81
-34.2922 141.712 1211.39 254 251 255
-27.9535 189.146 1213.99 249 224 200
-65.347 253.908 1160.84 247 217 187
-74.1588 340.68 1161.5 254 254 252
-85.0276 401.859 1159.14 108 81 73
-32.9803 440.996 1229.28 88 79 75
-102.84 77.2972 1082.82 207 192 171
-94.9016 144.157 1090.6 252 254 255
178.845 357.993 1962.77 70 94 106
-56.9735 467.493 1195.05 253 251 254
-150.789 4.37385 1299.01 57 104 115
-150.789 4.37385 1299.01 57 104 115
147.326 25.1539 1637.78 107 101 62
147.326 25.1539 1637.78 107 101 62
-138.893 163.818 1112.01 174 123 97
-138.893 163.818 1112.01 174 123 97
-90.1044 194.771 1108.06 254 250 248
-90.1044 194.771 1108.06 254 250 248
-58.2297 412.516 1179.28 250 247 248
-62.6086 21.1366 1249.77 63 96 117
-150.106 54.4487 1137.7 170 136 116
373.413 141.61 1971.5 210 214 191
-112.576 342.876 1141.53 103 52 45
69.476 142.965 1275.77 51 34 26
133.991 401.287 1746.39 90 82 69
-142.132 113.658 1070.24 64 40 32
308.516 43.176 1630.48 254 255 254
