-285.166 -245.187 837.626 11 6 4
-278.862 -231.611 801.506 156 150 152
-278.862 -231.611 801.506 156 150 152
-786.482 -326.238 1146.84 33 42 33
508.615 -300.679 1699.1 106 81 74
595.033 -232.45 1702.2 116 102 90
-1162.1 -285.292 2486.68 165 148 124
653.17 -138.701 1670.83 250 253 239
548.19 -102.942 1459.4 243 248 227
533.848 -98.3335 1615.64 255 246 227
581.811 -24.339 1699.14 255 240 239
106.824 55.2342 1303.25 255 247 219
650.255 97.6129 1784.11 156 136 118
587.412 129.428 1747.99 119 111 92
38.5006 160.032 1260.12 255 247 231
-94.3434 159.85 1151.68 56 43 33
495.225 305.916 1989.64 64 76 71
-84.814 203.5 1185.01 133 112 96
-45.2184 235.635 1202.05 212 109 84
-74.9748 249.95 1213.04 251 254 252
13.5155 304.805 1286.11 249 250 235
-123.967 323.449 1324.98 132 114 99
-22.736 345.389 1256.03 251 252 249
-188.875 404.781 1434.82 87 49 35
-18.0495 365.466 1270.14 255 254 248
-18.0495 365.466 1270.14 255 254 248
-8.68654 380.15 1273.92 227 227 221
-141.938 468.185 1479.7 186 171 157
-274.5 -183.578 531.398 66 74 68
-627.817 -281.744 857.106 29 46 40
-402.511 -171.441 534.101 136 146 138
-81.8484 -54.9344 254.036 155 154 152
-81.8484 -54.9344 254.036 155 154 152
-976.041 -314.639 1595.51 123 135 125
491.083 -234.384 1515.27 48 42 43
491.083 -234.384 1515.27 48 42 43
591.573 -196.702 1560.03 74 79 67
465.425 -182.455 1523 153 146 129
-842.037 -118.929 1100.53 43 63 53
605.004 -149.671 1602.65 253 253 232
-899.941 -125.505 1271.13 45 66 54
-538.018 -76.4893 821.398 112 131 125
-640.492 -74.6464 988.624 143 133 110
527.295 -109.007 1616.8 125 118 97
757.12 -131.975 1982 254 255 248
-1336.36 -92.9817 1827.39 112 116 110
-1061.49 -68.8208 1610.02 145 148 129
-1061.49 -68.8208 1610.02 145 148 129
-279.1 -32.9751 1251.6 87 73 55
486.412 -17.7274 1661.77 182 162 151
486.412 -17.7274 1661.77 182 162 151
102.25 36.9336 1285.98 255 242 220
-49.8477 50.3123 1153.35 255 252 241
429.956 98.0952 1796.74 116 124 101
119.473 140.516 1358.27 216 164 136
119.473 140.516 1358.27 216 164 136
-78.4063 141.274 1156.39 116 89 65
-152.489 254.5 1354.52 52 31 14
76.9949 272.28 1350.85 252 252 250
105.889 370.328 1404.21 173 162 127
-37.3129 332.643 1237.6 255 254 252
-38.8456 358.85 1258.22 255 246 232
-538.768 -494.128 1620.11 108 100 91
-762.305 -421.251 2588.61 133 109 80
-857.828 -338.969 2346.71 149 131 101
-1242.67 -152.053 1620.79 52 47 42
552.491 -71.8393 1682.38 254 249 243
52.6814 -42.6561 1222.26 107 53 42
-58.4148 -20.2405 1186.32 229 205 175
525.005 -27.1665 1668.75 254 249 248
-72.2238 -13.3851 1192.03 237 213 192
-72.2238 -13.3851 1192.03 237 213 192
607.772 44.4943 1704.93 255 251 240
672.345 52.1259 1770.86 250 252 225
672.345 52.1259 1770.86 250 252 225
-88.0871 37.8083 1125.59 243 254 254
58.7526 129.836 1283.7 255 252 233
-100.989 143.76 1150.27 58 32 25
-79.8049 184.272 1156.35 253 253 240
-79.8049 184.272 1156.35 253 253 240
-37.265 229.022 1210.34 213 136 123
-55.3893 344.955 1237.56 252 253 252
394.445 -240.133 1600.69 19 7 4
-1334.05 -92.3556 1977.53 37 48 43
-51.7175 46.6791 1034.99 234 245 239
525.21 146.127 1710.61 39 26 14
483.923 346.259 1895.36 68 77 74
-58.2202 237.296 1203.73 155 106 84
-85.1539 249.882 1177.2 66 29 21
25.905 385.764 1344.6 171 185 152
-157.452 395.082 1370.84 88 55 36
-5.20525 403.124 1287.88 83 74 72
-5.20525 403.124 1287.88 83 74 72
11.5852 421.771 1305.76 222 208 193
-740.065 -367.2 1106.2 51 57 52
-740.065 -367.2 1106.2 51 57 52
-505.571 -131.033 773.607 134 144 134
579.393 -183.898 1830.12 245 248 246
578.082 -66.2593 1645.33 136 115 101
-21.728 17.4319 1156.95 213 136 103
-41.3824 23.6122 1162.74 252 255 255
700.241 40.2954 1783.94 160 165 141
106.255 83.3748 1316.38 250 248 228
643.756 205.656 2079.16 239 247 241
20.8242 94.6378 891.942 255 241 232
3.45093 149.743 1236.56 255 237 230
-31.0685 254.504 1275.31 250 253 251
-65.1845 264.276 1219.7 249 251 251
-56.2846 296.709 1223.52 253 252 251
-72.4704 323.325 1229.12 98 74 71
-47.5406 423.449 1272.74 59 43 42
-691.6 -315.18 965.125 54 63 56
-790.417 -307.867 1266.01 62 66 58
-738.289 -240.387 1226.11 85 84 75
-339.022 -244.624 1285.48 72 74 74
-263.957 -20.292 1211.97 82 64 45
-107.244 2.73064 1104.71 198 179 155
-131.027 77.9918 1138.72 164 114 83
-131.027 77.9918 1138.72 164 114 83
441.032 201.547 1785.18 90 101 105
77.5333 153.462 1287.86 250 254 255
50.9285 157.496 1291.06 150 127 110
-190.253 483.468 1584.71 118 120 98
-736.502 -331.359 1077.87 120 138 132
-762.02 -304.727 1114.4 53 60 53
-628.474 -240.894 943.201 118 138 128
-123.301 -131.544 548.652 123 123 114
41.0663 -247.311 1169.96 50 41 33
-575.473 -157.119 865.654 100 99 94
597.333 -267.903 1637.38 91 86 74
-85.2771 116.114 1141.82 252 253 254
-188.231 474.747 1551.52 118 120 98
-37.1675 394.014 1270.26 253 252 246
-737.643 -244.5 1148.64 123 140 132
-549.483 -140.97 874.79 128 137 133
-587.272 -139.169 1002.47 86 74 62
85.9914 -77.6603 1273.5 220 193 157
-141.871 302.819 1297.96 125 91 60
-39.5978 330.333 1231.49 254 253 250
2.2212 376.805 1288.12 135 120 118
2.2212 376.805 1288.12 135 120 118
2.2212 376.805 1288.12 135 120 118
368.663 -245.209 1390.05 164 152 149
456.397 -62.3806 1677.84 61 47 44
-122.915 165.239 1197.68 83 60 41
486.582 324.717 2040.69 74 64 55
-277.5 -240.447 1023.53 136 136 131
-161.824 -35.0984 1004.53 156 131 102
87.7488 118.95 1149.34 207 188 171
-265.585 -277.324 941.526 29 21 15
430.036 -190.079 1549.6 54 51 45
430.036 -190.079 1549.6 54 51 45
-176.493 60.7071 1135.29 111 80 67
473.071 7.86386 1927.94 76 77 50
