-439.093 -383.579 2027.95 170 162 143
-439.093 -383.579 2027.95 170 162 143
149.756 -168.986 1732.59 188 213 207
136.768 82.8325 1785.74 249 230 212
-355.642 57.1648 1094.08 186 184 164
-117.077 95.0238 1037.25 119 36 20
-132.775 137.121 1052.03 205 158 133
-251.775 176.894 1057.62 41 3 0
-26.7756 266.484 1298.36 251 248 235
-104.172 259.686 1062.06 155 120 110
-242.241 339.865 1134.3 50 18 10
-239.369 357.882 1128.67 46 17 12
435.835 -292.258 1689.57 65 69 63
-25.5359 -162.667 1868.41 92 67 61
187.541 -57.0541 1925.22 143 135 113
-45.2558 34.9729 1201.91 143 73 39
-349.739 65.1337 1066.7 65 56 40
196.346 190.431 1954.09 152 143 121
-265.505 116.581 1071.53 29 0 0
-265.505 116.581 1071.53 29 0 0
-88.2843 124.776 1136.91 255 251 244
-132.011 129.611 1060.12 63 12 3
-54.1982 152.376 1156.59 155 114 92
-51.8133 186.247 1252.83 159 121 104
-46.1847 221.395 1266.95 138 103 73
-39.7838 261.661 1256.83 177 148 128
-245.133 267.631 1092.47 52 7 2
-241.883 289.441 1094.37 48 2 0
-81.2585 495.995 1153.41 255 253 242
-218.281 470.351 1090.3 1 1 0
-428.468 -172.193 1962.96 112 66 41
120.699 -134.264 1798.55 139 142 125
-184.492 0.89107 1316.88 133 134 135
-85.6823 94.3528 1163.06 250 251 251
-56.2601 146.274 1219.2 204 147 138
35.684 341.145 1977.85 145 176 172
112.334 360.018 1907.7 228 248 248
-117.799 211.688 1062.85 34 12 9
-52.9301 243.727 1182.57 253 250 243
-52.9301 243.727 1182.57 253 250 243
-126.361 253.41 1092.61 202 159 136
-58.0717 298.498 1174.77 253 251 245
-90.8759 302.438 1115.64 164 103 79
-23.6465 362.395 1316.17 253 251 251
-65.6346 390.878 1175 105 93 72
-121.556 371.052 1065.08 136 94 65
-93.5443 412.32 1148.28 252 248 245
-189.306 433.636 1205.14 113 108 85
-70.3875 471.575 1198.64 60 35 27
22.4242 -118.515 1749.17 15 18 6
-63.4361 180.32 1170.73 243 220 200
-33.2223 230.422 1278.26 249 252 245
-70.8873 297.325 1165.19 155 104 95
-96.3918 331.075 1136.74 249 254 255
-264.124 458.994 1171.33 117 70 46
-56.0304 481.134 1222.27 255 251 255
-159.998 484.167 1148.33 29 16 5
-91.8631 487.25 1155.71 30 17 10
215.961 111.202 2194.4 243 240 239
-105.433 133.703 1048.69 255 252 247
123.992 250.509 1783.4 48 42 37
-130.05 142.419 1036.75 184 132 105
-215.489 444.427 1102.12 58 34 22
-202.029 -0.434215 1240.69 44 80 95
-44.4037 1.53392 1279.48 245 220 198
-208.296 112.314 1056.66 37 28 17
88.6037 193.896 1412.33 47 40 35
-149.739 153.918 1051.03 156 111 87
-88.0322 17.8289 1114.07 37 40 41
-234.976 44.5438 1068.63 149 128 100
-375.382 -276.623 1909.08 156 152 145
-164.015 46.7839 1060.81 155 128 105
-90.8223 -66.8384 1622.52 64 50 40
222.872 48.1093 2219.34 254 254 247
-159.745 239.597 1093.98 63 56 37
-295.904 394.68 1180.99 64 50 43
-6.07747 -234.578 1805.79 179 173 164
-68.197 93.4916 1198.73 250 230 195
53.6949 153.239 1475.41 76 61 52
53.6949 153.239 1475.41 76 61 52
-323.477 152.438 1125.07 63 44 31
-264.362 -124.433 926.1 110 82 61
