394.088 -208.685 1257.19 74 84 80
176.587 -131.966 1140.78 72 43 42
157.165 -55.0102 985.27 166 168 155
-384.131 36.5289 942.825 244 226 207
237.183 56.3012 1033.73 255 248 231
-513.905 56.5291 991.78 67 53 35
-430.105 65.3143 978.7 254 217 193
-542.49 72.4905 955.348 245 229 211
158.877 78.3382 1015.35 181 165 145
347.582 81.4756 1068.1 173 171 134
-485.29 76.4735 948.106 247 226 203
112.278 87.4622 1014.29 250 244 242
129.513 101.049 1046.34 143 97 92
-427.236 101.493 987.107 255 225 202
-431.993 104.61 966.057 252 234 206
-518.13 118.889 994.808 251 228 211
-434.463 118.066 986.119 247 224 211
169.686 143.663 1068.07 197 174 175
205.185 194.259 1208.64 252 246 237
-398.426 214.8 1040.26 255 244 226
-588.659 226.415 1014 234 213 180
-328.957 254.331 1083.08 80 78 65
-313.339 261.449 1069.63 133 122 114
-372.882 265.221 1031.02 255 233 219
272.264 301.115 1165.44 105 86 68
433.374 355.648 1238.23 213 231 228
380.432 343.736 1183.26 151 179 177
-271.049 403.85 1268.84 26 21 17
442.141 406.49 1273.2 141 174 172
-329.525 372.144 1102.88 255 229 207
-561.181 371.914 1088.29 254 243 225
-286.732 412.753 1190.39 45 39 30
377.111 458.604 1234.68 54 80 89
283.435 468.328 1242.51 32 61 70
-571.831 423.384 1112.52 247 244 237
392.279 490.008 1228.4 141 157 154
428.901 559.794 1312.78 246 251 248
-347.253 562.344 1182.18 110 124 116
-109.177 -164.376 461.002 104 108 103
-86.1208 -111.864 312.809 85 94 88
-66.1222 -326.305 991.306 58 68 66
-183.838 -321.632 1034.5 85 88 83
-207.536 -287.964 936.585 139 139 128
-133.926 -144.093 611.146 77 59 40
-649.922 -271.549 1329.71 83 85 80
-284.041 -113.301 562.486 25 27 22
609.478 259.004 -1345.42 24 27 21
198.9 -132.557 1132.44 103 61 47
312.865 -69.8626 959.826 86 93 81
-1112.2 -65.9671 1512.89 143 154 147
237.144 -14.9309 978.668 176 162 151
273.773 -11.6087 1002.52 185 183 155
242.595 -5.41426 993.108 72 58 58
356.876 14.8972 998.469 105 108 95
381.399 39.692 1025.49 234 244 240
381.399 39.692 1025.49 234 244 240
-382.869 40.6938 992.762 147 130 106
335.197 44.5434 1001.65 157 144 149
214.958 47.8786 1029.72 244 233 208
-492.358 64.9921 937.942 76 59 45
133.904 75.0682 1005.23 80 49 51
-499.801 82.6971 961.987 209 148 124
260.87 92.4486 1025.27 167 112 89
-341.725 124.458 1231.35 195 181 171
-358.161 108.732 959.977 243 236 220
-375.984 121.426 994.106 140 109 77
-589.055 128.919 967.849 250 253 251
-589.055 128.919 967.849 250 253 251
-358.733 174.335 1027.68 247 231 204
193.509 209.514 1140.26 81 66 57
-395.931 200.642 1020.06 255 241 225
-320.462 251.482 1268.44 44 20 9
-399.499 214.998 1024.58 54 28 17
-399.499 214.998 1024.58 54 28 17
-394.266 234.208 1025.62 163 164 151
399.42 276.674 1153.74 168 169 156
300.68 274.472 1140.36 250 255 237
-445.784 278.465 1053.49 170 141 129
-450.808 351.711 1089.56 204 205 191
-497.803 354.743 1077.37 158 139 123
-485.512 364.827 1101.48 207 182 169
-356.907 387.011 1125.01 247 223 203
-504.21 399.695 1115.99 226 230 206
-355 396.175 1087.72 254 255 232
-534.769 408.827 1118.6 255 252 236
-534.769 408.827 1118.6 255 252 236
-288.082 420.948 1097.35 255 253 233
-267.055 -305.117 1057.55 88 88 77
-1.99381 -636.09 2602.63 196 176 152
171.871 -110.09 1102.69 72 27 14
171.871 -110.09 1102.69 72 27 14
212.761 -86.9106 1005.32 170 189 182
373.967 -5.31309 1042.05 96 107 95
-386.713 21.288 1045.73 57 55 45
-373.261 36.9131 1015.53 146 128 115
-354.385 54.9157 1243 175 170 160
-447.529 45.4467 992.188 233 228 201
-498.021 59.4329 973.849 251 244 228
392.262 72.4006 1020.4 180 198 164
226.289 76.1916 1018.39 194 192 156
-479.548 105.514 1023.52 255 248 238
-597.793 121.389 976.497 246 252 248
-579.015 116.714 889.063 60 62 53
-632.113 127.426 997.59 251 253 251
200.993 138.219 1050.27 210 205 203
247.455 145.29 1087.43 92 59 58
243.765 155.51 1078.81 255 241 231
-638.767 149.357 1000.28 252 249 237
-559.375 140.587 949.633 249 254 251
223.019 174.898 1067.64 88 51 41
223.019 174.898 1067.64 88 51 41
157.21 245.169 1137.09 91 71 63
301.335 242.093 1035.73 255 254 246
201.184 259.736 1112.22 203 205 171
-593.093 253.342 1014.5 255 253 234
400.494 298.1 1119.45 131 132 104
372.817 355.164 1210.88 159 178 171
269.698 393.052 1251.74 75 105 126
-496.741 366.135 1072.01 217 215 195
-291.796 404.576 1162.79 167 162 159
-286.922 428.427 1138.25 36 39 34
-518.258 523.163 1220.76 35 37 35
-261.011 -297.327 1031.57 93 88 76
291.566 -144.437 1090.3 31 70 75
291.566 -144.437 1090.3 31 70 75
95.6816 -135.86 1209.4 104 91 69
293.387 -112.246 997.188 51 44 43
138.568 -98.8251 1054.3 221 215 212
180.023 -81.4231 995.551 106 107 124
-379.578 -21.1885 1192.84 52 44 33
-432.912 26.7622 1008.88 54 69 84
125.424 37.8447 1004.9 254 253 250
-457.68 78.6947 981.127 86 40 29
149.132 84.6923 1020.32 149 158 124
262.446 97.9741 1025.9 195 125 110
262.446 97.9741 1025.9 195 125 110
-532.357 119.695 992.177 207 140 118
180.054 130.197 1048.82 255 249 245
-546.587 315.627 1057.26 252 253 254
-291.411 389.464 1108.75 145 90 50
432.177 570.599 1328.76 249 251 247
-277.058 -361.519 1166.86 158 166 160
87.2183 -72.2288 1042.04 54 47 32
377.689 -34.9134 1002.21 126 152 120
111.414 49.0032 1069.36 125 99 99
344.973 68.993 1043.24 247 245 215
250.521 172.47 1080.42 93 67 67
146.62 173.8 1069.51 255 253 255
-581.338 251.707 1035.91 223 197 166
-581.338 251.707 1035.91 223 197 166
-573.858 297.679 1041.56 148 95 81
-573.858 297.679 1041.56 148 95 81
-291.706 389.825 1324.13 150 150 133
-478.604 317.165 1071.14 253 254 253
-574.482 354.377 1077.59 247 254 255
-524.307 355.147 1080.1 123 94 84
107.728 85.1893 -346.718 31 31 29
315.341 -182.16 1189.34 134 190 185
353.843 -99.8183 954.811 53 111 139
307.787 -101.125 1000.3 158 203 195
307.787 -101.125 1000.3 158 203 195
-365.44 67.0818 1139.67 63 51 49
189.419 181.304 1055.06 117 97 88
189.419 181.304 1055.06 117 97 88
-449.474 170.067 943.877 112 68 58
-449.474 170.067 943.877 112 68 58
-568.032 216.183 1034.62 227 201 174
-494.659 224.03 1078.02 112 65 54
-326.07 273.709 1170.41 77 60 57
307.7 446.023 1275.74 193 219 215
307.7 446.023 1275.74 193 219 215
-548.748 437.351 1112.04 254 254 251
93.9447 -65.8816 1064.97 77 64 47
-366.465 25.0179 1272.13 152 152 138
-366.057 53.5222 1200.48 76 68 67
-366.057 53.5222 1200.48 76 68 67
206.058 68.9921 1041.01 107 70 60
-436.391 239.601 984.293 135 121 109
-435.749 266.622 1095.05 250 255 244
376.763 334.544 1151.06 172 201 203
-15.7434 -160.161 521.165 121 92 76
-208.507 -87.9841 394.322 97 104 97
-508.566 141.609 967.427 253 254 251
-447.844 187.312 1037.85 232 200 170
-447.844 187.312 1037.85 232 200 170
-341.62 280.14 1068.61 253 247 231
-467.283 400.401 1083.61 173 196 158
-140.216 -266.552 1106.1 92 73 47
-386.256 -13.7179 1163.93 105 94 86
-409.512 52.4691 981.581 230 193 153
-497.891 85.686 987.554 231 192 179
-399.052 107.222 1011.81 231 204 183
266.81 156.238 1059.04 125 99 91
-689.262 -171.424 1118.01 144 161 152
-420.85 -203.651 823.719 86 94 88
-305.738 316.713 1185.46 71 47 40
340.736 407.426 1244.47 206 231 232
-452.559 -140.083 793.227 23 22 21
343.09 189.077 1090.84 252 255 251
343.09 189.077 1090.84 252 255 251
204.675 308.366 1117.34 99 87 82
204.675 308.366 1117.34 99 87 82
-351.509 -204.018 851.099 27 20 16
-387.86 345.233 1077.16 251 254 254
