-280.446 -249.63 1221.67 140 144 138
-196.981 -112.946 625.434 153 156 154
515.919 -265.501 1579.4 64 72 73
-168.613 -54.5303 363.759 73 84 80
646.13 -236.153 1665.28 62 81 69
391.885 -224.393 1600.2 183 186 174
640.866 -200.063 1622.34 210 212 197
636.818 -158.121 1653.95 246 246 221
465.38 -127.879 1559.6 26 16 4
112.454 -99.9071 1283.74 157 133 109
125.879 -87.5299 1214.06 149 135 117
635.977 -109.017 1680.96 216 215 213
635.977 -109.017 1680.96 216 215 213
120.883 -57.2296 1213.41 245 223 183
402.49 -42.0935 1705.22 28 27 16
564.713 -25.1654 1605.28 255 242 235
607.575 24.536 1738.22 254 251 239
50.7917 54.3352 1216.61 255 245 239
97.5028 125.883 1234.69 161 141 125
64.2281 159.524 1251.3 215 193 186
71.1271 165.325 1247.41 104 70 66
81.9038 174.15 1277.6 254 250 246
64.1985 156.154 1129.51 250 242 238
544.946 288.963 1790.68 216 240 248
16.163 227.703 1189.84 112 74 64
98.0177 277.863 1314.78 143 143 138
98.0177 277.863 1314.78 143 143 138
80.484 252.743 1180.81 134 131 122
15.3882 307.712 1230.1 252 243 231
-9.44004 338.722 1189.15 255 253 249
-29.8601 676.509 1528.03 59 81 74
-886.388 -398.509 1233.26 36 59 50
632.502 -296.129 1599.37 221 222 200
570.247 -292.02 1627.11 217 226 226
486.418 -186.409 1532.98 141 135 126
-768.841 -92.7276 1183.41 114 137 130
484.587 -118.147 1555.88 124 106 106
514.512 -57.405 1601.98 252 249 250
371.581 -55.5108 1632.15 100 103 82
513.165 -44.5235 1563.98 143 130 132
-248.378 -29.9706 1235.35 64 50 34
-33.5724 -17.3557 1142.79 237 213 194
566.724 20.1173 1624.59 255 252 236
87.0395 19.2502 964.47 255 229 209
664.575 48.9806 1715.44 244 241 232
710.031 304.244 2018.31 170 176 184
-51.964 190.355 1205.16 249 254 241
101.178 278.001 1281.35 254 249 237
-93.7302 264.407 1180.53 144 125 116
-22.5438 349.761 1177.38 255 244 230
-3.21808 352.026 1184.62 255 253 240
393.821 -254.131 1701.74 94 103 79
-529.443 -124.018 976.611 132 148 138
669.479 -117.942 1726.75 245 249 236
-1176.93 -114.538 1843.96 147 135 112
-1097.65 -94.3093 1741.93 56 38 17
-701.944 -48.3454 971.81 59 68 63
582.402 -75.432 1716.23 249 246 238
53.6876 -47.4952 1195.87 211 149 116
368.784 -55.1982 1621.47 100 103 82
-45.4705 -11.0626 1137.41 223 209 191
-45.4705 -11.0626 1137.41 223 209 191
483.063 -6.22531 1547.74 51 24 15
620.951 40.8931 1697.79 255 254 235
-37.0259 35.547 1096.88 255 253 255
-37.0259 35.547 1096.88 255 253 255
-58.3259 36.6444 1077.03 248 254 247
569.24 117.204 1646.03 120 101 81
475.547 191.165 1741.56 148 176 172
61.1672 246.176 1252.64 217 188 185
130.033 353.568 1305.15 255 253 245
-27.4776 320.926 1159.32 235 231 232
-26.4526 335.594 1167.9 97 62 59
-6.59628 361.216 1052.81 249 245 229
-758.499 -235.311 1138.8 144 150 144
577.918 -296.691 1613.81 181 208 204
415.07 -242.327 1619.06 10 6 3
548.996 -183.658 1564.14 103 83 80
472.621 -145.191 1523.65 39 15 6
-1312.48 -192.511 2131.03 121 131 123
-133.646 -84.678 1301.78 89 78 72
-133.646 -84.678 1301.78 89 78 72
523.218 -26.9489 1610.65 251 254 253
-148.46 31.2749 1143.36 49 37 28
-17.9015 75.6799 1138.64 250 255 254
-102.377 134.084 1142.06 91 60 44
-2.06932 238.684 1197.16 252 255 254
10.8219 348.056 1299.81 250 255 255
-125.591 378.367 1305.27 89 59 41
20.8376 387.961 1236.25 78 64 58
-16.7386 373.506 1121.08 49 38 36
-877.449 -397.464 1238.16 53 56 46
-250.062 -346.7 1792.61 56 38 25
-362.52 -244.923 1354.82 69 67 64
-872.335 -209.939 1356.77 131 141 131
501.958 -152.971 1542.95 239 238 239
528.637 -22.3201 1335.17 160 162 150
-77.1412 2.97926 1065.36 216 194 172
4.01399 16.5031 1104.24 248 158 125
701.036 36.2558 1751.27 163 166 141
-14.4587 22.5916 1092.68 249 255 255
51.6854 131.974 1205.83 255 242 234
-26.1803 167.411 1135.59 239 190 155
-26.8631 280.513 1159.81 255 249 255
-41.2679 305.461 1151.57 100 73 69
-246.06 -18.2095 1256.61 97 72 52
-101.128 77.8711 1120.7 171 122 95
-101.128 77.8711 1120.7 171 122 95
458.893 200.559 1790.03 98 113 117
458.893 200.559 1790.03 98 113 117
103.082 148.433 1262.95 250 253 246
-976.362 -372.147 1427.45 53 59 53
-222.392 -254.552 1099.55 121 121 113
-914.858 -232.959 1387.56 104 105 93
24.9563 44.6056 1164.11 247 252 255
445.985 -278.361 1599.55 168 134 141
721.309 -332.854 2060.79 68 65 62
-856.151 -202.761 1375.58 123 140 130
587.134 -91.566 1558.36 255 254 250
587.134 -91.566 1558.36 255 254 250
-9.89949 316.8 1180.33 234 232 234
50.9185 -23.6362 1181.99 251 232 211
-222.571 50.956 1261.45 79 58 43
471.695 403.827 1985.91 217 215 204
-372.728 -311.606 1381.46 139 136 134
297.645 -177.629 1552.07 84 76 68
375.246 53.3652 1779.21 25 22 14
-106.693 37.4588 1111.28 66 40 32
442.364 -187.957 1535.88 55 48 46
622.991 -511.95 2137.84 181 179 167
542.277 -60.1395 1472.03 169 155 143
-131.045 220.966 1239 127 85 68
-14.1998 575.889 1532.67 56 54 51
442.769 8.09589 1742.44 67 81 49
442.769 8.09589 1742.44 67 81 49
