-319.212 -574.971 2655.14 21 17 9
-379.248 -370.611 2670.29 75 52 37
368.849 -219.068 1619.66 118 95 94
528.513 -112.38 1711.93 255 255 240
380.222 -56.5366 1605.5 105 61 52
-1455.86 -80.6661 2362.25 171 158 141
445.219 -53.2916 1650.11 253 242 220
397.218 -10.0058 1572.46 253 253 252
-95.9894 104.334 1105.39 176 157 148
-101.264 109.382 1099.21 63 25 11
-172.699 116.925 1141.47 61 10 2
335.833 251.72 1842.16 51 69 71
-158.532 233.756 1223.9 63 21 8
1.75063 221.633 1133.51 254 247 219
39.1651 465.6 1260.59 38 39 42
128.642 572.393 1422.55 247 245 239
42.6294 637.969 1392.28 152 188 173
414.767 -186.574 1586.59 56 45 43
414.767 -186.574 1586.59 56 45 43
-1941.55 -407.159 3637.96 119 118 108
207.485 -175.226 1876.61 29 30 14
406.058 -122.992 1583.49 89 73 69
459.504 -78.2077 1574.79 194 191 157
516.613 -63.288 1714.45 251 249 245
422.629 -57.6944 1613.56 148 138 114
422.629 -57.6944 1613.56 148 138 114
442.028 -21.2057 1659.03 250 233 227
488.433 87.1126 1696.27 255 254 245
-183.871 76.1531 1156.61 65 25 12
375.17 128.96 1836.2 51 31 14
-6.99895 83.5421 1110.02 255 248 247
-81.8833 283.147 1202.53 51 31 26
21.3392 319.317 1219.9 238 215 207
-80.9718 376.346 1265.58 50 27 6
31.0829 495.486 1306.44 31 35 30
-29.4702 477.453 1238.66 36 27 17
266.63 -456.218 2114.81 157 148 136
-1602.3 -516.874 3453.97 72 70 58
268.746 -202.892 1550.98 144 119 119
497.946 -206.644 1677.89 115 115 99
366.318 -171.78 1566.43 14 8 8
363.692 -170.211 1557.05 14 8 8
379.311 -94.2062 1558.16 26 15 7
396.901 -82.8654 1577.88 225 227 218
-241.115 21.3496 1123.25 96 73 57
545.241 65.1675 1809 254 252 255
358.415 79.0252 1706.85 136 100 77
473.684 158.967 1722.02 141 121 97
357.112 240.345 1760.32 161 189 184
71.761 173.628 1235.16 166 129 117
77.4769 193.736 1253.94 135 110 90
-48.926 177.278 1110.68 54 14 9
-63.9779 180.258 1125.07 206 171 159
399.417 332.76 1939.36 102 130 130
386.22 415.775 1975.21 67 84 79
36.5024 246.94 1134.78 254 249 247
-8.38429 374.49 1195.47 252 251 249
-160.004 441.527 1363.29 138 87 64
-60.0138 424.382 1310.43 43 24 11
10.8507 472.385 1237.75 251 248 234
-402.692 -390.716 2755.34 99 73 55
295.568 -171.564 1562.23 21 25 21
-2208.95 -219.938 3175.5 135 144 140
-2299.94 -181.181 3128.35 125 145 132
467.737 33.8302 1673.91 231 228 213
0.74689 58.1261 1136.46 247 255 255
468.446 157.286 1705.09 141 121 97
142.756 210.31 1346.96 251 248 252
34.4224 442.449 1273.49 87 73 64
34.4224 442.449 1273.49 87 73 64
-1484.36 -571.298 3187.74 143 146 138
-1000.31 -450.572 3395.75 41 25 11
-52.1644 36.5944 1064.55 214 193 171
-131.691 71.9666 1087.8 44 29 19
226.464 150.04 1778.29 59 53 45
429.889 213.722 1751.59 232 241 238
95.6556 185.894 1266.28 251 254 255
-6.09294 204.692 1151.51 248 212 181
44.7987 286.355 1228.7 252 255 255
-14.8546 291.524 1169.53 255 251 255
-8.03003 322.753 1173.98 255 253 249
-24.2575 352.708 1172.47 87 48 47
21.4275 367.266 1219.43 253 252 251
-1332.09 -428 3377.73 68 72 68
-1326.45 -365.977 3097.92 65 71 69
-2499.72 -313.177 3562.54 68 78 71
365.216 277.132 1956.93 99 123 132
-84.3524 171.78 1110 75 60 41
-119.154 331.092 1207.2 143 89 62
7.5518 422.997 1227.77 253 251 248
-287.839 -386.47 2630.66 53 41 29
-1299.92 -487.282 3487.39 65 66 62
-1299.92 -487.282 3487.39 65 66 62
343.106 -220.115 1688.02 202 179 174
451.244 -197.179 1596.62 107 91 83
451.244 -197.179 1596.62 107 91 83
-81.0368 115.931 1092.81 175 122 99
-141.303 200.222 1191.83 149 88 60
-141.303 200.222 1191.83 149 88 60
-132.297 271.489 1228.31 139 88 76
-1180.1 -560.678 3317.4 113 115 113
-62.1374 -43.1041 1215.74 43 86 87
346.396 -9.64427 1609.07 60 46 39
231.736 -438.393 2208.64 181 177 161
488.114 54.3844 1700.65 211 213 181
-203.322 197.069 1215.14 80 53 40
252.692 106.002 1794.07 80 70 63
405.751 131.519 1720.2 58 42 44
405.751 131.519 1720.2 58 42 44
75.2096 545.161 1372.97 79 79 74
423.6 -20.3345 1477.9 191 180 170
-221.973 -45.6265 1351.34 140 130 114
265.03 52.8257 1426.78 89 96 63
41.0913 129.059 1294.94 255 243 226
