257.063 -331.776 957.078 69 50 28
498.254 -373.425 1397.37 209 168 151
356.506 -361.611 1501.07 38 43 22
-272.559 -159.957 676.235 55 69 61
-468.717 -254.942 1093.51 125 134 128
-607.519 -553.065 2390.14 176 159 140
-574.135 -558.081 2550.28 95 82 61
-368.313 -185.527 860.024 98 106 99
542.343 -227.103 1357.54 180 177 183
767.027 -196.569 1444.75 174 195 173
479.312 -148.586 1319.35 185 146 134
515.046 -102.156 1397.66 28 13 11
619.987 -99.4018 1405.35 255 247 232
619.987 -99.4018 1405.35 255 247 232
574.296 -28.0619 1426.9 181 173 153
447.537 -3.52938 1139.2 99 91 72
33.9389 -1.30886 1218.12 255 236 208
721.667 57.3493 1547.32 172 189 188
734.05 65.6585 1553.22 235 247 245
618.58 68.8456 1558.7 141 132 119
-47.8992 74.6858 1155.09 249 240 218
599.509 164.802 1635.01 154 176 177
-95.5026 119.073 1139.74 253 238 232
750.344 175.015 1627.16 153 170 167
678.585 185.796 1677.82 154 186 182
-173.206 130.924 1107.69 241 211 170
96.1486 160.931 1209.42 255 240 219
-24.8416 187.426 1209.52 255 251 245
704.951 287.78 1708.82 209 225 225
-107.496 299.504 1187.71 16 5 2
755.274 -306.235 1463.96 61 68 53
-367.074 -224.701 1097.28 77 55 35
556.574 -188.14 1383.21 178 167 147
593.275 -185.223 1421.24 110 88 68
530.079 -150.39 1293.42 127 80 61
808.487 -110.258 1493.09 77 78 72
616.774 -101.119 1420.93 100 81 68
-304.844 -80.34 1139.88 34 16 13
-304.844 -80.34 1139.88 34 16 13
40.2161 -66.5066 1145.94 235 215 188
34.7 -56.1166 1129.93 141 113 69
16.0875 -38.3566 1152.63 255 248 210
-57.4481 -15.5145 1159.41 255 255 243
-57.4481 -15.5145 1159.41 255 255 243
-212.978 1.94355 1066.32 127 96 83
-212.978 1.94355 1066.32 127 96 83
558.033 49.6958 1618.49 48 37 36
659.36 87.6361 1546.82 174 200 197
649.334 108.804 1744.4 56 78 84
595.295 123.652 1714.63 32 51 45
640.977 127.415 1578.18 222 241 252
-209.105 90.133 1073.92 109 80 60
-22.813 115.235 1203.63 251 246 242
-35.5825 119.539 1198.86 255 253 245
55.9047 132.475 1260.37 186 132 106
-181.559 126.286 1101.33 97 85 49
777.561 225.703 1747.6 229 251 252
-145.431 182.337 1124.28 255 249 246
-179.092 197.498 1144.08 250 254 255
-46.1497 239.088 1235.37 122 79 69
-46.1497 239.088 1235.37 122 79 69
-157.117 312.834 1225.5 255 250 240
-280.368 -284.337 911.185 150 150 140
-43.6437 393.165 -1278.12 144 121 86
-746.919 -425.109 1405.9 70 80 73
-161.347 -210.661 733.457 152 152 149
566.577 -266.634 1335.77 151 154 125
510.526 -225.556 1300.93 253 248 248
510.526 -225.556 1300.93 253 248 248
606.901 -239.676 1380.19 252 239 214
-831.267 -159.96 1182.64 2 4 2
746.923 -132.415 1383.19 105 114 100
-82.638 -103.746 1076.75 239 219 202
-99.9542 -92.3292 1050.81 244 234 225
-157.57 -76.8477 1104.23 210 191 161
-201.762 -73.2391 1101.62 127 97 71
-174.139 -73.34 1123.48 221 196 167
492.024 -86.1768 1338.97 119 119 114
-177.928 11.7613 1009.33 184 213 200
-146.874 19.4004 1093.36 194 100 77
-158.704 23.0668 1071.1 255 248 238
596.349 171.649 1665.42 74 95 95
745.811 185.529 1675.14 224 244 247
-193.81 130.552 1110.41 255 254 240
-3.83406 206.331 1245.25 250 252 247
-3.29554 249.884 1415.22 158 143 136
-146.763 217.345 1126.8 248 255 248
-154.524 248.95 1142.41 254 253 254
-99.4422 345.629 1198.6 208 194 176
-126.819 349.901 1166.58 204 189 165
-154.276 408.807 1317.22 12 13 2
-220.736 -229.935 837.212 135 137 131
424.821 -338.785 1388.08 159 156 154
445.798 -329.325 1399.78 4 6 3
-46.8973 -10.5806 47.5744 201 217 206
-46.8973 -10.5806 47.5744 201 217 206
42.4675 40.2895 -198.272 200 205 197
-82.7037 -105.462 1091.07 239 219 202
-39.432 -90.1175 1080.56 74 41 13
765.176 -23.7051 1509.41 254 253 240
33.6968 289.116 1256.94 162 147 111
-38.6519 333.53 1211.74 254 255 251
-141.484 359.804 1249.43 90 69 60
-61.1778 -170.051 522.823 118 122 109
-70.3987 -172.559 539.665 27 14 9
-65.2513 -16.3759 63.0732 128 146 138
-185.046 -63.5112 276.196 82 79 70
-185.046 -63.5112 276.196 82 79 70
-579.928 -107.885 909.144 74 77 65
572.091 -80.625 1411.51 104 97 99
-80.8831 -17.4056 1076.12 236 239 234
-159.461 27.1913 1078.4 248 254 239
-183.282 41.1955 1097.8 243 254 254
-68.3387 116.483 1145.95 252 253 253
-90.5771 128.476 1156.21 250 245 243
-166.371 176.527 1140.02 128 56 39
-228.272 -237.026 729.264 110 101 87
-353.012 -609.174 2044.32 139 137 131
-202.632 -90.3246 313.717 57 61 60
490.736 -125.649 1540.65 82 76 63
643.103 -83.6099 1428.22 242 228 215
643.103 -83.6099 1428.22 242 228 215
-129.375 -29.6608 1069.67 239 144 123
-152.634 -24.3303 1050.46 252 238 239
-216.535 20.7058 1056.62 243 227 217
-64.6504 25.6521 1123.96 159 108 82
-64.6504 25.6521 1123.96 159 108 82
29.3409 27.7438 1176.18 255 240 224
-106.081 58.1044 1118.23 237 211 186
-117.04 143.085 1144.52 243 223 201
-115.241 169.659 1152.32 146 100 90
-115.241 169.659 1152.32 146 100 90
-239.101 -250.026 768.248 110 101 87
785.487 -33.0808 1484.91 148 162 128
-235.408 -4.26295 1067.07 110 65 54
74.4569 110.094 1244.95 247 243 222
-194.097 -170.156 579.692 136 142 137
651.75 -334.855 1319.56 92 89 86
811.684 -106.795 1520.95 152 166 163
-104.759 -5.37762 1114.15 255 246 237
-131.212 18.0839 1070.4 201 117 88
-200.492 63.0183 1085.25 249 252 250
-200.492 63.0183 1085.25 249 252 250
-54.5107 270.026 1209.03 169 186 139
-351.416 -169.981 605.674 76 79 74
-351.416 -169.981 605.674 76 79 74
-404.363 -174.362 940.814 76 57 42
357.935 -287.107 1377.49 54 45 36
769.211 -175.256 1547.17 254 251 249
665.454 104.618 1515.19 217 239 236
575.376 195.163 1716.87 76 66 58
-80.9697 -33.5718 112.54 135 147 140
471.113 -271.518 1347.35 48 44 34
-107.522 -133.614 1103.12 48 77 87
-135.955 656.191 1615.11 191 191 184
-517.219 -189.235 1060.48 69 54 38
744.913 -150.722 1557.66 209 208 191
-16.227 221.053 1457.58 209 212 202
-55.0409 62.5428 1099.57 152 70 58
-55.0409 62.5428 1099.57 152 70 58
