357.504 -140.943 1697.82 150 134 118
367.399 -81.0892 1793.54 22 15 11
-182.025 55.374 1088.16 173 136 124
377.5 175.021 1651.09 238 230 211
321.973 213.662 1672.61 242 247 241
100.385 183.721 1239.15 109 99 83
-130.037 180.498 1154.48 61 14 11
-121.602 276.35 1222.8 56 2 1
-95.5949 288.389 1211.21 173 128 110
-49.2549 314.287 1146.82 192 164 155
9.45427 405.275 1194.88 171 124 106
-149.019 493.991 1326.11 10 2 3
-95.6608 416.006 1080.28 21 14 10
-107.83 544.531 1402.68 9 6 4
63.3693 483.709 1220.14 41 38 38
-429.119 -83.3229 618.65 131 140 136
-384.195 -83.907 632.314 31 37 32
-494.819 -107.298 818.689 129 137 131
402.447 -218.898 1763.54 201 223 220
-77.2586 -13.7786 88.2378 126 137 131
-877.997 -142.685 1350.78 123 141 131
468.046 -142.46 1943.6 136 128 114
370.098 -66.9213 1768.82 254 248 244
-141.542 87.3902 1114.73 35 0 0
436.931 194.38 1935.4 152 136 117
449.769 216.721 1963.42 246 243 225
-136.893 133.54 1147.64 58 9 5
4.9078 137.974 1109.51 130 28 33
108.07 176.937 1271.43 255 253 230
78.3422 149.109 1055.24 255 247 232
403.433 294.873 2023.14 137 156 155
112.748 234.94 1290.6 188 173 155
301.517 362.247 1971.93 90 116 114
16.5563 243.603 1126.12 155 125 107
36.2723 286.616 1170.69 157 133 109
83.1918 338.922 1235.46 226 240 216
2.12815 369.727 1174.36 157 111 81
2.12815 369.727 1174.36 157 111 81
69.2745 463.4 1229.28 254 247 235
-50.4821 502.375 991.158 40 47 43
-567.809 -94.8284 834.782 52 53 45
364.318 -178.405 1774.94 142 147 136
-23.4608 -32.8188 1342.95 169 158 155
-23.4608 -32.8188 1342.95 169 158 155
451.829 2.11685 1965.49 155 138 134
-11.3621 191.133 1113.42 205 177 164
91.3091 225.139 1253.77 250 251 246
134.012 248.211 1345.97 255 251 240
36.2253 380.259 1167.06 254 250 254
-457.708 -344.026 1769.55 27 15 8
-553.942 -89.5072 834.573 117 134 125
54.2471 29.6863 1188.22 215 157 136
466.702 123.062 1966.57 250 249 228
61.4555 117.771 1205.58 232 148 128
371.497 212.429 1800.76 70 54 41
77.1378 153.604 1216.52 246 235 220
62.8926 390.333 1242.32 250 251 252
21.3922 370.39 1169.48 53 20 8
70.5311 404.764 1235.34 119 113 108
120.602 480.618 1333.87 73 73 68
326.755 143.013 2323.64 133 135 105
14.2322 111.054 1106.97 254 251 254
376.233 254.02 1922.04 232 240 234
31.7984 301.595 1159.46 246 252 249
-43.7319 329.835 1163.29 122 115 116
-369.499 -61.4728 597.768 56 65 60
462.142 -33.6402 1949.53 232 228 220
478.133 61.8175 2012.18 242 238 235
7.46117 42.8628 1091.37 178 162 145
-186.982 69.5517 1197.96 155 103 77
-88.2118 83.7366 1093.65 34 16 11
-13.9871 119.363 1096.42 198 145 128
48.5171 437.271 1225.66 252 253 253
-329.906 -233.529 1208.69 20 15 11
-378.046 -83.2151 769.87 43 35 23
-680.629 -100.961 1075.41 58 67 67
-50.5327 -34.9028 1319.95 60 99 113
-30.579 128.557 1101.81 174 123 97
-30.579 128.557 1101.81 174 123 97
16.5678 159.701 1102.24 253 254 255
16.5678 159.701 1102.24 253 254 255
-436.336 -126.804 665.474 19 12 11
-396.225 -102.132 694.325 98 110 103
-388.53 -76.5719 656.186 49 59 55
-109.738 14.9952 1065.93 172 143 116
-100.934 210.617 1145.55 163 97 58
-42.2707 21.2793 1158.27 173 139 118
-74.0666 363.577 1218.76 158 92 48
-552.516 -120.568 845.045 115 127 120
307.881 -116.942 1715.7 53 43 40
-35.2404 212.533 1129.33 75 58 45
-158.986 372.775 1268.06 67 51 44
423.186 -4.92818 1787.35 255 254 253
269.352 -74.8081 1720.72 40 18 12
-120.077 175.738 1129.34 133 86 78
