-479.482 -502.088 1707.71 47 54 53
-772.877 -498.974 2185.84 81 29 17
409.438 -282.319 1308.21 79 73 71
433.173 -282.966 1313.17 38 43 37
390.991 -260.485 1244.45 179 153 153
502.774 -159.764 1077.42 61 34 34
522.545 -39.7175 1224.82 254 245 230
467.848 -36.0617 1141.2 255 248 221
-346.269 -27.7044 1039.76 81 69 60
400.892 -27.3211 1182.64 165 123 110
410.91 -11.502 1375.36 117 112 104
-275.016 20.3841 1022.22 106 30 10
412.357 24.3208 1195.84 33 17 15
471.687 31.3295 1210.83 255 247 246
-189.294 38.9274 1005.06 193 153 139
-202.742 76.658 1012.9 112 89 86
695.415 103.179 1264.14 118 145 117
-189.724 112.014 1038.62 81 36 30
658.85 171.927 1342.24 245 244 238
-46.8352 148.622 1112.36 246 222 202
-80.4299 151.374 1073.53 234 213 183
-80.4299 151.374 1073.53 234 213 183
-152.611 151.15 1034.3 255 242 230
-152.611 151.15 1034.3 255 242 230
506.375 228.579 1513.84 61 73 68
-104.057 175.767 1068.72 254 255 247
-313.727 195.003 1046.4 56 17 1
-184.924 253.347 1114.08 255 250 244
-239.641 265.365 1082.54 185 156 137
-170.642 268.764 1087.73 251 230 214
-125.449 277.72 1119.72 251 254 250
-274.128 308.257 1095.26 240 206 186
-278.632 320.017 1047.74 251 253 249
-76.4439 498.928 1191.26 176 212 201
-210.752 487.846 1143.38 25 25 19
-634.223 -507.651 2004.69 56 52 50
-634.223 -507.651 2004.69 56 52 50
-377.243 -428.823 1779.12 151 141 122
393.046 -251.474 1259.2 126 45 36
584.289 -162.996 1126.27 44 54 55
411.063 -147.577 1107.09 123 114 97
-213.234 -110.186 1188.44 119 125 121
-213.234 -110.186 1188.44 119 125 121
434.446 -91.7746 1146.6 159 157 159
456.679 -78.4388 1122.11 141 135 123
669.611 -37.7907 1217.73 108 134 116
-279.788 53.2778 953.706 255 243 242
-320.602 58.0213 980.854 118 95 98
-190.437 81.116 1040.19 250 224 211
-198.336 89.2735 1022.93 160 83 85
464.58 110.612 1262.57 187 167 149
464.58 110.612 1262.57 187 167 149
-107.525 131.423 1065.84 36 1 0
-107.525 131.423 1065.84 36 1 0
-167.133 141.226 1038.92 61 19 0
-167.133 141.226 1038.92 61 19 0
-39.1426 155.294 1093.35 149 131 111
-315.405 148.437 996.48 68 46 47
-154.951 189.435 1059.79 252 254 239
-81.457 191.695 988.909 23 15 6
-199.052 192.28 1006.79 251 253 248
-89.6175 241.247 1201.73 36 18 11
-228.326 244.927 1073.89 255 248 240
-18.1887 273.079 1151.84 222 191 174
-309.541 259.928 1068.54 253 254 255
-64.7839 303.926 1147.38 54 18 8
714.768 405.765 1507.94 249 248 249
-299.192 329.066 1134.1 250 251 253
-265.703 346.463 1070.52 41 19 8
-280.269 354.255 1086.95 254 251 239
-246.69 369.965 1128.76 34 26 26
-239.58 411.314 1161.4 20 8 10
-96.488 490.445 1136.99 153 190 175
-599.838 -440.878 1547.97 121 124 121
-490.314 -449.639 1718.35 48 48 42
602.064 -183.253 1100.2 177 210 177
1203.66 -267.827 1875.96 72 63 51
1203.66 -267.827 1875.96 72 63 51
604.498 -159.626 1127.47 30 41 34
443.205 -89.2292 1137.34 254 250 249
455.182 -27.2841 1153.72 109 62 46
-204.009 -13.4264 944.352 78 43 27
-187.407 -12.8373 937.404 181 113 88
-296.829 2.15843 1052.28 204 177 149
-296.829 2.15843 1052.28 204 177 149
-250.263 4.82978 840.336 190 172 143
-327.312 13.4397 1029.76 202 184 156
-83.5855 32.3933 1070.42 131 76 53
-83.5855 32.3933 1070.42 131 76 53
576.774 42.8246 1225.55 253 248 236
-294.76 50.5795 974.591 149 116 98
-182.375 65.9953 1043.84 255 240 233
-336.318 68.8352 1013.38 211 210 202
-284.788 94.0943 995.137 251 239 234
-109.589 120.773 1053.73 43 11 2
468.703 204.665 1368.34 140 156 151
516.081 218.935 1413.81 44 34 28
669.327 225.319 1402.07 131 149 148
-326.32 197.532 1051.29 255 255 236
-129.563 281.157 1095.97 137 108 101
-129.563 281.157 1095.97 137 108 101
-287.528 272.14 1055.89 146 108 110
-204.109 276.556 1063.82 186 126 122
-43.9518 303.863 1151.53 195 106 59
-243.232 344.662 1134.22 253 248 238
-714.949 -520.666 1799.25 61 58 60
672.237 -262.941 1194.95 59 83 99
639.281 -198.65 1110.13 188 197 182
561.535 -109.899 1174.59 148 128 110
685.977 -57.9308 1212.67 120 145 111
-199.746 -15.1701 1031.41 147 97 65
-157.579 -7.70034 994.691 79 34 31
598.926 64.0183 1263.34 183 183 172
-307.071 51.0418 969.631 243 237 236
-307.071 51.0418 969.631 243 237 236
-57.5243 160.293 1132.34 191 138 82
-57.5243 160.293 1132.34 191 138 82
589.185 201.72 1345.77 233 253 249
-40.5753 195.969 1132.82 255 251 237
-220.803 218.435 1041.37 132 51 45
604.585 399.44 1496.73 124 154 169
-260.109 391.694 1090.89 83 60 55
-790.531 -494.866 1881.96 63 63 55
-790.531 -494.866 1881.96 63 63 55
489.877 -206.532 1098.11 6 10 9
489.877 -206.532 1098.11 6 10 9
566.625 -51.8022 1170.77 251 252 252
566.625 -51.8022 1170.77 251 252 252
-215.026 -31.6382 994.602 24 18 23
440.187 34.9182 1196.13 235 237 238
440.187 34.9182 1196.13 235 237 238
-208.68 61.6602 1036.23 247 231 224
-346.728 62.5781 969.505 85 59 50
-346.728 62.5781 969.505 85 59 50
702.483 150.131 1372.47 118 114 99
702.483 150.131 1372.47 118 114 99
469.73 199.486 1298.57 66 57 57
-195.368 190.408 1057.13 244 244 225
-239.929 404.397 1163 66 63 62
-650.251 -447.951 1560.36 133 146 140
-512.066 -461.652 1801.13 56 53 43
349.276 -221.544 1205.34 152 149 157
600.788 -65.5932 1181.63 161 159 121
600.788 -65.5932 1181.63 161 159 121
-343.647 87.8748 991.601 231 219 211
-189.196 103.691 1040.18 102 54 43
-179.324 135.348 1050.36 133 83 77
-179.324 135.348 1050.36 133 83 77
-266.08 140.919 1008.32 219 177 138
-90.0023 153.494 1080.53 186 136 115
-241.84 235.556 1057.98 140 103 84
-228.524 293.056 974.111 208 216 208
-548.395 -463.939 1721.03 124 131 125
-484.734 -436.027 1704.06 71 64 56
427.589 -88.8132 1143.7 189 190 187
673.788 -93.0625 1200.59 247 253 249
448.317 -29.1724 1165.21 129 76 64
-177.467 72.092 1043.84 215 203 190
-163.328 172.023 1043.71 112 94 81
-163.328 172.023 1043.71 112 94 81
-143.958 -68.1504 1019.11 45 82 90
559.375 7.91362 1215.56 137 106 95
708.213 110.958 1288.56 116 142 112
-259.572 93.0199 1010.33 188 95 87
-321.588 125.753 1000.88 250 254 254
-321.588 125.753 1000.88 250 254 254
-321.588 125.753 1000.88 250 254 254
-46.83 189.762 1096.01 228 209 190
-220.694 262.066 1107.02 249 231 223
-261.724 -466.42 1876.89 179 156 135
-261.724 -466.42 1876.89 179 156 135
-468.116 -365.339 1669.78 73 60 39
-229.898 71.055 1023.19 248 228 219
507.648 73.6608 1148.84 254 250 236
529.596 334.704 1595.85 95 87 78
23.986 547.886 1406.3 182 182 175
-213.691 -77.0955 1147.79 64 88 89
-192.573 37.7114 1007.94 198 172 160
-496.085 -318.311 1465.58 70 46 38
489.011 -157.078 1055.31 74 47 47
344.506 -125.224 1130.54 62 51 50
493.954 137.249 1475.56 65 53 50
-199.106 146.613 1057.84 238 214 187
