-50.7333 21.6053 -130.933 122 119 116
304.876 -209.324 1718.48 125 129 129
-10.8688 31.6612 1176.92 255 250 235
-16.6197 32.2907 1092.04 255 243 221
-16.6197 32.2907 1092.04 255 243 221
-190.263 142.839 1164.73 71 13 1
-181.112 221.239 1308.32 149 74 33
63.2645 225.844 1284.63 248 255 255
303.065 330.862 1791.19 181 204 203
-51.3649 398.829 1245.27 167 111 96
53.1346 625.468 1359.47 197 216 205
196.181 -131.515 1690.05 161 164 148
202.057 -46.5819 1841.81 122 127 98
331.476 53.3805 1733.49 240 227 222
281.684 128.645 1920.42 138 109 79
-198.53 99.6145 1162.29 56 13 9
324.308 187.307 1803.83 95 79 74
-97.4937 120.887 1089.82 195 173 168
-97.4937 120.887 1089.82 195 173 168
53.2205 198.476 1275.48 150 120 112
-38.7953 182.089 1083.32 250 249 248
83.4917 249.7 1327.83 254 255 242
-183.805 267.217 1202.5 169 115 84
-156.76 361.963 1198.09 68 37 21
-108.615 425.844 1305.59 142 118 97
-164.83 497.139 1283.68 32 29 19
3.69355 573.73 1205.96 41 56 47
593.109 -201.584 935.786 99 105 100
314.494 -161.341 1715.21 153 151 129
321.099 -75.5196 1687 255 247 245
279.959 -60.9747 1558.54 44 22 11
77.6872 -31.9567 1300.07 254 252 230
-70.3817 -23.7256 1311.15 154 135 135
416.366 154.473 1868.02 169 159 137
43.4537 159.412 1227.78 183 135 111
275.674 316.749 2046.35 158 186 178
83.8067 250.744 1331.98 254 255 242
261.546 368.578 1947.27 95 124 125
-92.0363 304.772 1185.59 57 34 29
-13.7724 373.994 1198.12 250 254 254
-16.3414 394.169 1184.27 250 247 247
473.927 -186.921 909.255 127 131 128
218.256 -148.499 1713.93 24 24 21
406.964 128.056 1857.33 246 244 230
-7.32194 131.454 1152.67 252 254 247
-94.3227 328.284 1139.19 152 134 127
9.33366 390.36 1219.6 254 252 251
-72.7187 444.577 1280.37 51 34 29
17.6873 459.913 1253.46 102 82 68
-13.4222 459.21 1167.89 34 26 25
317.453 213.476 1722.22 79 65 48
324.474 255.765 1845.72 245 255 255
391.968 335.867 2046.84 249 253 254
-95.4122 335.523 1161.92 152 134 127
-32.0197 372.468 1156.25 81 57 50
-148.88 468.49 1284.43 95 50 40
420.949 -16.3886 1925.98 250 250 241
420.949 -16.3886 1925.98 250 250 241
-141.485 93.381 1118 52 36 28
-40.1855 117.4 1082.99 253 253 254
-4.72452 443.628 1220.28 253 249 253
-97.2312 -25.6698 1294.5 63 101 111
-146.163 289.364 1186.15 154 110 85
-146.163 289.364 1186.15 154 110 85
-140.316 363.968 1220.88 156 97 70
-5.55284 385.644 1190.83 240 236 237
-165.366 26.5865 1185.62 170 145 116
-152.37 218.43 1152.57 164 96 53
-6.96256 -6.24963 1162.47 68 102 112
-94.6124 28.308 1116.22 172 138 119
146.616 303.002 1435.26 77 74 64
-59.7782 312.912 1138.34 100 55 42
-50.2467 478.602 1314.39 45 34 35
106.03 -107.773 1795.12 73 55 42
-126.192 372.231 1225.67 176 118 80
261.332 -103.956 1654.24 64 50 43
-86.9048 218.132 1119.14 80 65 45
424.019 7.2137 1945.81 255 255 247
21.2549 88.6181 1251.14 255 253 251
