-112.947 -334.566 956.266 26 39 35
-123.884 -221.348 666.715 63 75 70
-205.801 -288.027 884.361 86 90 85
-225.813 -451.45 1677.62 65 66 56
329.919 -207.183 1090.04 157 155 147
347.529 -171.873 997.452 22 24 19
522.947 -159.358 993.609 32 30 32
626.51 -103.892 1029.07 93 115 98
382.686 -81.6159 1076.64 59 37 31
670.578 -77.1809 1066.77 235 241 227
-255.811 -70.9778 1052.1 129 128 123
489.613 -61.3005 1064.3 97 87 65
497.409 -50.4136 1064.28 194 189 164
516.028 -50.5173 1075.3 129 82 58
730.006 -44.1471 1155.46 187 197 179
387.34 -31.1757 1056.37 233 238 228
-249.308 -22.3014 966.146 25 12 7
-270.887 -17.8484 981.298 46 28 20
-283.176 -3.30804 969.402 128 91 69
528.041 -3.51687 1069.93 144 125 124
-191.826 23.4578 976.041 255 247 235
533.829 34.0062 1097.71 250 235 223
-221.803 37.0528 982.175 208 165 149
-163.343 40.4018 1049.48 249 194 182
-271.612 44.8134 955.152 186 103 79
-136.51 106.451 1042.97 255 229 213
571.559 118.895 1155.12 255 255 233
-325.698 109.965 983.172 248 255 254
593.761 177.842 1147.08 127 147 141
-198.663 168.515 1067.21 143 109 92
-103.11 181.136 1005.2 255 228 208
-84.5704 202.532 1078.21 192 148 130
-71.6054 239.146 1069.65 177 124 91
662.84 280.601 1253.17 206 230 226
539.924 281.89 1251.56 103 149 155
-136.325 275.659 1139.3 252 247 248
-275.728 275.56 1079.12 238 208 212
-171.861 279.37 1074.8 80 66 44
-75.9194 290.135 1111.56 232 203 181
-81.8566 299.095 1120.72 67 28 25
-252.751 292.224 1057.52 255 248 238
-282.129 333.445 1093.84 236 230 219
-205.806 -355.265 1077.19 56 68 61
417.283 -284.729 1219.86 160 120 106
330.678 -226.069 1111.82 163 143 151
340.444 -208.884 1096.82 16 17 14
340.444 -208.884 1096.82 16 17 14
506.704 -158.037 1022.9 140 129 116
632.536 -159.681 1051.66 67 84 75
618.476 -138.08 1032.13 70 100 85
366.513 -98.0434 1019.06 102 83 82
600.591 -93.7976 1064.92 127 124 103
381.222 -88.7099 1037.69 89 70 58
372.22 -61.6055 1072.33 147 126 123
403.287 -59.5234 1029.47 63 50 43
462.075 -58.3506 1063.05 210 192 173
651.033 -53.9363 1072.73 121 152 131
651.033 -53.9363 1072.73 121 152 131
686.667 -47.8481 1123.41 223 245 233
-334.987 -43.7911 1058.13 78 66 55
381.057 -42.8341 1039.09 254 249 250
381.057 -42.8341 1039.09 254 249 250
627.324 -44.8819 1112.33 248 248 222
487.554 -14.417 1078.56 120 97 86
-240.312 2.68394 951.878 204 129 99
-179.717 3.50138 950.497 254 235 206
391.549 19.8688 1064.72 60 34 31
391.549 19.8688 1064.72 60 34 31
-106.879 20.8684 984.657 234 205 175
405.259 36.062 1127.73 122 114 106
-240.414 39.0351 977.454 60 20 16
-240.414 39.0351 977.454 60 20 16
513.794 54.1193 1082.49 251 245 230
-346.488 55.0213 963.289 127 108 110
-346.488 55.0213 963.289 127 108 110
441.606 68.4387 1129.61 68 54 61
-219.776 61.1412 983.647 255 251 243
-161.103 63.4349 1043.49 49 14 3
-161.103 63.4349 1043.49 49 14 3
-118.742 81.3238 1010.27 253 240 210
553.699 95.5213 1139.51 156 155 117
452.705 118.206 1391.21 47 46 34
-302.438 87.717 993.067 184 95 91
-134.086 126.455 1026.64 50 18 9
-134.086 126.455 1026.64 50 18 9
-106.695 137.806 1042.89 222 119 88
-102.995 145.043 1029.06 245 227 216
-205.431 154.031 1002.42 250 237 218
-205.431 154.031 1002.42 250 237 218
484.05 243.455 1180.58 80 107 107
695.741 283.44 1311.38 137 164 164
-293.048 248.208 1057.04 129 94 89
-314.436 257.067 1041.6 249 249 249
-19.7506 326.206 1106.93 241 238 217
-361.865 -477.704 1470.85 129 129 125
-361.865 -477.704 1470.85 129 129 125
-60.6679 -713.466 2587.46 169 150 127
486.573 -143.954 987.466 71 60 53
606.383 -161.254 1233.39 193 187 171
620.591 -128.523 1023.65 226 249 237
641.537 -94.74 1049.21 247 254 241
641.537 -94.74 1049.21 247 254 241
-267.597 -95.8633 1130.08 129 119 107
634.241 -80.5292 1025.55 162 185 156
531.333 -72.6433 1052.78 135 100 83
481.395 -61.9414 1026.71 176 171 146
567.804 -64.4261 1092.11 142 138 121
408.843 -57.6803 1059.15 81 55 50
422.129 -50.6604 1066.17 149 154 124
546.226 -35.3064 1086.29 251 241 222
-223.415 -14.0194 943.572 175 121 93
512.337 -4.25412 1083.58 68 48 48
-308.332 -0.568105 976.043 216 196 169
-160.641 14.0677 912.072 94 34 18
-160.641 14.0677 912.072 94 34 18
505.952 37.8231 1101.72 255 240 233
575.325 44.406 1135.36 255 252 245
-133.959 45.495 1002.04 229 217 188
-339.124 47.8778 966.019 219 224 212
-339.124 47.8778 966.019 219 224 212
-361.235 55.0257 923.585 58 35 26
-307.159 67.714 943.398 232 245 231
534.079 95.8527 1146.3 131 133 123
424.084 92.5355 1090.94 60 54 49
-145.557 102.9 1045.46 64 17 11
-139.961 116.056 1040.61 51 11 4
-139.961 116.056 1040.61 51 11 4
-77.4381 149.736 1042.5 198 120 76
-77.4381 149.736 1042.5 198 120 76
-111.64 175.437 1000.16 35 36 13
-347.002 188.79 1042.91 251 255 238
-259.615 234.222 1046.43 86 60 54
578.769 329.561 1403.11 42 67 88
-315.459 270.039 1084.37 146 103 97
-61.4722 291.662 1102.37 203 120 78
-261.881 -331.924 1254.26 76 39 27
362.953 -218.645 1161.64 12 8 6
477.843 -141.526 971.996 94 82 77
639.533 -93.9768 1045.78 247 254 241
487.136 -62.152 1038.18 176 171 146
529.893 -47.4261 1060.57 197 120 103
529.893 -47.4261 1060.57 197 120 103
632.02 -41.1401 1102.73 254 255 249
-243.132 -34.63 972.286 25 12 20
458.161 -19.8454 1062.38 119 66 50
-192.351 -7.37991 969.472 82 39 30
544.032 56.463 1107.89 230 223 199
454.15 74.1695 1118.81 138 142 110
633.751 86.9356 1154.81 253 253 248
633.751 86.9356 1154.81 253 253 248
-358.961 138.102 1016.12 255 254 255
-358.961 138.102 1016.12 255 254 255
609.873 200.204 1197.96 205 232 233
-141.14 327.132 1108.91 138 161 112
-275.686 383.763 1106.76 69 55 46
-328.663 -362.012 1125.69 135 147 140
593.771 -82.1483 1042.11 250 251 235
665.579 9.31222 1066.85 98 110 94
521.717 25.2227 1102.93 81 64 52
738.584 42.3713 1180.04 64 65 59
557.922 60.6545 1093.04 179 183 175
-234.553 58.0389 988.87 249 234 232
-215.522 178.072 1004.08 251 251 238
654.966 267.983 1249.23 152 177 178
-312.124 225.663 1037.64 152 70 60
-206.737 233.501 1070.77 244 251 241
610.386 295.024 1252.42 171 204 201
-305.24 279.3 1062.76 247 243 250
-305.24 279.3 1062.76 247 243 250
585.889 -65.6157 1066.2 146 138 108
585.889 -65.6157 1066.2 146 138 108
-313.915 46.4308 985.797 247 237 227
-203.451 127.761 1008.59 108 61 48
-203.451 127.761 1008.59 108 61 48
-264.816 201.722 1038.58 230 223 206
-265.369 304.744 1048.92 245 244 241
-228.351 -350.58 1143.65 125 133 129
380.141 -90.5536 1089.87 64 51 49
470.06 -72.0288 1049.11 107 85 79
-188.095 165.367 1018.49 132 102 87
641.604 -88.2765 1045.33 207 222 203
-116.653 -18.7272 1101.95 171 155 135
424.375 69.1273 1160.09 53 40 42
-285.759 90.7322 992.292 204 118 98
-201.762 323.926 1098.14 152 176 127
-241.839 365.167 1138.6 58 50 48
-252.823 -412.365 1597.86 86 63 42
543.361 9.41583 1101.83 132 114 111
553.141 -185.263 995.536 63 60 62
-706.441 -142.309 1044.84 125 142 135
584.381 34.6407 1067.48 253 254 251
584.381 34.6407 1067.48 253 254 251
610.918 239.711 1259.84 189 219 215
574.434 -348.07 1332.11 108 148 142
-222.809 35.561 981.44 206 195 173
375.132 -154.488 1130.34 58 53 50
-135.392 267.774 1104.58 253 253 251
524.342 162.332 1397.91 68 57 47
