-376.145 -615.104 2472.99 181 173 146
473.358 -250.708 1097.39 76 52 30
492.722 -208.003 1081.46 239 241 241
392.265 -157.901 1074.62 132 129 115
473.827 -138.705 1083.11 156 148 132
629.891 -120.028 1167.86 145 148 138
339.307 -55.7893 1190.78 45 44 24
401.867 -11.9461 1167.21 197 173 161
-202.235 0.585749 1024.4 255 242 224
526.509 26.2544 1156.18 254 242 230
526.509 26.2544 1156.18 254 242 230
-134.339 25.547 1016.99 137 73 73
432.554 47.0847 1232.64 23 7 3
-188.032 42.7829 1004.1 175 118 102
-212.826 48.4386 950.908 255 250 243
590.963 98.105 1213.09 255 255 221
-135.791 88.729 1037.58 255 222 205
587.09 129.494 1252.52 189 184 156
-104.193 137.918 1057.65 241 223 205
-316.45 213.247 973.82 204 212 200
-316.45 213.247 973.82 204 212 200
483.546 291.421 1267.83 159 185 203
656.95 323.391 1412.93 214 240 247
656.95 323.391 1412.93 214 240 247
-329.453 236.673 1039.32 252 251 250
-239.728 -429.662 1256.96 40 51 44
-395.166 -343.642 1079.01 52 55 41
-565.451 -451.121 1791.66 106 91 75
-418.09 -569.663 2352.57 162 153 129
-418.09 -569.663 2352.57 162 153 129
567.785 -283.627 1187.31 39 41 51
666.154 -166.451 1127.83 190 196 178
633.172 -139.833 1113.8 238 255 237
-270.724 -141.544 1192.29 147 143 130
498.81 -102.242 1110.98 90 70 51
498.81 -102.242 1110.98 90 70 51
597.098 -102.43 1130.19 123 123 98
381.86 -97.6964 1084.55 89 67 60
457.62 -66.6702 1107.54 178 166 139
652.669 -52.1935 1153.07 243 255 246
652.669 -52.1935 1153.07 243 255 246
-267.916 -31.245 989.805 35 27 20
-103.681 9.10158 1006.67 252 230 200
370.352 13.6645 1102.5 55 35 36
564.048 36.1726 1190.34 255 247 234
-140.009 50.8429 1040.01 172 77 50
424.564 76.4347 1175.41 131 127 106
-152.075 69.7682 1054.43 65 10 3
-145.994 85.3894 1049.57 68 16 8
-370.87 81.4641 977.868 255 249 243
477.049 108.555 1211.5 212 215 184
477.049 108.555 1211.5 212 215 184
-331.123 100.689 989.915 243 254 254
-216.104 121.478 1044.43 107 57 47
-73.4586 135.078 1089.5 242 235 221
567.03 244.686 1622.29 151 156 154
676.635 231.016 1394.56 95 117 119
-98.4479 187.399 946.352 59 40 29
-110.958 238.132 1159.61 47 28 16
-105.71 259.25 1172.65 55 30 16
-180.488 245.695 1101.55 250 231 222
-81.0604 257.872 1120.35 174 108 79
667.422 351.23 1431.16 225 243 245
-161.394 253.648 1016.87 106 86 75
490.739 357.312 1350 194 198 193
-269.329 297.005 1095.71 241 216 198
-264.603 319.75 1102.87 255 254 244
-264.603 319.75 1102.87 255 254 244
-318.162 321.024 1104.57 253 253 255
-260.881 350.917 1097.92 253 251 246
-31.6335 464.211 1310.81 166 161 152
-273.686 519.459 1287.5 185 185 173
-319.156 -594.243 2050.78 115 123 120
443.952 -272.468 1213.82 200 168 160
479.13 -254.235 1138.69 75 40 30
401.882 -196.687 1081.25 134 129 106
1307.86 -306.034 1871.18 65 63 48
1307.86 -306.034 1871.18 65 63 48
653.409 -103.483 1147.8 246 255 237
653.409 -103.483 1147.8 246 255 237
-212.002 -89.7705 1002.75 109 97 98
372.287 -90.0623 1096.07 38 18 14
502.381 -74.5795 1129.98 163 169 138
469.65 -67.9308 1083.1 111 98 75
415.825 -68.3452 1122.74 88 60 57
423.521 -60.0653 1119.73 165 167 139
496.361 -50.7379 1138.55 119 91 70
-241.233 -35.6955 960.977 59 24 19
438.095 -34.7876 1115.84 133 58 48
-226.576 -16.7069 959.454 251 208 190
-182.399 0.485687 977.644 232 166 140
-107.998 18.4408 1002.66 136 86 45
-107.998 18.4408 1002.66 136 86 45
-110.108 26.1334 1030.27 143 84 45
-142.627 30.2362 1023.25 154 77 58
-329.668 36.5701 982.705 126 107 80
-213.502 42.5235 1008.24 204 131 111
-207.799 51.4856 1023.71 255 242 229
440.172 86.7803 1193.31 93 81 71
-107.292 76.1106 1035.4 162 91 68
-107.292 76.1106 1035.4 162 91 68
-303.42 76.6856 1001.08 165 80 58
460.715 119.05 1221.88 145 146 124
-135.116 115.788 1045.32 57 16 10
-135.116 115.788 1045.32 57 16 10
479.487 175.173 1229.3 123 123 114
-354.499 183.463 1050.14 251 251 237
531.083 245.292 1369.15 35 61 92
531.083 245.292 1369.15 35 61 92
554.661 329 1479.77 42 71 83
-302.655 244.408 1008.82 88 43 41
-237.205 270.33 1094.77 197 139 141
-106.864 395.468 1273.1 255 252 245
-285.537 442.067 1228.26 47 46 46
-284.822 449.422 1205.89 160 159 148
-523.02 -403.582 1365.64 76 74 60
-454.611 -410.838 1588.26 68 35 20
640.427 -197.579 1106.61 104 135 105
608.458 -92.1746 1139.89 253 254 232
-244.62 -48.848 998.184 14 11 9
605.466 -47.8598 1135.7 252 254 251
-227.299 -28.4211 1000.72 190 119 91
448.806 -17.8105 1175.53 121 109 91
454.887 -17.4245 1143.57 249 247 236
454.887 -17.4245 1143.57 249 247 236
-65.5516 176.096 1077.57 254 255 239
655.182 274.214 1368.64 150 176 176
624.98 372.236 1411.78 189 222 217
-148.058 321.831 1108.27 137 157 111
-300.664 397.458 1155.18 67 57 42
556.631 -59.1812 1139.86 254 253 249
-375.076 9.43365 932.875 186 163 136
-375.076 9.43365 932.875 186 163 136
424.239 27.437 1168.01 251 253 249
-232.047 46.0165 996.595 237 226 217
590.666 58.3596 1236.4 176 174 163
-373.798 47.4424 957.781 78 52 45
-373.798 47.4424 957.781 78 52 45
-232.056 182.748 1084.02 255 254 245
-318.644 219.237 1038.98 134 58 43
567.549 312.749 1396.39 171 200 197
-313.671 273.004 1061.2 229 246 234
-254.751 367.21 1102.94 69 66 65
-540.935 -460.299 1443.54 131 147 138
631.061 -285.417 1228.26 142 193 184
-74.7669 -17.4032 73.8933 80 89 79
601.734 -73.3101 1165.78 156 155 117
601.734 -73.3101 1165.78 156 155 117
575.94 102.018 1241.33 227 227 212
-219.135 91.7678 1043.89 130 82 74
-253.046 113.63 995.035 223 191 170
-301.403 129.424 1024.76 223 176 139
-163.118 162.61 1066.76 245 230 217
-268.129 218.172 1045.44 183 135 123
-325.006 -101.194 470.731 72 81 72
655.433 -98.9987 1143.75 246 253 245
-186.791 -495.555 1540.64 99 73 59
-175.372 -85.2577 1046.69 43 82 88
-290.924 79.9465 1012.16 195 105 85
-349.236 109.504 990.949 254 253 254
-349.236 109.504 990.949 254 253 254
-128.833 236.415 1108.59 253 255 254
-248.427 245.565 1096.67 253 236 234
-434.156 -456.955 1815.83 81 59 37
680.809 101.87 1218.43 115 141 110
619.239 -214.714 1071.22 120 153 117
-268.247 -129.438 1445.43 63 89 94
578.285 29.5515 1134.88 255 254 253
578.285 29.5515 1134.88 255 254 253
617.237 245.809 1384.16 196 226 222
14.5372 546.065 1464.32 183 183 173
-485.696 -165.754 688.475 68 75 71
-228.104 -96.066 1114.75 76 86 85
560.297 -192.176 1175.65 87 72 72
-161.258 286.999 1219.2 233 231 220
505.613 138.555 1491.87 64 54 46
