109.268 -143.878 1095.98 174 159 146
214.942 -121.23 1029.89 240 211 198
110.902 -111.037 1069.78 121 113 117
157.484 -102.123 1020.33 223 215 201
-365.388 -47.9405 1167.11 125 103 87
-363.652 -22.5583 1124.17 43 21 7
214.071 -18.3686 942.564 210 196 179
235.831 -15.5373 926.14 228 215 204
235.831 -15.5373 926.14 228 215 204
362.421 25.1471 940.381 246 248 227
125.417 27.371 930.74 92 58 47
-536.098 46.0258 1040.76 178 129 117
-356.344 46.3832 1102.88 49 42 39
-432.21 67.5936 1019.02 255 226 205
-420.096 92.999 1000.94 77 31 23
-420.096 92.999 1000.94 77 31 23
106.784 92.6735 983.475 176 158 127
-394.307 122.724 1042.49 252 234 220
137.116 121.204 1018.92 98 79 72
266.504 129.591 1038.07 252 233 215
331.831 133.16 973.423 3 13 5
-296.229 204.525 1277.64 154 120 109
-470.397 184.946 1075.91 109 76 59
-592.898 211.94 1085.61 107 90 69
323.801 238.549 1110.04 236 236 200
-377.997 232.438 1051.98 93 66 47
-377.997 232.438 1051.98 93 66 47
-585.389 255.16 1093.66 231 244 231
228.824 277.937 1108.13 187 169 144
-555.458 327.425 1175.06 227 183 164
-318.826 345.246 1119.98 254 247 221
272.196 384.188 1227.15 211 243 244
-548.297 367.269 1166.29 24 24 17
372.21 407.058 1214.89 140 156 152
372.21 407.058 1214.89 140 156 152
449.326 451.523 1259.75 207 216 219
377.991 460.793 1259.85 100 112 119
82.1552 -91.6489 1043.6 43 39 33
-405.673 -84.911 1182.69 69 65 55
-405.673 -84.911 1182.69 69 65 55
284.246 -57.6647 912.222 226 233 236
270.784 -29.6185 934.51 153 128 116
-364.976 -31.6357 1115.41 122 104 90
-364.976 -31.6357 1115.41 122 104 90
-364.976 -31.6357 1115.41 122 104 90
240.216 -19.3933 916.323 72 55 55
-366.622 -14.7685 1054.21 133 122 109
-367.931 -13.045 1142.52 161 141 125
208.615 -11.0331 920.574 66 55 44
208.615 -11.0331 920.574 66 55 44
247.427 -9.14352 983.438 75 67 56
262.3 11.4099 960.993 78 56 54
299.436 27.9237 944.499 163 159 141
299.436 27.9237 944.499 163 159 141
206.348 43.0018 998.858 105 68 56
-371.318 55.1767 1090.25 165 162 147
298.138 53.0554 968.856 137 123 84
141.159 96.3765 996.28 120 65 51
-447.513 99.2028 1009.03 202 175 158
-447.513 99.2028 1009.03 202 175 158
376.467 109.441 1020.87 221 227 212
-404.878 111.888 1024.79 177 113 94
-559.361 131.65 1033.72 254 243 229
-367.966 142.006 1067.58 247 230 209
-307.733 208.095 1285.78 50 25 16
392.474 172.764 1041.77 203 211 193
207.608 186.308 1060.97 218 206 175
392.143 230.312 1071.1 106 127 109
348.927 251.766 1072.78 255 255 236
355.993 255.638 1066.97 179 176 154
362.531 274.39 1105.61 246 248 240
-547.318 286.099 1132.74 255 253 248
304.32 296.538 1110.79 162 148 125
442.923 346.004 1232.26 137 152 148
-510.439 351.886 1171.4 255 255 235
254.542 367.473 1216.98 70 93 99
254.542 367.473 1216.98 70 93 99
-334.389 329.347 1039.62 250 255 228
446.251 407.312 1263.87 185 211 209
-294.944 379.2 1125.58 255 254 237
318.447 458.429 1302.76 123 162 174
318.447 458.429 1302.76 123 162 174
384.197 481.216 1224.45 143 163 155
384.197 481.216 1224.45 143 163 155
280.057 -112.152 973.252 48 62 56
162.52 -115.868 1051.05 69 20 14
209.044 -107.818 1011.13 96 68 78
-407.485 -25.8643 1020.46 55 77 82
-348.234 8.45047 1265.46 38 38 32
246.823 37.0302 942.352 98 78 62
128.505 38.1677 977.12 251 249 246
363.088 58.0281 1002.13 248 252 248
363.088 58.0281 1002.13 248 252 248
115.358 64.0724 987.392 88 61 58
126.444 73.2924 995.452 180 177 147
260.647 97.4742 1066.05 210 137 105
-586.297 105.159 1045.87 255 248 242
156.333 115.804 1011.49 250 255 254
-540.661 133.704 1062.76 191 136 117
227.637 135.126 1063.43 68 44 42
199.362 160.939 1032.25 82 50 43
374.57 165.165 1037.18 106 118 99
214.058 171.429 1052.28 253 237 223
247.981 172.565 1022.53 105 71 58
400.566 219.299 1035.61 41 43 28
178.203 239.113 1074.58 211 208 180
178.203 239.113 1074.58 211 208 180
-372.734 233.736 1019.12 253 253 246
-274.997 328.098 1296.51 171 164 150
-277.78 351.941 1312.74 23 21 17
183.446 305.24 1108.21 141 130 120
441.321 409.563 1234.58 130 150 151
-308.839 410.443 1236.98 62 58 48
433.031 437.534 1239.99 68 89 99
-132.969 -547.323 1910.57 90 48 34
276.484 -142.632 1019.83 43 82 80
261.445 -131.502 1005.67 180 173 164
321.158 -27.0048 930.426 111 145 112
276.164 -18.8122 944.714 71 58 66
333.231 2.68985 935.378 180 188 181
-325.575 14.0075 1233.21 175 168 156
104.875 27.5728 981.509 253 254 255
87.645 33.7688 984.349 102 80 81
-461.627 44.1961 1012.81 104 31 25
-623.646 50.5791 994.716 226 217 198
242.782 65.3074 985.647 126 104 76
-496.196 83.6643 1006.99 154 127 116
189.61 87.7099 971.581 127 94 76
344.537 88.9612 923.62 112 145 105
168.173 106.3 1002.51 153 68 55
249.648 109.809 1036.59 222 224 214
158.086 117.046 1020 250 255 254
114.929 209.671 908.819 83 80 71
-575.849 252.035 1096.86 144 105 89
-575.849 252.035 1096.86 144 105 89
-308.644 410.075 1236.92 62 58 48
406.559 494.865 1242.86 200 228 227
411.754 547.96 1290.82 247 250 248
-254.005 -580.782 1771.22 91 84 80
-254.005 -580.782 1771.22 91 84 80
209.651 -124.803 1025.91 204 179 164
338.365 -31.9757 921.954 108 143 106
146.359 -0.451981 953.17 129 134 109
306.545 62.9128 966.595 255 253 226
-489.183 99.0104 1012.7 253 251 252
-491.708 145.801 1074.4 163 118 96
129.306 159.123 1056.89 231 225 226
225.176 159.232 1037.08 99 72 65
-444.955 161.377 992.577 127 96 80
-332.083 258.314 1137.74 117 88 76
-565.972 267.862 1089.66 255 254 254
189.378 -72.6286 929.154 42 33 35
-527.446 81.0389 990.791 232 169 145
289.392 79.509 965.198 150 138 108
-554.841 117.067 1039.41 200 134 127
-391.174 160.099 1056.97 250 248 251
-391.174 160.099 1056.97 250 248 251
169.712 169.862 1041.05 134 109 108
-357.565 8.94493 1114.14 144 133 121
-344.911 15.0481 1204.23 67 67 62
-349.282 60.1458 1207.33 163 143 123
-498.798 100.483 980.998 250 253 251
-367.613 321.507 1071.53 253 255 254
-379.992 66.509 975.469 229 199 161
-520.502 106.209 1028.86 253 253 251
-345.611 239.603 1087.1 253 246 236
-42.7014 -438.426 1566.98 97 69 49
-365.565 -51.6312 1176.38 84 70 56
-410.1 21.303 998.826 232 215 192
357.255 63.3778 969.714 231 236 221
-366.145 167.828 1048.28 237 193 152
-479.486 -359.106 1238.44 87 95 90
340.062 -55.7873 926.939 156 169 129
380.851 187.667 1004.31 68 83 75
197.63 308.599 1179.6 87 67 64
197.63 308.599 1179.6 87 67 64
308.39 372.653 1162.31 199 225 223
310.533 174.328 1026.58 253 255 251
310.533 174.328 1026.58 253 255 251
-335.383 145.168 1172.96 86 64 52
-381.394 289.8 1081.95 250 254 255
-293.394 454.44 1269.38 60 61 62
159.979 -27.9422 873.434 97 68 64
