-317.455 -271.167 935.393 105 103 95
-317.455 -271.167 935.393 105 103 95
-380.339 -117.528 591.577 134 148 138
654.789 -274.946 1709.44 195 211 192
539.526 -213.005 1562.27 102 90 69
361.25 -203.172 1514.84 20 10 6
-1236.95 -229.742 2547.39 54 49 29
-1294.27 -199.183 2262.73 162 151 131
-893.906 -96.3527 1453.59 152 138 112
433.684 -28.1663 1697.83 121 111 95
554.342 -20.8297 1635.94 255 246 233
-187.097 10.7741 1098.15 86 56 41
565.509 34.2253 1651.11 158 160 141
565.509 34.2253 1651.11 158 160 141
48.0413 26.7902 1274.47 227 192 177
48.0413 26.7902 1274.47 227 192 177
-82.7647 35.6502 1094.92 112 114 84
100.643 56.6625 1307.35 255 244 218
653.85 101.047 1804.11 159 139 105
-150.571 66.4152 1122.61 134 109 93
628.707 103.782 1722.17 238 234 215
550.057 149.07 1721.39 122 113 91
532.696 156.034 1752.73 38 29 15
114.674 144.449 1316.23 253 233 207
-85.7007 136.869 1117.35 89 63 50
-117.874 140.64 1057.27 56 35 14
357.829 205.059 1245.28 60 98 109
539.196 304.517 1852.69 217 251 255
539.196 304.517 1852.69 217 251 255
4.12121 301.49 1259.51 242 250 231
-57.2021 322.099 1070.16 254 252 226
-20.8526 377.419 1249.42 254 253 250
-879.393 -441.785 1354.76 133 148 138
-261.95 -228.429 742.715 104 106 100
675.404 -338.203 1759.68 129 128 122
504.027 -298.765 1685.71 111 83 82
-658.486 -193.044 1132.44 59 64 51
470.924 -185.422 1550.04 129 123 99
-826.649 -125.446 1093.92 118 146 132
-1692.38 -253.465 2462.83 121 138 136
-1757.45 -257.444 2527.65 33 47 44
-452.17 -50.1881 584.34 26 38 31
534.673 -110.495 1648.49 135 129 103
550.225 -101.976 1667.03 243 235 209
-536.786 -45.4197 839.303 160 156 133
-714.322 -55.3928 1068.74 81 83 61
-833.626 -58.7405 1125.41 126 141 126
602.646 -71.6785 1777.86 130 113 115
521.134 -1.69217 1731.92 26 13 10
-117.898 10.715 1082.7 243 220 190
660.641 55.2101 1753.2 251 250 223
-56.8628 50.2988 1111.99 255 253 246
-56.8628 50.2988 1111.99 255 253 246
-111.955 55.2794 1052.73 91 11 6
106.455 138.869 1315.99 210 163 139
106.455 138.869 1315.99 210 163 139
-108.787 139.126 1117.63 54 31 23
-98.0399 153.829 1086.76 75 57 49
-93.3545 199.878 1152.31 137 110 98
531.183 343.046 1839.38 153 183 179
-92.2009 251.838 1176.99 62 42 37
93.3869 362.171 1362.02 175 158 117
-252.157 -106.599 319.769 43 56 50
-607.052 -289.528 892.355 156 158 148
-607.052 -289.528 892.355 156 158 148
503.172 -313.545 1700.6 167 182 186
-52.3359 -15.0111 79.9334 150 129 102
-392.731 -103.008 725.088 139 150 142
668.797 -167.848 1714.28 253 255 249
-830.47 -97.61 1302.93 137 126 106
-855.318 -90.7671 1363.79 68 55 42
611.123 -107.692 1628.24 252 253 244
515.919 -65.6845 1588.83 235 228 227
42.8775 -39.7582 1190.28 120 69 56
498.02 -23.4047 1603.13 254 252 252
498.02 -23.4047 1603.13 254 252 252
456.013 -14.8229 1575.79 160 147 141
-79.9113 -9.87146 1125.66 227 208 185
-79.9113 -9.87146 1125.66 227 208 185
-186.145 27.7279 1147.13 64 40 31
601.466 46.2913 1701.84 253 250 241
-94.9884 38.6323 1100.62 250 252 251
577.654 127.838 1735.61 122 103 87
516.581 149.511 1701.64 50 33 18
447.165 252.566 1718.14 83 111 106
-31.4376 226.162 1214.85 134 93 90
-63.7015 327.819 1171.33 249 252 252
-44.1271 441.762 1274.26 242 233 215
389.616 -239.713 1606.19 25 13 12
622.452 -205.81 1657.34 91 93 84
531.125 -181.605 1575.95 97 73 65
-756.024 -52.4434 1104.69 38 48 35
697.634 81.9078 1881.48 145 137 110
697.634 81.9078 1881.48 145 137 110
-92.0138 83.6855 1105.17 186 112 114
590.15 336.115 1832.87 238 253 246
450.59 331.956 1796.37 76 83 79
12.1499 360.935 1251.19 169 185 155
-17.0416 395.38 1250.63 79 71 66
-507.678 -192.544 744.13 147 155 148
-601.633 -198.621 909.759 142 153 145
-740.277 -196.319 1163.1 140 148 138
506.898 -157.013 1623.68 244 241 243
-29.2689 18.2469 1133.78 245 153 123
-48.8707 24.0692 1112.4 254 252 255
-48.8707 24.0692 1112.4 254 252 255
751.559 45.0884 1922.69 163 168 134
-73.2051 89.9778 1124.51 251 250 255
-5.80366 147.929 1204.06 251 245 227
40.2281 156.458 1257.48 139 114 91
-180.822 230.448 1308.12 129 91 72
-180.822 230.448 1308.12 129 91 72
-24.1965 221.573 1178.96 159 115 104
-66.0371 231.033 1165.1 169 68 53
-71.9466 253.113 1156.99 249 249 253
-64.8873 287.272 1176.23 254 253 254
-79.6323 315.427 1186.15 94 72 69
-31.5204 330.885 1224.88 247 255 255
-56.6782 412.21 1230.73 45 27 20
-551.468 -249.991 765.117 52 58 55
-555.677 -213.863 880.482 62 65 57
-566.743 -190.159 830.833 77 77 68
-540.262 -182.616 1077.91 91 97 92
-114.709 4.4119 1092.51 202 180 160
-139.56 79.7418 1139.13 166 116 93
-139.56 79.7418 1139.13 166 116 93
67.5058 151.763 1257.13 255 254 255
119.716 164.055 1258.37 252 252 245
-614.856 -276.108 897.336 118 135 124
-664.175 -265.178 972.874 17 16 12
-585.203 -224.833 880.696 123 137 128
-189.752 -231.546 963.541 119 120 109
-641.789 -208.973 1063.95 95 97 89
-723.657 -200.889 1106.89 88 92 82
614.083 -277.136 1691.53 95 88 82
614.083 -277.136 1691.53 95 88 82
-91.7634 113.804 1111.86 252 251 249
-46.2676 384.001 1228.56 253 250 248
-530.407 -174.397 817.551 124 143 133
382.116 -252.02 1444.97 174 153 145
-647.924 -168.116 1046.39 128 140 135
-690.686 -163.909 1191.14 85 74 63
-690.686 -163.909 1191.14 85 74 63
-690.686 -163.909 1191.14 85 74 63
77.1763 -74.9216 1253.71 228 195 165
-8.01421 48.0422 1209.06 245 251 246
555.071 176.293 1704.12 246 255 254
-147.931 295.053 1259.38 124 81 51
-49.055 329.292 1214.59 252 252 250
417.585 -55.5475 1558.73 58 43 36
-127.658 161.843 1158.35 78 60 41
469.008 321.562 1999.38 80 66 54
-245.035 -256.927 874.94 30 21 15
-300.286 -266.062 1131.14 136 137 133
302.62 -194.191 1675.72 69 64 51
-1066.32 -154.709 1865.8 121 111 86
-1066.32 -154.709 1865.8 121 111 86
78.5936 118.979 1131.91 198 179 158
424.3 -188.29 1548.73 50 45 37
-189.245 61.7866 1169.17 156 126 107
463.974 10.7194 1913.59 70 74 48
