367.62 -213.299 1708.22 117 100 97
388.836 -170.788 1579.8 68 59 49
-1594.63 2.8296 2222.24 98 85 65
483.27 67.0543 1754.07 200 207 189
-39.6258 11.7048 199.381 155 117 106
422.316 273.309 1800.73 227 255 255
15.5152 310.452 1158.91 254 253 250
32.4433 466.16 1216.95 5 6 8
-156.307 697.755 1834.24 212 204 193
111.627 552.955 1330.46 253 252 243
-1171.98 -285.263 1976.01 113 110 101
-1171.98 -285.263 1976.01 113 110 101
467.467 -189.387 1658.22 104 104 87
172.03 -145.173 1771.28 31 27 16
363.187 -77.9146 1571.29 46 19 16
431.208 -63.3743 1542.72 188 185 156
466.138 -55.7173 1685.84 255 249 227
400.877 -22.8624 1606.49 172 131 117
400.877 -22.8624 1606.49 172 131 117
383.266 1.90989 1642.64 242 229 227
383.266 1.90989 1642.64 242 229 227
-1771.88 61.6068 2382.38 75 81 56
-38.1199 187.908 1108.48 170 121 101
424.207 327.676 1776.43 247 255 249
-50.754 199.638 1062.04 69 50 38
-158.824 234.164 1084.71 170 120 102
20.2657 467.353 1185 43 47 51
95.0854 561.853 1320.18 45 43 36
102.019 555.775 1297.02 237 235 227
-848.725 -354.974 1917.57 5 0 0
-970.065 -327.229 1985.8 154 154 145
-849.349 -262.823 2062.61 138 139 136
-745.781 -178.963 1584.9 137 145 141
370.687 -65.5953 1558.01 223 221 218
397.657 34.9344 1622.97 255 249 247
546.764 84.0577 1882.18 253 254 250
334.42 97.2861 1684.23 134 99 81
503.946 109.497 1819.55 254 254 238
446.862 171.878 1693.6 143 120 99
433.975 213.658 1790.99 34 23 10
329.847 253.122 1719.7 163 192 188
59.6447 185.59 1203.51 147 115 106
347.477 323.436 1784.52 94 124 122
439.722 402.781 1838.65 165 190 193
-88.4841 324.251 1197.85 63 43 37
-16.6825 377.683 1146.67 252 254 252
-64.045 407.689 1191.51 45 29 27
2.07591 462.154 1160.4 255 252 238
-1371.94 -482.502 1868.92 80 86 81
-1371.94 -482.502 1868.92 80 86 81
-1039.07 -350.541 2132.67 154 154 145
-643.996 -154.272 1360.19 137 145 141
286.989 -161.254 1619.2 20 16 13
380.224 -86.3578 1568.81 254 254 247
4.44777 65.968 1113.06 240 170 135
4.44777 65.968 1113.06 240 170 135
-12.3501 126.195 1118.19 247 254 248
416.614 204.902 1725.7 67 52 37
424.038 238.1 1804.19 223 234 232
339.087 405.617 1840.87 87 97 90
-19.3786 276.128 1124.74 178 91 70
25.0226 361.442 1182.03 120 93 77
22.9067 436.988 1199.11 97 81 74
22.9067 436.988 1199.11 97 81 74
-1097.63 -152.52 1807.06 136 145 139
35.2815 -28.7848 1181.78 82 126 136
-60.5241 50.7291 1028.26 210 195 170
-142.997 89.8726 1098.12 43 31 29
82.2999 197.534 1232.23 247 253 255
130.524 227.539 1342.95 245 248 241
-16.0917 213.087 1102.2 244 203 170
33.4194 273.165 1171.05 253 253 252
31.8076 291.704 1169.1 254 252 249
31.8076 291.704 1169.1 254 252 249
-23.5165 296.531 1113.02 254 252 255
-17.6002 326.736 1122.71 252 254 252
-31.9995 357.25 1127.4 73 39 40
11.5013 374.114 1179.54 253 255 255
-288.647 -448.769 2180.24 54 41 35
-694.849 -264.76 2203.82 54 39 26
-884.592 -238.361 2130.83 67 75 71
-928.443 -211.626 2061.3 67 75 71
-145.521 60.4515 1082.87 91 65 53
19.5171 102.847 1128.84 255 254 252
195.534 161.026 1683.34 61 46 36
-51.17 114.046 1046.9 254 252 251
314.604 273.23 1798.6 104 121 136
-95.8722 193.95 1133.66 67 47 27
-1.60918 422.086 1166.78 254 255 254
-293.856 -315.799 2329.81 53 42 36
-926.026 -294.971 2353.33 73 67 64
-926.026 -294.971 2353.33 73 67 64
448.543 -191.852 1675.27 116 107 101
-89.8441 130.994 1077.69 175 120 102
-43.4987 159.888 1063.61 255 254 248
-146.444 208.648 1135.59 154 87 55
-146.444 208.648 1135.59 154 87 55
-137.032 272.545 1159.9 139 86 70
-137.032 272.545 1159.9 139 86 70
-741.317 -303.114 1960.81 114 118 113
314.722 6.31691 1550.38 62 47 43
193.052 -416.214 2197.33 180 175 163
90.5369 -22.9145 1305.73 211 182 159
-96.1325 85.8746 1040.02 55 32 28
220.569 119.638 1703.71 103 105 100
364.142 140.493 1624.13 47 39 34
62.7522 529.941 1287.8 83 83 84
467.208 -7.92616 1688.27 250 246 237
227.377 64.683 1313.74 78 91 59
227.377 64.683 1313.74 78 91 59
26.9036 140.225 1240.9 255 245 224
-152.233 156.189 1075.32 157 116 95
