651.612 -309.222 1691.25 109 114 111
-232.415 -138.517 755.104 152 159 150
507.263 -280.482 1666.39 104 92 88
528.767 -263.54 1640.28 69 74 75
661.704 -235.75 1705.14 233 244 238
579.273 -188.598 1653.77 91 77 64
469.758 -120.884 1590.81 38 16 7
486.389 -110.12 1645.73 194 175 171
37.1516 -66.5125 1259.25 32 64 72
125.711 -52.8851 1278.12 245 219 171
400.933 -31.8076 1733.89 30 26 8
53.3982 62.2543 1250.24 255 249 242
22.678 89.2444 1187.88 255 247 232
22.678 89.2444 1187.88 255 247 232
-4.12573 98.7421 1205.17 180 112 100
-4.12573 98.7421 1205.17 180 112 100
472.659 156.258 1814.49 9 16 9
605.884 235.806 1923.73 221 244 248
-83.5839 153.179 1162.07 216 183 171
-83.5839 153.179 1162.07 216 183 171
73.8176 176.988 1282.69 113 84 63
662.129 301.24 1915.73 140 147 143
688.998 329.3 1981.07 246 254 251
70.1735 243.841 1100.06 135 133 124
70.1735 243.841 1100.06 135 133 124
16.3321 323.57 1262.83 249 235 221
-9.2675 356.633 1226.75 252 248 236
-21.4584 374.278 1238.88 255 248 229
-21.4584 374.278 1238.88 255 248 229
-21.7689 408.355 1258.82 48 33 19
6.92307 446.001 1260.3 16 19 17
105.676 566.452 1402.6 211 232 220
74.1679 573.885 1382.91 171 190 183
-934.083 -599.41 1860.21 78 83 78
545.513 -243.729 1655.61 50 39 41
513.915 -178.492 1540.26 158 151 132
499.026 -180.467 1597.51 135 135 116
626.326 -143.431 1653.66 254 255 233
605.668 -122.356 1630.25 178 176 142
618.648 -113.027 1697.33 253 250 234
-19.8912 -80.1833 1231.33 175 160 163
759.054 -122.001 1981.51 252 254 251
554.133 -67.5577 1768.01 93 74 61
530.797 -47.2393 1669.19 252 250 248
543.823 -34.1071 1677.5 144 128 137
-1384.9 -40.4958 2056.68 139 136 112
-836.061 -12.8805 1187.42 134 147 136
18.9228 6.84991 1208.31 255 209 188
605.699 34.2336 1753.15 254 250 235
704.267 66.9526 1843.27 255 255 233
528.552 71.9459 1681.79 19 6 0
-155.641 173.858 1236.53 155 106 82
-64.6509 166.331 1144.93 72 53 49
699.647 343.869 2109.91 172 197 193
-112.548 239.089 1221.45 45 29 13
101.42 289.988 1299.34 253 252 239
-145.17 403.916 1465.07 68 36 14
-11.9869 365.225 1223.16 100 68 51
-50.7774 477.431 1401.79 121 101 91
150.577 553.713 1480.93 242 242 236
-665.028 -165.011 1051.02 137 149 137
-870.687 -339.767 2522.77 130 109 78
488.149 -138.672 1595.98 39 16 4
-782.441 -61.4175 1184.43 156 146 121
-222.786 -28.2024 356.671 163 150 126
-695.066 -38.4603 939.478 57 69 62
587.346 -64.4637 1757.96 254 242 242
-19.3945 -17.9057 1185.06 224 205 181
534.95 -16.5431 1668.4 243 239 242
534.95 -16.5431 1668.4 243 239 242
-43.3922 -5.6376 1171.31 215 208 181
-43.3922 -5.6376 1171.31 215 208 181
632.627 54.9092 1751.21 250 253 240
-58.8033 43.9704 1118.09 245 255 255
602.547 133.311 1755.82 126 114 98
601.869 298.133 1891.98 247 255 252
136.456 388.019 1387.51 254 251 249
-25.966 350.571 1240.48 255 252 255
-25.5705 351.65 1200.7 56 36 26
-3.93063 434.925 1240.8 250 238 229
-187.876 -220.02 1192.99 63 41 27
415.458 -233.095 1645.28 14 6 2
575.805 -181.747 1659.48 115 90 78
506.233 -144.569 1580.59 248 253 252
-404.075 -37.3442 578.325 109 131 120
612.823 -56.1939 1716.6 136 103 93
-681.472 -26.7911 914.85 247 255 253
128.946 89.5771 1293.44 230 232 226
57.1033 145.315 1291.1 254 239 223
605.073 340.366 1827.46 237 252 248
-27.8307 241.429 1196.81 156 102 81
-2.21134 250.497 1218.19 251 254 255
-2.21134 250.497 1218.19 251 254 255
50.5875 372.613 1275.83 177 190 164
22.9333 411.512 1286 75 63 54
22.9333 411.512 1286 75 63 54
-608.521 -170.339 881.699 138 151 143
-608.521 -170.339 881.699 138 151 143
6.59964 23.5075 1177.86 232 162 130
-13.7289 29.0978 1127.24 255 249 255
706.218 51.5881 1788.94 160 165 136
-25.0494 181.476 1190.21 238 195 159
-26.0014 302.645 1221 255 251 255
-40.9207 327.295 1210.36 91 61 58
7.08555 341.722 1249.71 252 255 255
-141.828 440.455 1493.15 88 61 44
-484.153 -186.282 630.401 54 61 53
-465.721 -125.572 724.879 88 83 77
-275.661 -12.4791 1415.99 109 85 64
-77.5786 9.33699 1102.14 210 187 164
-102.936 87.0964 1160.14 170 118 89
449.638 212.405 1787.4 82 96 108
106.969 161.758 1310.43 252 254 248
-50.0976 228.719 1127.43 161 160 159
-128.86 252.418 1214.23 161 80 47
38.2635 258.519 1259.35 251 254 255
-33.1175 263.696 1191.07 252 251 254
-90.9863 -96.4576 386.157 120 120 111
18.9635 -209.204 1063.74 57 45 32
-364.596 -74.7968 502.088 92 97 88
454.964 -92.4821 1843.47 88 88 52
454.964 -92.4821 1843.47 88 88 52
26.831 52.8829 1211.96 252 255 251
-55.9912 120.998 1134.71 250 255 254
-55.9912 120.998 1134.71 250 255 254
457.026 -276.665 1665.66 174 147 140
-552.907 -116.416 848.656 123 140 133
705.015 -96.5405 1886.7 255 254 254
-115.328 314.388 1312.31 153 106 76
-9.2231 334.917 1221.59 254 255 254
-229.862 60.051 1300.11 75 53 39
462.944 416.88 1979.3 212 210 200
-221.582 -161.641 742.498 134 133 130
293.277 -164.281 1562.54 65 62 54
-107.116 44.0123 1119.93 64 38 33
403.597 70.1933 1943.47 48 41 30
67.5492 469.981 1270.13 71 70 67
335.207 -283.105 1224.58 183 177 169
335.207 -283.105 1224.58 183 177 169
562.506 -52.2307 1548.33 199 192 189
-131.776 227.384 1239.71 134 88 72
435.514 18.3918 1745.76 79 85 53
435.514 18.3918 1745.76 79 85 53
52.8375 118.426 1275.03 255 244 224
