-58.7034 -16.7907 85.5204 149 149 145
438.085 -238.951 1727.97 121 113 107
-548.838 -143.975 1073.57 126 130 121
580.746 -146.424 1825.66 186 171 151
611.99 86.6161 -1210.08 145 123 101
530.135 -125.595 1786.98 237 211 189
438.22 -75.5637 1655.68 96 91 85
504.92 -57.6653 1742.89 246 229 207
417.956 -12.4754 1671.65 145 118 108
-73.0829 158.208 1168.96 88 44 28
495.263 319.859 1916.64 195 219 212
556.013 336.664 1971.97 245 255 255
-149.486 209.555 1209.19 60 19 5
589.801 355.99 2040.84 156 163 162
57.387 335.947 1315.11 233 230 212
-42.1982 345.801 1222.28 150 102 77
-3.61742 410.925 1326.93 59 33 17
30.2545 483.592 1322.46 27 32 33
-10.4457 459.95 1232.69 184 176 161
88.9444 586.8 1385.98 213 227 218
80.5868 612.548 1423.79 196 226 214
-111.043 -41.0364 128.02 52 64 57
-359.934 -175.355 715.976 91 92 90
-359.934 -175.355 715.976 91 92 90
-135.048 -402.419 1733.41 39 17 10
468.221 -270.756 1865.66 168 188 190
492.206 -208.181 1735.9 63 45 47
576.233 -126.436 1776.01 141 140 121
623.836 -122.537 1869.82 247 248 228
589.997 -81.0258 1897.22 255 253 230
509.276 -24.9787 1777.37 255 249 248
-148.397 38.7364 1251.15 85 36 22
84.1488 66.7127 1343.65 255 254 245
-91.5346 91.0037 1159.25 155 134 124
584.716 152.608 1901.52 166 148 127
82.2583 122.51 1288.01 251 234 219
-167.388 126.033 1222.36 71 21 5
-37.956 184.015 1158.64 70 60 50
-81.362 246.282 1181.92 119 100 79
-32.2446 276.271 1191.33 59 38 34
112.39 345.542 1362.83 250 255 240
60.4785 584.883 1365.12 34 43 36
73.8209 681.717 1441.32 147 181 173
-197.549 -81.7718 262.969 125 137 132
-197.549 -81.7718 262.969 125 137 132
337.793 -233.144 1717.44 139 117 111
184.193 60.9193 -519.972 139 117 90
-408.105 -66.7145 571.664 130 141 134
447.495 -107.288 1692.17 49 25 14
37.3578 -57.4294 1317.67 153 163 155
-4.89256 7.15145 1277.12 240 224 194
-13.6796 10.2065 1169.76 239 218 192
-13.6796 10.2065 1169.76 239 218 192
546.05 37.1968 1827.15 240 225 211
609.79 69.9785 1895.92 255 253 255
671.322 98.1381 2012.5 169 172 146
-2.3327 75.5046 1163.79 242 251 251
-8.55675 90.0932 1125.54 208 140 127
529.429 168.464 1811.91 139 119 103
531.265 212.778 1971.37 29 16 4
-32.9022 153.73 1145.62 252 254 249
427.887 425.058 2049.63 64 87 78
-6.98547 368.826 1236.97 249 250 249
-53.7438 368.087 1194.55 59 38 27
-156.024 517.064 1535.03 13 5 1
11.2803 471.729 1285.88 252 250 235
517.843 -252.093 1741.53 186 202 201
-357.779 -81.035 618.805 134 144 137
360.942 -194.395 1711.97 20 24 19
-347.068 -51.8256 494.767 139 147 141
-147.034 -52.8433 1347.06 83 70 62
-147.034 -52.8433 1347.06 83 70 62
594.117 -24.0754 1951.21 125 113 100
615.069 127.223 1932.29 161 146 122
615.069 127.223 1932.29 161 146 122
8.22323 103.233 1207.92 253 247 242
8.22323 103.233 1207.92 253 247 242
512.702 204.956 1907.46 55 42 33
526.355 241.451 1999.46 235 247 241
127.577 228.776 1370.93 247 253 254
-6.37387 257.643 1192.25 182 91 70
17.3062 279.691 1271.16 253 249 244
34.7621 428.373 1279.33 92 73 69
34.7621 428.373 1279.33 92 73 69
11.687 47.142 1204.32 251 250 255
11.687 47.142 1204.32 251 250 255
-127.889 57.6715 1160.95 53 34 25
59.3954 133.923 1296.03 238 207 190
19.6221 152.737 1230.94 255 215 191
112.665 183.973 1334.93 251 253 254
-0.243768 198.558 1201.26 238 200 168
31.4915 255.642 1251.33 155 119 106
31.4915 255.642 1251.33 155 119 106
-5.91413 315.242 1208.55 255 251 252
-22.3239 350.342 1225.69 92 62 54
-2.27778 446.665 1256.81 41 30 20
-505.765 -176.507 1246.31 66 70 65
-512.407 -91.0133 744.641 69 76 71
45.3269 82.0315 1239.27 248 253 255
414.79 284.814 2053.7 96 118 130
-130.297 255.313 1278.07 138 85 66
52.4328 282.649 1279.02 253 254 255
-117.826 321.21 1253.1 153 89 68
40.8172 391.521 1289.57 89 75 68
-116.377 -212.344 1317.66 50 44 29
-541.134 -78.857 766.155 127 137 130
-28.9182 140.872 1165.18 252 253 254
-198.708 -104.548 543.998 116 121 116
0.2572 24.4194 -151.043 83 66 57
-104.785 325.215 1252.48 165 109 76
-33.3916 403.301 1246.98 50 43 37
-359.063 -159.357 850.88 127 134 128
-75.2493 190.037 1188.74 80 58 43
403.995 -147.975 1665.19 64 54 48
403.995 -147.975 1665.19 64 54 48
284.459 -151.48 1923.74 48 43 33
294.694 101.394 1864.42 101 99 88
74.6484 531.713 1378.84 74 73 71
508.484 -23.0307 1646.31 175 170 153
-36.0321 498.149 1276.57 43 43 39
312.665 49.2237 1537.95 71 93 63
60.225 123.93 1389.9 107 82 73
-138.793 127.099 1147.95 149 88 60
