61.8691 249.545 -834.462 15 4 0
683.374 -301.126 1553.13 121 110 107
555.851 -270.716 1461.12 143 135 120
-452.093 -122.105 770.355 132 152 142
618.06 -244.87 1550.5 170 149 135
-440.919 -119.875 793.585 98 106 102
508.908 -199.283 1446.81 12 7 0
-510.733 -77.416 876.025 89 98 94
508.848 -117.927 1464.21 98 51 51
508.848 -117.927 1464.21 98 51 51
494.564 -44.6944 1577.89 103 91 82
494.564 -44.6944 1577.89 103 91 82
467.637 46.7545 1811.95 90 83 74
-179.567 27.6352 1099.73 50 29 12
-36.0212 89.3233 1114.24 181 85 72
52.0036 169.368 1187.14 241 238 232
-27.1547 179.995 1153.48 134 111 68
-23.7772 219.047 1151.03 121 89 79
582.271 -323.609 1601.82 89 68 53
552.485 -279.588 1453.52 56 47 52
558.226 -261.091 1385.51 172 160 139
-276.499 -109.4 583.655 66 66 59
537.53 -173.92 1452.67 255 250 244
523.895 -131.367 1470.17 77 62 63
532.495 -83.5104 1476.26 94 70 59
532.495 -83.5104 1476.26 94 70 59
-58.9548 53.1262 1101.27 255 254 246
-58.9548 53.1262 1101.27 255 254 246
688.62 199.958 1640.43 193 202 197
63.2339 155.167 1200.62 132 112 95
68.0466 188.553 1334.2 249 247 245
-19.7078 246.769 1146.11 250 254 250
84.5845 160.035 -807.526 141 111 80
212.036 58.9165 -332.382 65 82 74
192.718 157.341 -927.146 156 131 103
503.702 -193.475 1397.2 132 132 113
-870.505 -136.172 1309.37 36 41 36
96.5114 19.4405 -245.722 230 235 227
534.854 -121.698 1467.31 252 245 241
-76.9175 -12.4269 1104.21 215 193 171
-78.044 62.2004 1075.45 226 243 233
-134.064 102.912 1078.8 161 120 105
-107.312 143.193 1085.74 84 47 42
-83.8676 177.988 1057.87 255 252 236
635.269 -319.793 1514.42 196 220 219
-238.076 -84.9358 435.159 139 143 135
441.589 -253.562 1483.82 7 10 10
-287.711 -108.14 647.882 123 137 131
511.783 -157.69 1446.81 34 17 9
-501.292 -59.3281 745.48 60 31 20
-71.8303 70.362 1052.67 170 92 97
-71.8303 70.362 1052.67 170 92 97
-113.156 92.9339 1050.68 79 21 11
-163.325 227.497 1274.92 132 104 80
13.0678 33.8284 -140.668 141 149 144
546.62 -167.854 1466.97 217 217 218
-54.2297 76.5317 1072.28 255 255 242
37.5315 110.07 1174.35 176 122 99
37.5315 110.07 1174.35 176 122 99
26.5427 135.146 1172.57 255 234 213
0.209397 142.889 1135.1 255 234 222
-67.836 250.191 1121.77 248 253 253
-72.6895 304.616 1128.07 92 75 75
-332.223 -170.399 648.848 73 77 72
-348.191 -155.895 624.964 86 90 75
-390.174 -176.05 809.97 101 98 86
592.875 -153.731 1502.99 114 108 93
592.875 -153.731 1502.99 114 108 93
-263.71 -21.2418 1253.55 89 63 48
-106.122 69.6429 1043.72 236 243 242
118.927 -221.903 880.641 44 36 27
-32.963 -74.7981 305.548 51 32 18
759.786 -324.189 1630.05 154 173 149
-347.482 -62.0907 490.543 112 133 122
455.327 -115.552 1549.78 89 91 66
-230.582 38.6906 1178.3 95 66 53
-32.1914 66.2226 1081.54 218 126 104
-46.2294 -79.4689 280.97 124 122 116
672.305 -291.208 1542.51 85 75 75
672.305 -291.208 1542.51 85 75 75
-302.74 -110.578 595.456 129 140 133
-250.88 -85.8754 519.427 87 71 59
-120.496 159.785 1117.19 99 68 49
528.46 -77.7532 1611.38 59 43 37
-141.767 45.2396 1103.22 67 44 32
702.921 175.45 1761.56 239 253 250
372.032 -218.701 1584.31 50 46 38
467.172 36.8918 1808.3 33 27 22
477.812 -204.543 1445.61 49 44 37
111.045 119.962 1213.33 205 170 159
