-326.135 54.1561 1077.02 189 184 164
-233.852 109.847 1029.98 30 0 0
-108.911 130.689 1014.49 209 158 132
-228.005 200.478 1073.26 45 10 8
-213.944 206.551 1085.75 109 45 29
-78.2382 235.921 1054.78 255 251 230
-78.2382 235.921 1054.78 255 251 230
-60.2469 249.861 1053.17 245 230 205
7.25608 338.349 1271.06 255 248 248
-149.909 334.276 1087.39 144 123 108
-139.889 342.07 1101.21 144 119 109
-146.077 366.88 1039.16 125 104 90
-292.542 535.613 1304.38 178 174 159
-32.3307 586.315 1193.18 191 214 203
-62.4337 115.749 1073.94 252 251 251
-142.417 136.58 1047.16 187 168 161
-142.417 136.58 1047.16 187 168 161
-225.842 151.941 1028.05 45 11 1
-137.993 171.108 1004.99 39 4 2
-13.8235 248.248 1200.29 171 145 127
-86.9115 217.302 1033.29 69 56 50
-86.9115 217.302 1033.29 69 56 50
-127.785 268.36 1015.23 31 9 5
-82.6005 282.731 1047.25 153 157 154
-135.17 309.304 1061.24 105 93 90
-158.944 419.14 1170.78 122 107 86
-44.541 459.12 1171.67 73 50 40
-54.2585 469.373 1103.45 255 255 244
-463.181 -213.265 2420.26 96 53 25
-144.29 -0.311301 1196.49 149 148 147
-40.6749 121.752 1070.61 242 255 255
-25.4683 181.624 1151.57 158 119 96
-94.3446 206.384 1048.55 61 25 19
-28.4824 234.4 1142.24 253 251 241
3.01237 348.887 1269.36 255 251 249
-33.7791 309.689 1128.32 253 254 255
-33.7791 309.689 1128.32 253 254 255
-66.379 411.996 1030.15 28 18 10
54.6406 -110.555 1599.91 11 5 7
-259.111 15.0574 1163.64 68 56 52
-259.111 15.0574 1163.64 68 56 52
-204.45 84.6747 1016.39 167 138 122
-192.599 88.8812 1030.68 84 40 24
-92.0444 155.5 1022.2 127 31 15
-7.37337 217.041 1211.1 250 253 251
-70.4209 316.873 1095.82 244 255 255
-117.898 419.827 1003.05 29 18 6
-65.8624 458.071 1092.18 25 8 0
-82.1613 128.048 1016.76 249 252 249
-54.5458 262.75 1092.98 236 214 198
-164.243 304.834 1092.45 43 28 23
-145.797 347.802 1101.97 120 112 105
-267.914 89.4095 1031.36 138 86 64
-107.295 137.576 1018.31 186 137 113
-169.708 -1.82679 1198.91 50 86 103
-185.191 78.4703 1019.53 71 43 28
-927.675 -220.092 2302.45 35 33 28
-201.42 234.198 1085.07 152 77 41
-985.378 -161.444 1327.79 75 94 84
-133.099 41.6265 983.91 149 120 99
-101.546 433.318 1108.51 40 38 34
205.827 31.3723 1732.21 250 246 237
-131.805 225.737 1042.62 63 55 35
-41.8513 87.6497 1138.7 255 231 206
-486.529 -270.241 2017.72 114 81 62
-226.407 218 1097.09 97 52 30
