-898.247 -516.857 2275.79 157 163 158
21.6439 -47.7093 953.434 216 207 201
-0.647485 -42.8752 935.913 236 211 198
-80.7299 -31.1546 974.982 255 227 221
-534.862 -7.81147 1222.69 51 30 7
-537.291 32.9736 1267.19 26 21 11
-513.935 37.9925 1191.98 109 110 93
-377.988 47.0254 1378.3 56 41 32
-538.261 44.7613 1231.93 11 5 1
-394.031 64.9491 1382.77 209 212 210
-528.197 58.6628 1206.32 151 140 120
-524.864 59.0196 1217.4 17 11 1
-513.005 62.8945 1259.25 21 11 9
-25.5047 42.6645 857.205 247 254 247
-497.978 67.1235 1103.62 242 228 210
-522.456 73.9922 1228.51 17 7 4
-521.569 76.018 1188.26 92 66 44
-502.563 101.356 1214.26 26 14 3
-532.78 107.514 1270.33 156 131 115
59.3183 73.9302 791.502 147 128 110
-523.956 113.03 1212.52 255 245 218
-179.717 95.7862 1006.81 121 119 115
72.8762 84.6198 883.814 159 138 118
17.0435 83.0749 857.757 253 253 235
209.279 112.109 1070.42 53 46 28
-504.851 135.035 1256.55 20 24 3
-372.244 153.052 1401.92 27 7 7
-372.244 153.052 1401.92 27 7 7
-37.747 105.074 931.465 125 108 91
79.0431 102.824 883.114 158 147 142
-416.93 161.386 1275.89 35 20 17
-467.019 185.038 1226.22 20 13 0
-1.48971 149.477 929.997 176 170 139
-111.893 163.488 1002.51 255 252 229
-78.6832 157.718 971.977 249 248 219
-450.563 208.232 1216.51 68 46 34
-450.563 208.232 1216.51 68 46 34
-461.711 247.784 1289.15 40 37 25
-594.542 299.706 1329.71 138 140 127
81.0648 215.932 907.054 253 255 240
67.8738 228.218 943.787 249 255 238
77.4497 236.21 903.006 171 178 153
-117.059 313.972 1136.56 108 106 95
81.6375 273.001 958.942 252 254 242
126.969 280.405 953.34 45 42 36
84.7326 292.552 964.235 123 139 136
105.812 298.459 947.869 88 83 71
-416.878 464.716 1452.95 138 180 163
-510.904 450.986 1383.13 251 254 250
14.5872 357.825 1026.08 202 192 169
62.1529 425.459 1118.8 155 169 172
-907.107 -300.739 2362.35 171 170 161
99.0366 -96.9541 1007.26 174 215 203
132.678 -84.0024 942.87 104 171 171
-72.7668 -67.3715 1051.65 78 85 84
-72.7668 -67.3715 1051.65 78 85 84
-424.675 -71.9777 1299.27 118 112 99
-1705.65 -102.414 2476.59 62 67 56
-457.312 -48.0188 1277.14 161 135 117
-1603.98 39.6428 2450.9 203 211 196
-446.573 22.2249 1298.23 135 107 83
-446.573 22.2249 1298.23 135 107 83
-199.344 18.6959 958.44 27 30 26
-406.93 31.6117 1353.02 178 140 130
-28.4537 19.3826 849.61 81 73 69
21.4428 23.8089 824.283 254 255 243
-533.337 45.5403 1172.1 149 99 63
82.3579 38.4801 892.378 45 44 40
-562.137 54.7136 1185.09 255 234 204
-510.545 87.2534 1170.13 115 73 49
-80.6063 73.0076 907.891 145 123 107
-488.271 127.709 1235.18 116 115 104
21.06 95.2981 867.386 135 155 134
84.0844 98.5573 885.185 32 31 18
-377.254 166.549 1400.68 186 142 113
-85.735 119.502 947.649 146 129 112
-28.5169 123.737 890.279 123 107 90
-147.446 149.407 1017.1 144 117 93
-476.237 190.477 1276.77 169 170 157
-11.5947 148.286 910.046 243 240 205
-47.0414 160.928 962.624 255 248 217
-106.39 170.763 993.27 188 126 107
44.3544 181.141 906.933 253 255 242
74.0646 189.235 934.119 250 250 238
192.582 215.301 1045.84 147 146 141
-681.073 314.999 1470.61 255 255 243
-634.955 314.64 1397.54 252 252 247
-572.926 301.501 1318.33 212 228 201
-704.111 377.659 1605.45 136 137 122
-51.5995 281.333 1058.77 200 194 163
-683.104 500.399 1727.11 250 250 246
-79.4982 372.195 1144.27 177 168 152
26.4278 352.748 958.549 251 252 245
198.152 414.445 1123.03 151 171 186
44.5502 435.885 1172.78 253 253 252
219.562 450.381 1128.98 95 118 119
198.602 459.174 1119.36 124 158 158
157.671 473.385 1143.66 151 186 185
157.671 473.385 1143.66 151 186 185
-94.3878 -357.537 1263.58 142 142 133
-774.999 -408.775 1902.66 95 99 91
-396.913 -401.888 1923.22 153 155 153
-69.3912 -45.9454 1015.29 45 20 37
-516.309 -16.8764 1200.81 175 155 130
-516.309 -16.8764 1200.81 175 155 130
-658.844 -8.49464 1175.76 255 250 240
-512.811 6.87578 1238.16 57 42 22
-500.312 30.0046 1202.11 176 169 165
-537.495 31.1597 1165.75 143 93 53
-206.199 35.3394 1021.59 95 86 72
-157.578 64.4315 950.497 156 154 135
-173.589 92.1488 1024.65 254 254 249
-507.681 115.96 1197.76 124 87 57
-445.548 120.034 1166.29 31 26 18
-141.45 102.572 950.742 254 253 245
212.861 119.68 1066.14 127 140 134
-325.169 179.219 1381.35 83 59 52
-131.688 162.221 915.658 245 240 242
-66.8501 210.741 980.611 251 245 235
212.006 317.89 1062.99 161 151 132
-19.6246 327.559 1027.46 148 139 121
-339.074 487.941 1498.64 75 84 75
113.165 436.259 1128.4 245 254 243
-393.034 -397.219 1897.36 156 158 155
-778.466 -290.012 2131.96 178 182 174
-32.96 -102.105 1106.28 62 62 54
-45.2771 -40.5005 975.688 254 241 230
-45.2771 -40.5005 975.688 254 241 230
51.0874 -14.9233 861.293 75 143 147
-613.144 17.6788 1169.91 247 247 245
-599.276 30.7776 1175.82 251 250 234
-380.134 64.6139 1395.8 30 23 19
-588.18 72.4411 1233.92 182 155 128
-16.9942 109.719 907.234 127 117 106
-147.28 123.741 981.398 141 122 113
3.75502 153.559 902.265 254 254 235
199.316 199.528 1081.85 92 76 80
109.343 171.989 925.995 169 139 119
-535.463 238.275 1267.05 254 251 255
140.182 190.052 980.534 164 145 148
66.5007 177.077 879.894 211 213 199
59.9609 194.05 898.18 156 187 152
-11.4174 331.748 1075.55 251 253 255
51.1197 -62.4528 979.823 44 96 93
5.11398 -24.0543 911.409 95 94 93
-94.0402 13.4602 886.439 70 53 50
-388.436 67.3957 1428.51 30 23 21
-727.373 78.2381 1325.27 254 254 255
-177.439 76.244 982.65 112 99 91
-177.439 76.244 982.65 112 99 91
49.5357 -90.4221 1031.46 193 201 197
-44.4649 2.16892 887.111 219 241 235
-688.014 31.4388 1224.75 245 242 239
-415.833 48.9362 1326.6 32 14 10
-399.944 61.1826 1374.74 165 170 166
70.2988 44.0968 876.323 158 162 156
44.1212 56.135 841.801 59 52 45
179.543 88.5478 1015.6 80 57 47
-489.262 203.239 1222.35 254 254 244
-474.122 220.801 1270.95 147 114 99
78.348 170.11 873.025 58 50 46
104.359 185.753 915.469 176 134 115
104.359 185.753 915.469 176 134 115
-831.791 596.467 2149.7 112 117 112
-626.291 -505.094 2089.7 154 158 153
-1409.2 -140.978 1998.37 87 91 81
-489.436 -47.692 1248.17 52 42 33
-489.436 -47.692 1248.17 52 42 33
200.354 47.1615 1036.78 76 50 39
-588.655 201.201 1258.83 236 237 236
-30.9862 182.642 960.543 254 255 251
-441.305 33.8468 1303.52 182 158 136
-574.75 154.797 1330.77 237 232 214
-409.97 191.763 1356.18 191 156 143
231.419 154.583 1091.3 95 63 55
-427.729 252.412 1361.99 73 55 53
-43.1086 212.864 956.432 159 136 121
68.6483 437.427 1100.17 242 255 249
221.446 483.019 1196.72 146 176 177
-135.984 -460.593 1495.54 159 167 161
-435.994 -84.6659 1310.9 44 37 28
114.694 36.2498 932.473 51 48 36
-48.0103 44.0721 874.775 130 120 114
-358.599 222.429 1466.18 57 50 51
-358.599 222.429 1466.18 57 50 51
-526.912 3.83942 1191.91 50 35 21
10.2415 46.5811 814.451 146 174 132
207.184 112.95 1081.74 83 64 48
-489.538 -419.548 1899.76 152 155 150
-489.538 -419.548 1899.76 152 155 150
-599.078 -353.055 1752.71 122 110 89
-617.963 41.3535 1209.23 224 216 205
-495.153 173.852 1126.23 214 198 183
112.13 209.029 735.212 95 56 44
115.271 33.3664 949.013 53 48 36
-399.5 377.841 1463.04 53 57 52
