369.666 -486.242 1538.95 73 70 68
-388.557 -448.249 1849.82 83 93 85
-90.1657 -91.015 1518.18 119 101 82
209.85 20.055 918.772 67 72 60
-2.05854 40.3946 1001.68 87 48 48
28.8916 42.5753 967.306 239 220 209
21.3478 132.332 824.173 13 8 3
10.7528 162.017 840.303 142 162 157
-20.0056 171.652 847.942 24 21 8
172.126 203.109 909.99 189 144 130
130.003 205.84 891.613 101 38 12
81.3121 295.479 919.597 46 33 19
199.197 318.105 963.766 70 115 118
102.049 316.754 926.863 246 238 238
203.659 348.28 985.543 255 191 194
289.055 380.816 1027.47 69 37 24
-83.758 -408.945 1857.17 68 69 66
-210.235 -411.54 1926.51 111 105 95
-1.89273 -71.7073 1631.15 28 23 20
-159.198 -59.5213 1556.87 179 161 143
-67.1841 -18.7654 1575.27 194 164 147
-67.1841 -18.7654 1575.27 194 164 147
106.488 -3.30997 1013.84 201 168 142
115.488 16.4329 984.904 73 82 78
115.488 16.4329 984.904 73 82 78
206.584 128.544 915.423 78 75 80
54.8056 125.831 816.489 15 19 22
-5.03617 143.429 822.486 8 26 23
259.582 170.486 944.952 27 4 1
-12.2527 162.563 847.471 72 77 79
179.564 211.674 924.807 72 26 26
155.832 220.253 934.21 196 163 147
18.5007 223.085 918.405 24 15 17
291.929 274.261 981.78 62 18 11
229.034 272.383 954.695 32 56 71
142.579 291.379 947.392 45 54 33
142.579 291.379 947.392 45 54 33
176.769 287.688 929.814 9 43 54
217.96 300.379 970.124 22 43 55
120.093 300.229 948.547 70 57 44
39.652 390.828 931.301 105 100 97
166.359 428.694 1003.81 145 131 122
246.346 508.951 1083.29 31 52 59
-178.157 -56.0781 1554.71 62 46 31
-66.1907 -21.0721 1601.6 196 166 149
91.821 19.1377 983.002 185 159 141
40.2903 44.9015 986.401 163 118 106
174.576 79.7048 892.257 133 105 80
174.576 79.7048 892.257 133 105 80
-49.7381 153.018 837.049 53 47 37
-10.263 187.406 877.546 49 41 46
229.272 249.685 947.322 37 18 15
124.078 247.579 917.185 51 26 18
278.032 281.995 991.456 153 114 93
279.413 303.839 999.922 115 59 55
148.786 288.322 929.711 174 196 194
329.775 402.872 1030.33 43 23 14
303.531 415.918 1010.11 202 183 167
211.448 32.402 885.661 7 9 3
-37.312 80.9994 918.708 99 117 118
126.146 275.845 938.872 123 59 33
195.136 367.425 985.434 37 18 17
16.7682 337.275 889.079 53 55 54
326.494 399.498 1021.59 43 23 14
-216.295 -85.8876 1533.48 62 50 46
140.489 -32.4683 1098.11 60 58 59
178.581 67.3566 882.848 43 31 26
158.873 85.3905 881.006 34 31 31
225.035 155.727 924.852 58 39 35
223.525 236.237 945.435 178 150 133
87.5738 255.086 909.912 173 173 167
21.3112 -17.8269 1632.99 56 48 44
-196.999 44.6739 1603.04 29 12 2
294.165 307.266 1000.23 55 27 14
8.23505 308.206 899.275 106 91 81
248.314 -174.331 674.053 138 138 140
-121.171 -74.8104 1564.61 174 159 147
-68.5698 -18.6071 1607.15 196 166 149
170.4 0.671483 997.556 74 80 75
155.08 236.071 923.094 60 40 41
155.08 236.071 923.094 60 40 41
133.494 -25.2835 1090.9 67 70 75
263.1 236.521 953.245 48 42 43
285.475 353.643 1004.02 174 136 123
316.149 392.153 1024.2 58 37 41
115.583 412.687 956.139 145 70 59
124.635 -91.2019 296.637 141 142 145
-44.3382 -319.016 1592.62 95 91 83
-210.871 -70.7045 1554.19 72 45 49
244.077 181.837 939.723 65 49 48
154.894 192.881 910.594 189 133 115
154.894 192.881 910.594 189 133 115
154.894 192.881 910.594 189 133 115
-42.5973 93.493 910.868 190 210 207
266.743 285.62 986.23 76 45 38
167.692 300.603 948.774 87 132 139
167.692 300.603 948.774 87 132 139
96.7203 176.39 916.273 54 49 47
