-380.39 -114.015 592.688 134 148 138
568.791 -272.952 1653.15 31 24 22
539.52 -202.49 1563.86 102 90 69
-1053.38 -164.998 1573.53 109 123 115
-744.259 -84.7619 1155.04 35 31 23
72.5926 -68.2889 1248.84 253 242 209
565.504 45.5175 1650.99 158 160 141
565.504 45.5175 1650.99 158 160 141
-38.9698 90.6791 1208.12 178 92 61
-43.0777 80.1423 1049.16 157 87 63
-43.0777 80.1423 1049.16 157 87 63
72.0147 141.588 1288.1 244 236 221
31.6043 178.642 1297.35 166 152 140
31.6043 178.642 1297.35 166 152 140
539.192 317.527 1850.66 217 251 255
539.192 317.527 1850.66 217 251 255
46.7607 267.844 1222.58 124 114 99
48.9858 294.313 1326.76 124 114 99
4.11036 300.905 1259.66 242 250 231
-47.4185 344.914 1209.35 255 251 244
-20.8635 376.541 1249.69 254 253 250
-146.615 463.487 1440.33 207 197 182
44.3404 557.549 1362.49 208 230 222
-63.1578 540.32 1256.91 105 127 115
-879.425 -426.039 1360.1 133 148 138
434.464 -504.9 1765.27 212 193 180
-205.653 -186.742 894.615 141 143 140
-658.511 -181.735 1134.61 59 64 51
-489.209 -98.8349 694.983 29 43 35
492.709 -176.883 1510.9 165 169 151
470.918 -177.35 1551.13 129 123 99
-1692.39 -232.803 2465.11 121 138 136
-1757.45 -236.469 2529.94 33 47 44
701.186 -136.906 1795.09 238 244 226
-536.814 -38.5409 839.99 160 156 133
-714.344 -44.4425 1069.57 81 83 61
-55.3296 -27.0886 1196.25 227 214 189
-117.912 5.93637 1082.74 243 220 190
437.922 115.231 1843.97 106 118 101
-108.8 135.536 1118.07 54 31 23
644.078 290.322 1932.1 243 255 255
518.294 318.908 2053.06 136 158 154
-86.4096 186.443 1151.47 248 254 234
-86.4096 186.443 1151.47 248 254 234
531.179 355.956 1837.08 153 183 179
-39.8367 360.09 1206.47 247 245 227
-216.782 -121.028 520.627 144 133 121
15.0666 -338.288 1689.88 94 76 54
559.919 -285.165 1619.39 191 209 207
-50.9388 -22.8814 84.6744 150 129 102
668.791 -155.401 1715.64 253 255 249
-830.488 -84.4409 1304.14 137 126 106
-855.335 -77.261 1364.9 68 55 42
611.117 -95.6944 1629.17 252 253 244
515.912 -55.4039 1589.38 235 228 227
-336.066 -16.26 462.648 123 126 113
-68.6734 -20.9265 1170.7 230 216 190
498.013 -13.141 1603.4 254 252 252
498.013 -13.141 1603.4 254 252 252
456.007 -5.1822 1575.99 160 147 141
-79.9246 -13.8618 1125.63 227 208 185
-79.9246 -13.8618 1125.63 227 208 185
-186.159 24.2845 1147.22 64 40 31
601.46 59.563 1701.6 253 250 241
-95.0024 34.2661 1100.77 250 252 251
577.648 140.161 1734.81 122 103 87
49.4225 130.657 1267.14 255 246 231
447.161 264.449 1716.5 83 111 106
562.603 294.452 1819.78 244 255 249
-89.4974 174.36 1139.61 255 251 246
-89.4974 174.36 1139.61 255 251 246
-31.4494 224.34 1215.2 134 93 90
142.532 281.418 1340.86 255 220 195
-63.7132 326.091 1171.81 249 252 252
-44.1372 440.944 1274.55 242 233 215
-1401.55 -604.294 1998.11 129 146 136
389.61 -233.712 1607.21 25 13 12
622.447 -194.292 1658.92 91 93 84
-756.046 -40.6995 1105.51 38 48 35
697.629 96.3226 1880.97 145 137 110
697.629 96.3226 1880.97 145 137 110
96.6668 86.527 1300.88 248 252 235
71.185 177.811 1277.02 199 172 140
71.185 177.811 1277.02 199 172 140
590.146 349.433 1830.54 238 253 246
450.586 344.339 1794.18 76 83 79
-40.3173 242.377 1213.05 252 251 248
-17.0525 394.523 1250.91 79 71 66
-1.63256 411.374 1264.1 209 200 183
-539.773 -257.239 800.195 38 51 42
-539.773 -257.239 800.195 38 51 42
-601.672 -189.069 912.129 142 153 145
-683.895 -189.112 1131.3 130 138 129
-740.303 -183.566 1165.49 140 148 138
506.892 -148.218 1624.65 244 241 243
-1444.4 -103.038 2123.54 213 220 216
-29.282 14.9863 1133.85 245 153 123
-48.8841 20.2819 1112.48 254 252 255
-48.8841 20.2819 1112.48 254 252 255
751.554 60.2973 1922.45 163 168 134
40.2165 155.979 1257.56 139 114 91
-24.2087 219.723 1179.31 159 115 104
-66.0495 228.531 1165.6 169 68 53
-71.9592 250.633 1157.53 249 249 253
-64.8996 285.216 1176.73 254 253 254
-79.644 313.438 1186.68 94 72 69
-56.6888 411.103 1231.11 45 27 20
-551.53 -241.941 768.057 52 58 55
-555.719 -205.212 882.868 62 65 57
-566.788 -181.617 833.09 77 77 68
-320.626 -158.537 861.103 106 107 100
-355.349 -250.667 1370.02 75 72 71
-270.383 -20.7821 1218.66 80 55 39
-114.722 -0.351914 1092.53 202 180 160
67.4947 151.911 1257.14 255 254 255
-27.6603 196.422 1184.42 250 241 222
-614.905 -266.065 900.701 118 135 124
-664.217 -254.209 976.127 17 16 12
-189.768 -225.543 965.289 119 120 109
83.3412 -370.131 1806.19 56 42 33
-641.819 -198.163 1066.32 95 97 89
-723.685 -188.755 1109.34 88 92 82
614.078 -266.603 1693.4 95 88 82
614.078 -266.603 1693.4 95 88 82
-647.952 -157.404 1048.37 128 140 135
-690.708 -152.373 1192.96 85 74 63
-690.708 -152.373 1192.96 85 74 63
-690.708 -152.373 1192.96 85 74 63
77.1647 -76.155 1253.68 228 195 165
-8.02696 46.0062 1209.16 245 251 246
555.065 188.64 1702.95 246 255 254
-49.0664 327.771 1215.01 252 252 250
-8.54696 368.373 1251.49 85 77 71
417.579 -46.8205 1559.15 58 43 36
20.4535 -22.7004 1218.04 255 248 233
-127.67 158.402 1158.83 78 60 41
469.004 333.958 1997.47 80 66 54
-300.303 -258.083 1133.27 136 137 133
302.614 -187.645 1676.58 69 64 51
-1066.33 -138.523 1867.31 121 111 86
-1066.33 -138.523 1867.31 121 111 86
-24.0547 -69.2764 1165.06 48 67 74
-138.058 32.6934 1079.02 61 41 28
424.294 -181.144 1549.72 50 45 37
