399.721 -162.159 1029.98 106 96 93
620.627 -131.884 1151.03 162 163 149
468.227 -43.879 1141.84 255 247 226
-134.347 28.4073 1016.92 137 73 73
-226.488 68.7733 1010.89 224 215 210
638.532 306.21 1398.31 223 252 252
-316.446 216.009 973.235 204 212 200
-316.446 216.009 973.235 204 212 200
-70.8857 244.798 1110.83 241 194 160
593.501 332.267 1487.03 177 209 206
656.953 324.094 1412.79 214 240 247
656.953 324.094 1412.79 214 240 247
-329.449 239.605 1038.66 252 251 250
-198.572 246.326 1055.41 173 122 115
661.321 349.446 1396.15 150 171 169
-235.933 301.908 1104.32 38 34 18
-206.476 454.946 1382.3 6 2 0
-270.738 -139.022 1192.59 147 143 130
405.357 -75.3987 1096.38 250 245 250
377.22 -69.963 1139.89 144 118 112
455.909 -49.9668 1132.71 91 75 49
-103.691 11.956 1006.66 252 230 200
-352.768 46.5604 981.71 115 94 99
-140.015 53.7096 1039.88 172 77 50
424.562 77.8692 1175.34 131 127 106
-145.999 88.2049 1049.35 68 16 8
477.049 109.933 1211.4 212 215 184
477.049 109.933 1211.4 212 215 184
-216.107 124.427 1044.09 107 57 47
-73.4608 137.977 1089.15 242 235 221
-176.283 176.616 1049.25 244 253 246
-180.485 248.663 1100.9 250 231 222
-139.375 263.638 1119.8 249 254 255
-129.775 265.906 1096.8 172 158 144
667.425 352.016 1430.99 225 243 245
-297.896 280.787 1042.15 151 132 123
-269.322 299.926 1094.92 241 216 198
-318.154 323.967 1103.72 253 253 255
624.031 -177.543 1093.57 191 221 200
624.031 -177.543 1093.57 191 221 200
422.466 -95.6455 1095.32 249 247 248
502.376 -73.3656 1130.08 163 169 138
415.821 -66.6577 1122.87 88 60 57
496.357 -49.4299 1138.63 119 91 70
510.784 -19.9954 1167.01 236 217 206
-108.008 21.2802 1002.62 136 86 45
-108.008 21.2802 1002.62 136 86 45
510.45 32.2653 1180.94 255 250 240
-142.636 33.1363 1023.17 154 77 58
-320.866 51.6427 967.021 141 82 69
-320.866 51.6427 967.021 141 82 69
-207.806 54.5465 1023.57 255 242 229
-311.711 60.924 964.346 229 250 231
440.17 88.172 1193.24 93 81 71
511.32 86.4769 1172.62 138 139 125
-314.569 82.9004 989.935 253 242 240
-114 91.3151 1051.09 231 231 227
460.715 120.478 1221.77 145 146 124
-135.12 118.684 1045.01 57 16 10
-135.12 118.684 1045.01 57 16 10
-354.499 186.319 1049.65 251 251 237
531.085 246.374 1368.98 35 61 92
531.085 246.374 1368.98 35 61 92
552.534 251.852 1380.13 174 192 205
552.534 251.852 1380.13 174 192 205
552.534 251.852 1380.13 174 192 205
-267.24 232.128 1060.33 116 64 59
-302.649 247.251 1008.15 88 43 41
-106.856 398.398 1272.22 255 252 245
669.515 -275.22 1161.16 60 89 91
454.885 -16.0428 1143.62 249 247 236
454.885 -16.0428 1143.62 249 247 236
-261.552 83.1254 987.94 167 87 66
-76.8919 131.675 982.425 207 134 85
-126.788 361.259 1104.17 255 253 251
-179.887 453.303 1348.43 252 252 247
-300.653 400.225 1154.24 67 57 42
424.237 28.9735 1167.99 251 253 249
-232.056 49.1161 996.458 237 226 217
-373.809 50.2017 957.647 78 52 45
-373.809 50.2017 957.647 78 52 45
-232.056 185.776 1083.52 255 254 245
-318.641 222.084 1038.39 134 58 43
-254.042 266.415 1056.03 108 77 73
-294.172 330.395 1146.12 243 246 246
-294.172 330.395 1146.12 243 246 246
-254.74 369.979 1102.03 69 66 65
-219.14 94.7128 1043.63 130 82 74
-253.05 116.544 994.72 223 191 170
-268.126 221.058 1044.85 183 135 123
-195.775 165.709 1066.98 101 75 72
-290.931 82.9971 1011.93 195 105 85
-349.241 112.296 990.647 254 253 254
-349.241 112.296 990.647 254 253 254
-248.424 248.518 1096.01 253 236 234
619.229 -213.765 1071.44 120 153 117
617.239 246.676 1384.03 196 226 222
