-362.3 -62.9369 1374.04 83 69 52
96.1963 33.1119 993.655 18 24 12
96.1963 33.1119 993.655 18 24 12
-565.455 77.8586 1409.2 227 196 187
41.8255 94.6571 1028.41 204 209 205
31.5082 91.7654 960.346 214 220 203
37.8918 166.005 981.604 161 90 69
130.222 252.747 1063.38 29 30 26
-17.3954 285.834 951.876 30 23 16
113.815 329.445 1049.14 39 47 53
-1.07592 301.783 957.625 207 197 191
61.1353 316.244 981.16 87 111 109
192.215 383.021 1147.37 214 180 178
150.024 390.559 1102.16 87 35 18
62.8389 365.884 1025.03 206 213 212
-40.635 337.139 916.892 122 101 86
-60.2041 333.701 907.84 94 72 52
-40.7702 430.08 929.874 44 40 35
-1250.49 -286.434 2597.72 195 201 196
-486.716 -87.4412 1623.7 95 104 99
-414.127 -38.2445 1546.72 27 25 12
-414.127 -38.2445 1546.72 27 25 12
-452.069 -30.1109 1522.36 161 137 112
-362.722 -24.377 1432.05 31 25 13
-502.669 -27.8979 1551.15 40 29 27
-472.523 -7.78914 1505.72 49 29 7
-524.541 2.57459 1464.56 217 191 166
-462.893 10.6859 1503.34 134 122 105
-121.317 28.1511 1150.42 38 27 17
-422.913 109.159 1576.81 38 25 28
-568.598 116.501 1564.81 14 11 3
-145.854 100.454 925.862 71 99 92
-83.7497 157.708 860.418 30 42 39
-90.8146 175.856 866.374 75 72 70
-85.0868 197.052 901.008 35 35 39
64.6991 237.402 986.615 47 19 13
161.302 309.689 1094.38 152 102 83
175.083 348.311 1091.24 179 144 125
82.0889 324.465 1028.1 28 55 70
195.171 372.302 1139.62 83 48 41
-92.5422 333.032 955.234 248 250 245
96.7251 399.308 1055.54 48 36 31
-64.4255 342.726 910.151 152 132 122
-412.188 -53.1382 1514.05 133 130 103
-562.795 -29.6278 1450.57 75 97 100
-505.465 -19.2843 1504.07 33 20 9
-32.4975 14.528 1102.09 113 88 74
-63.2211 28.2921 1091.13 97 95 89
-537.844 52.8678 1469.5 58 44 30
-537.844 52.8678 1469.5 58 44 30
-545.333 77.2871 1480.95 201 195 190
-435.248 86.8791 1517.6 208 181 166
-517.023 97.229 1499.82 87 91 92
69.0768 88.0752 994.358 131 102 86
69.0768 88.0752 994.358 131 102 86
-49.0081 188.552 931.681 147 146 142
-49.0081 188.552 931.681 147 146 142
-64.7307 239.532 928.287 47 32 39
27.1812 290.347 991.94 195 186 177
32.2069 304.717 1004.2 110 66 42
166.806 414.682 1117.71 105 68 58
137.914 398.034 1072.11 189 148 128
-1161.14 -314.334 2514.7 135 146 140
-9.10935 7.38842 1060.27 53 62 58
-81.2318 56.147 1017.82 220 195 185
57.1028 92.9591 985.462 45 43 39
-134.231 85.822 987.31 149 184 181
-155.284 98.4092 932.141 116 135 139
117.771 178.453 1052.36 49 31 17
99.9182 264.385 1057.98 56 33 23
116.527 264.261 1042.45 186 160 144
116.527 264.261 1042.45 186 160 144
-15.273 336.02 962.912 41 14 11
-62.1625 390.104 961.298 41 33 29
-8.7629 225.629 925.218 137 64 48
-467.096 -27.292 1497.36 59 47 40
-467.096 -27.292 1497.36 59 47 40
-561.746 22.8421 1412.73 64 49 36
-366.292 87.0496 1585.46 34 30 28
123.819 335.454 1055.44 72 58 60
123.819 335.454 1055.44 72 58 60
-486.548 31.4403 1488.17 179 175 162
100.827 225.664 1038.92 73 50 41
150.679 266.004 1071.93 57 49 47
34.8934 332.351 994.584 157 85 54
38.0754 42.7305 1015.63 129 201 194
-444.622 91.2452 1544.14 199 178 165
130.363 204.364 1049.71 67 49 43
39.504 271.675 993.247 64 43 41
31.8363 467.921 1031.88 151 78 56
55.9409 216.074 998.168 185 145 110
-39.9994 212.996 931.455 47 44 41
-96.0666 234.177 886.512 49 44 41
-14.4871 182.843 930.145 50 43 37
-70.1432 278.548 909.79 58 52 50
