53.7071 -704.739 2742.56 95 90 79
-424.814 -48.8389 1260.47 177 176 173
36.1725 68.6052 803.688 219 218 208
89.2264 144.155 886.55 41 28 13
-88.705 144.371 770.146 85 89 84
59.7362 189.117 867.031 125 81 51
128.786 209.608 902.05 208 207 201
43.6114 198.269 861.107 224 166 136
81.1418 213.015 888.692 125 101 97
-86.5635 164.949 749.468 199 182 173
-3.71486 218.316 784.695 251 251 237
179.404 329.608 1003.16 213 179 162
-47.9407 261.028 817.914 52 44 38
-8.42051 271.906 828.334 49 26 16
-8.56412 288.091 839.588 247 245 236
-33.6486 290.312 827.537 205 186 173
163.903 461.501 1090.4 185 142 128
-821.037 -369.287 2523.07 207 210 205
-256.194 -74.9249 1360.56 47 46 29
-329.904 -68.1992 1325.73 52 37 24
-368.583 -45.5138 1320.86 162 143 113
-308.165 -34.7282 1337.95 131 118 99
-76.3496 1.63691 1009.49 249 255 252
-253.598 29.8385 1388.22 94 56 47
-83.534 40.4469 911.059 244 227 214
-36.1446 66.6934 732.998 6 19 34
142.137 168.34 917.842 34 8 4
-81.8208 125.952 754.555 34 48 53
-95.7812 151.767 755.235 31 31 24
77.9841 203.705 884.605 66 21 12
-86.1329 159.609 755.263 62 58 62
53.5652 196.716 838.699 208 171 159
-74.6031 181.417 772.14 47 44 39
-70.1724 182.98 748.917 213 209 208
159.05 279.336 963.116 184 126 108
67.259 260.126 890.276 17 44 38
67.259 260.126 890.276 17 44 38
133.511 283.256 916.362 108 111 119
111.755 296.244 937.771 33 41 58
45.3837 276.269 890.021 91 84 89
60.4049 283.101 883.869 86 100 99
144.05 345.922 966.006 86 44 30
91.4935 358.154 942.927 50 23 24
82.6777 364.99 938.265 123 82 68
63.7604 410.823 934.118 184 157 143
111.7 457.235 1005.14 45 43 37
124.585 491.553 1018.98 54 75 85
60.2498 -755.829 2948.2 95 90 79
-411.604 -76.9472 1354.6 96 123 122
-411.604 -76.9472 1354.6 96 123 122
-253.314 -63.6143 1470.55 48 38 20
-339.886 -62.5948 1315.22 26 19 12
-438.353 -31.6395 1270.3 141 124 101
-428.676 -5.98808 1261.32 168 139 91
-382.423 -0.171434 1327.15 63 46 28
-383.354 18.0159 1327.09 187 178 168
-296.028 35.8667 1398.53 210 179 159
-29.1497 20.0274 939.803 199 178 164
104.924 26.7006 867.266 18 26 19
-72.9595 42.2782 900.578 166 112 94
-72.9595 42.2782 900.578 166 112 94
73.1349 72.313 855.508 146 113 85
73.1349 72.313 855.508 146 113 85
-81.3193 121.912 736.053 34 45 48
-51.9897 134.21 772.96 23 34 32
-45.7554 157.503 822.83 151 154 152
-45.7554 157.503 822.83 151 154 152
66.764 210.403 886.541 58 33 26
-62.836 186.145 770.339 43 34 33
32 241.833 884.69 52 31 14
72.712 269.502 891.194 115 159 157
82.7717 297.754 944.065 38 56 67
82.7717 297.754 944.065 38 56 67
186.667 332.57 989.033 90 58 42
159.561 371.702 981.24 137 79 73
200.641 396.818 995.667 56 33 21
156.37 409.17 965.593 62 36 35
-40.8425 365.757 845.381 107 106 99
98.6462 489.404 1003.2 107 140 142
-270.954 -73.648 1369.03 53 44 37
-131.406 70.0344 820.92 102 119 116
120.573 210.599 919.031 179 187 177
128.943 252.104 913.659 116 154 150
29.6275 253.303 854.78 126 71 50
29.6275 253.303 854.78 126 71 50
-17.3981 279.671 831.896 41 14 11
-59.6731 312.272 802.996 46 36 35
-1163.63 -400.437 2859.72 174 187 181
-415.192 -29.3172 1309.91 58 49 35
61.1455 77.6541 849.089 35 32 33
117.333 153.987 905.687 57 40 33
-107.299 161.751 737.287 47 43 39
-6.54348 192.659 827.769 150 69 49
115.059 231.532 914.702 196 165 148
-0.917898 235.903 834.754 182 194 187
174.056 307.374 975.206 72 38 25
-319.166 -69.3253 1368.99 72 50 37
-225.912 40.416 1459.51 53 46 37
-264.233 57.8043 1405.38 81 56 52
-49.1741 35.22 891.884 223 197 183
188.19 295.553 982.337 206 198 185
119.394 295.435 924.882 71 59 59
119.394 295.435 924.882 71 59 59
-335.045 -17.3405 1342.02 182 172 160
-108.459 146.398 741.836 65 54 50
56.5335 224.917 871.436 66 48 42
56.5335 224.917 871.436 66 48 42
164.099 346.452 965.072 191 147 130
-271.449 -77.5781 1438.82 47 46 29
-296.009 36.8708 1393.63 201 181 162
-296.009 36.8708 1393.63 201 181 162
-296.009 36.8708 1393.63 201 181 162
55.6796 28.7254 887.211 128 196 190
150.7 238.555 943.783 56 49 46
37.9238 227.489 853.941 63 41 28
37.9238 227.489 853.941 63 41 28
24.5583 398.715 897.326 152 79 53
-564.696 -337.247 2337.46 108 105 90
131.63 179.219 914.374 75 55 50
56.6795 184.513 868.329 194 145 124
-92.5874 186.31 756.578 57 51 48
144.944 113.38 881.879 177 165 146
-69.2002 228.54 785.027 59 53 53
-1.44424 153.342 796.429 53 53 46
