-146.18 -164.234 633.93 147 135 113
435.472 -261.254 1228.11 74 28 21
351.818 -209.296 1184.66 28 28 31
351.818 -209.296 1184.66 28 28 31
313.274 -182.403 1105.01 134 138 125
585.577 -95.9501 1188.11 162 144 127
-170.374 13.7549 983.436 255 243 227
-169.067 20.061 953.142 200 156 144
552.223 35.6081 1218.93 250 227 213
-229.248 29.5837 972.572 247 224 198
-109.888 33.9757 1007.46 255 246 223
-226.637 43.5996 990.031 254 236 229
480.18 63.1507 1247.88 84 62 51
-301.44 43.7175 933.359 250 253 240
715.138 85.8743 1267.07 100 95 80
-192.073 64.7245 1023.09 202 163 149
-356.207 67.3241 963.204 255 242 230
-249.919 80.1012 1033.65 254 243 237
550.624 146.187 1279.9 115 105 84
629.797 162.998 1328.53 164 153 136
-59.5036 137.171 1068.78 252 247 215
-59.5036 137.171 1068.78 252 247 215
-162.905 172.226 1079.98 102 90 76
675.587 272.464 1423.9 235 251 251
-70.4442 207.789 959.526 174 107 98
-238.068 229.014 1039.08 255 249 235
656.665 333.3 1435.65 218 246 249
656.665 333.3 1435.65 218 246 249
-242.596 285.479 1036.61 255 245 237
-88.8101 394.819 1223.54 44 49 51
-87.9667 359.752 1107.02 21 26 28
-138.479 307.044 928.288 83 73 56
-29.0548 455.928 1257.47 150 146 134
-80.2505 502.844 1263.9 38 53 44
-89.9282 457.758 1126.42 24 23 20
-12.8601 52.9659 -117.849 61 69 67
-305.147 -231.124 744.292 51 52 47
-108.847 -146.447 543.783 62 62 58
-410.057 -277.028 1155.99 106 82 64
441.028 -253.458 1219.5 227 201 185
455.737 -220.483 1157.26 107 112 115
540.515 -126.684 1118.73 93 78 80
-256.979 -131.41 1170 143 150 142
-207.562 -114.21 1096.85 105 119 114
-207.562 -114.21 1096.85 105 119 114
-287.356 -113.596 1164.52 43 32 22
-199.347 -79.8206 1058.71 43 62 70
-199.347 -79.8206 1058.71 43 62 70
472.315 -41.9408 1184.69 101 85 64
704.12 -43.0856 1265.99 247 250 239
388.031 -13.0887 1118.48 74 50 35
388.031 -13.0887 1118.48 74 50 35
-213.654 -7.76357 941.478 210 131 105
419.86 19.7761 1197.41 55 34 34
-297.085 37.1258 936.048 126 91 87
539.367 60.0728 1221.46 255 248 224
-297.021 43.3743 972.604 255 247 242
543.072 70.7192 1248.51 163 155 109
-265.23 57.4355 962.216 211 144 118
-198.062 87.4629 975.738 100 52 35
480.294 117.342 1227.28 210 212 185
480.294 117.342 1227.28 210 212 185
460.796 123.425 1256.73 94 96 83
-185.668 95.5959 992.15 66 23 9
-185.668 95.5959 992.15 66 23 9
-93.1168 121.587 1031.22 239 234 224
-175.516 124.289 1024.6 244 213 188
-115.348 140.018 1042.15 137 134 112
-89.5519 146.035 1018.08 183 115 79
526.538 236.301 1543.45 137 152 146
-311.392 237.582 1026.23 250 253 248
-253.448 242.484 1036.69 248 253 251
564.669 352.927 1461.83 2 20 34
-121.138 284.323 1125.16 249 254 249
-159.994 267.29 1043.52 79 72 57
-292.454 294.218 1050.57 255 249 252
-20.2401 395.043 1319.2 37 32 28
-29.7024 -29.8576 90.0158 154 156 151
-29.7024 -29.8576 90.0158 154 156 151
-157.366 -189.335 766.939 99 79 58
451.045 -224.444 1092.88 72 43 33
530.667 -116.883 1226.93 89 62 52
-217.615 -98.9303 1162.7 126 120 120
-217.615 -98.9303 1162.7 126 120 120
429.016 -86.8136 1114.39 254 251 250
402.92 -57.1735 1170.24 65 42 44
-299.209 -6.76905 972.961 197 174 149
-299.209 -6.76905 972.961 197 174 149
-205.453 15.7253 963.988 205 139 105
-91.4288 23.534 996.237 135 85 44
-217.802 29.215 975.407 80 22 20
-123.128 32.8498 1003.83 162 96 69
577.208 47.0866 1232.9 255 255 244
720.615 61.1643 1277.41 65 62 38
-168.256 44.2185 992.29 199 136 101
-168.256 44.2185 992.29 199 136 101
-191.558 55.4834 1005.78 254 241 225
-249.611 64.9983 963.933 254 249 242
-249.611 64.9983 963.933 254 249 242
682.098 99.2424 1357.75 252 254 242
682.098 99.2424 1357.75 252 254 242
-178.034 71.161 994.899 255 218 197
641.384 98.4856 1222.26 252 255 244
-277.163 78.1212 970.025 164 79 63
-350.272 132.972 1024.69 254 252 254
-176.245 166.637 1006.24 84 56 39
-320.556 175.561 988.904 252 252 236
521.323 250.838 1370.41 28 54 93
521.323 250.838 1370.41 28 54 93
544.133 337.261 1478.01 40 61 89
-305.094 264.249 1069.1 138 101 101
-221.231 273.559 1088.13 166 117 103
-293.709 273.346 1066.93 247 249 250
-293.709 273.346 1066.93 247 249 250
-242.388 311.894 1057.49 254 247 236
-275.294 439.098 1196.81 26 31 29
-91.9909 -60.3009 166.4 143 157 151
-125.344 -144.706 468.827 122 132 124
342 -196.979 1152.65 12 12 10
405.072 -95.3561 1102.94 255 252 251
607.469 -79.4552 1158.06 251 251 240
-165.647 -16.4942 961.489 61 19 11
-239.488 29.3572 954.957 192 101 64
-308.682 43.9024 938.908 219 223 211
475.601 80.1372 1249.64 158 160 131
-64.2046 137.804 1005.85 197 130 89
-53.3779 183.284 1096.95 255 252 240
-200 226.866 1033.52 250 245 240
-127.253 324.881 962.025 250 251 248
-270.604 371.244 1065.79 95 70 59
-41.7014 -136.621 400.5 82 86 77
-193.483 -119.406 416.381 81 77 66
-193.483 -119.406 416.381 81 77 66
611.475 -62.6357 1198.56 155 147 110
611.475 -62.6357 1198.56 155 147 110
-345.054 -7.31159 933.428 100 79 60
429.888 36.6203 1185.45 248 247 246
429.888 36.6203 1185.45 248 247 246
556.9 60.9531 1241.69 242 235 214
-301.485 220.765 1027.66 137 64 47
-232.428 226.798 1046.22 248 247 234
552.836 316.451 1385.26 167 203 197
-293.203 237.756 1029.81 198 198 204
-110.899 355.445 1152.79 141 124 82
-242.128 373.441 1106.83 49 48 44
-334.16 -313.525 953.712 138 147 140
-226.049 -158.026 508.484 132 150 142
340.474 -220.319 1183.73 156 152 157
542.356 -126.823 1107.01 95 86 88
479.602 -72.3851 1137.91 106 84 78
-341.163 71.0677 943.976 222 213 202
573.984 111.916 1255.19 230 235 211
-198.609 92.4918 1019.81 108 69 61
-248.254 122.626 1038.93 219 192 164
-187.004 121.065 1009.03 97 33 22
-187.004 121.065 1009.03 97 33 22
-187.004 121.065 1009.03 97 33 22
-187.004 121.065 1009.03 97 33 22
-275.299 127.443 989.598 225 182 146
-233.598 191.734 1072.5 238 233 223
-251.314 195.681 1030.55 234 212 189
-254.156 223.79 1051.33 164 119 107
605.797 335.795 1408.7 187 219 215
605.797 335.795 1408.7 187 219 215
-238.81 267.346 1050.72 104 74 60
-267.354 312.384 1076.93 221 216 213
-267.354 312.384 1076.93 221 216 213
-297.113 -214.846 691.325 132 150 142
-168.404 -139.222 479.32 127 134 127
509.322 -174.076 1094.6 74 63 62
406.124 -85.4679 1103.54 245 246 247
654.859 -85.851 1168.05 245 254 243
-181.576 58.4067 980.956 253 241 228
-173.326 157.762 1014.79 129 100 92
-116.589 247.272 1131.28 253 255 253
-221.658 236.068 1034.62 247 232 227
-170.338 10.1566 981.792 252 239 224
-170.338 10.1566 981.792 252 239 224
-264.501 79.2181 975.179 190 105 81
-330.907 111.932 986.395 252 255 253
487.217 208.859 1595.55 135 125 115
-61.0266 181.613 1082.13 218 214 176
-213.788 -174.714 730.922 82 60 42
374.495 -164.642 934.328 37 35 37
319.2 -199.822 1274.89 67 61 46
-126.531 -44.1749 1001.57 226 196 151
-200.939 -5.50077 970.321 217 160 133
-231.833 57.245 966.356 248 227 217
533.032 80.3455 1219.38 253 247 220
7.16113 516.248 1342.8 180 180 173
542.772 -171.827 1162.87 67 46 39
-149.717 291.251 1228.3 199 202 200
495.983 145.219 1497.52 62 51 45
-208.665 130.962 1024.16 59 26 5
