66.6333 -442.925 2112.74 192 179 157
-524.205 -128.302 1165.15 44 44 45
321.276 -204.88 1737.14 126 108 104
386.944 -187.05 1684.15 159 145 139
206.999 -146.122 1801.1 105 117 93
-46.2685 -10.9608 -153.13 214 195 171
463.325 -64.2426 1838.42 180 180 142
223.227 -52.0483 1701.12 117 116 92
313.193 -50.3079 1644.33 40 17 2
437.191 25.0359 1801.5 125 106 93
-224.85 114.421 1163.26 43 1 0
142.61 186.116 1672.08 57 48 33
445.372 256.11 2049.69 37 27 18
271.172 285.77 1856.78 41 57 62
414.37 364.545 1986.85 188 211 205
41.5335 243.696 1239.93 184 150 137
-111.807 275.17 1109.15 47 18 6
-15.3322 296.408 1176.53 254 235 227
-15.3322 296.408 1176.53 254 235 227
39.9635 301.027 1155.11 253 254 243
-29.8821 318.815 1152.08 148 132 137
-172.75 375.618 1212.88 59 23 14
-116.007 396.078 995.572 174 172 157
80.9191 610.279 1380.87 238 240 235
15.1792 410.051 871.44 207 230 218
-9.71727 657.332 1331.37 149 188 172
-275.796 -328.267 1684.32 32 15 12
-577.242 -165.294 1232.45 138 143 138
-111.927 30.6059 -352.524 96 100 91
395.878 -199.15 1690.82 67 64 57
205.57 -145.387 1791.51 105 117 93
-41.007 -16.8324 -157.095 130 119 109
452.972 -27.8582 1840.21 254 251 236
-46.9296 44.9389 1163.61 239 222 197
-185.368 89.105 1124.78 90 45 30
-62.804 100.027 1095.89 158 144 142
472.207 177.01 1882.36 172 150 122
276.661 194.265 1884.03 135 140 117
461.029 207.921 1931.98 147 129 103
-129.841 135.591 1085.92 156 138 128
-129.841 135.591 1085.92 156 138 128
10.5322 162.279 1244.39 255 245 224
10.5322 162.279 1244.39 255 245 224
335.143 280.543 1881.65 99 126 133
39.4329 191.344 1241.67 254 248 228
44.9587 214.724 1269.58 254 253 249
436.035 354.494 1952.89 171 192 189
321.943 357.249 1897.35 92 120 114
76.3864 256.799 1328.87 254 252 243
76.3864 256.799 1328.87 254 252 243
-74.3228 218.452 1079.33 88 62 54
-85.2855 242.992 1104.01 218 171 147
396.951 450.364 2006.16 168 196 191
-119.035 285.96 1127.64 138 121 105
63.577 378.274 1314.63 250 254 235
-38.6033 330.923 1143.9 151 103 98
-38.6033 330.923 1143.9 151 103 98
-32.947 340.916 1152.86 254 249 248
-73.6423 368.523 1118.62 147 100 72
-40.8345 450.645 1175.95 65 49 40
-12.0608 475.16 1210.49 152 130 118
-62.0044 514.996 1234.76 35 24 16
205.812 -170.554 1743.44 187 167 162
198.14 -144.446 1631.49 92 94 62
482.466 -141.188 1890.67 122 116 99
351.36 -60.18 1667.8 253 251 251
-81.7284 -10.7282 1234.78 168 161 159
-81.7284 -10.7282 1234.78 168 161 159
-28.4294 -11.129 1309.16 169 165 155
59.4297 61.6697 1277.65 255 235 209
332.479 121.699 1917.07 126 86 54
-71.4453 100.304 1068.96 252 253 245
-51.9514 135.31 1121.71 207 149 139
432.892 247.886 1996.61 37 27 18
33.2543 203.8 1237.8 149 117 100
425.822 378.149 1984.65 249 255 253
302.629 367.533 1909.47 132 158 154
-39.4303 373.998 1163.64 251 250 249
-40.5189 391.862 1143.18 248 250 250
-88.6512 424.72 1192.67 51 35 25
-20.5914 497.568 1208.64 251 249 241
191.276 -481.412 2449.53 155 145 135
-271.185 -152.047 1310.89 93 69 48
382.357 -106.999 1727.8 109 88 76
352.888 -81.0439 1648.91 255 253 247
-206.547 6.31206 1278.08 118 94 85
414.201 236.858 1918.8 51 35 20
405.523 265.297 1928.4 237 246 244
303.38 431.609 1897.16 86 97 92
-26.923 325.718 1163.24 177 128 136
-0.431086 355.099 1236.75 107 80 69
-32.7197 469.107 1166.11 31 23 16
263.433 61.4766 1819.22 114 118 97
-86.1899 65.6577 1050.2 217 194 177
-169.701 106.947 1098.3 49 38 28
-25.6754 187.905 1156.96 255 225 200
56.0667 217.419 1275.58 252 250 255
103.329 245.947 1386.25 255 255 247
-41.2762 236.179 1145.87 243 208 179
8.15242 300.287 1222.15 251 255 250
-48.0784 320.81 1153.86 247 248 251
-56.0391 382.032 1151.48 86 72 70
-483.747 -138.317 1347.31 49 34 21
-573.022 -114.208 1235.96 68 73 73
-839.29 -144.171 1708.82 65 68 68
-25.5572 12.0396 1145.24 135 114 130
-25.5572 12.0396 1145.24 135 114 130
-177.865 78.9472 1118.02 86 65 47
291.499 309.925 1946.69 80 95 107
291.499 309.925 1946.69 80 95 107
7.30961 308.873 1190.42 251 252 254
7.30961 308.873 1190.42 251 252 254
-154.257 365.157 1196.18 145 89 65
1.95689 415.783 1206.42 94 81 81
-25.1056 442.848 1183.41 255 255 253
415.3 -21.4493 1660.94 249 248 238
415.3 -21.4493 1660.94 249 248 238
-116.149 148.904 1094.78 169 121 99
-175.463 231.171 1156.74 157 87 56
-27.684 392.277 1177.24 247 251 250
-459.585 -146.231 1073.29 113 120 113
307.525 19.9778 1738.57 62 51 50
-84.5182 325.32 1139.57 84 42 29
118.891 -384.723 2146.03 183 175 160
-20.1253 -4.14702 770.42 94 136 143
-139.925 368.854 1190.57 153 101 71
-65.1373 436.945 1176.1 51 46 41
-273.349 147.31 1252.83 78 53 39
-114.809 235.669 1136.23 75 60 43
284.395 424.182 2068.58 87 75 66
183.189 138.722 1768.13 71 61 53
348.616 163.194 1762.36 49 39 34
40.449 559.605 1326.52 83 82 81
432.803 3.30566 1743.31 255 253 251
-304.125 -9.15272 1509.59 137 130 111
