563.494 -331.376 2006.42 184 183 175
-160.941 38.562 1020.25 92 75 65
147.874 75.812 1593.25 237 222 219
-93.3699 57.736 943.252 222 190 167
168.117 201.245 1626.16 131 117 94
-222.84 195.289 1023.99 42 3 2
-222.429 212.138 1102.56 116 51 28
-85.4455 283.562 1034.79 164 152 160
-85.4455 283.562 1034.79 164 152 160
-133.12 296.166 1004.84 125 112 108
-136.139 419.394 1052.07 34 24 13
527.115 -324.674 1881.6 67 61 55
143.224 -152.844 1585.96 192 211 213
2.4644 -135.096 1561.61 92 74 63
116.271 -125.874 1523.55 75 70 69
182.101 -75.2406 1612.65 107 106 86
188.02 -48.5873 1659.9 150 128 105
128.9 -30.5874 1566.32 26 11 3
182.49 45.0058 1716.23 144 123 120
-154.523 84.7623 946.075 134 103 94
-60.6746 92.7723 1028.83 248 253 249
-233.13 110.177 1004.39 43 11 7
-24.8595 200.689 1146.61 129 102 84
124.994 308.972 1638.73 231 249 247
-83.4556 185.578 984.916 254 252 253
-94.6852 187.453 948.967 29 4 3
72.871 341.196 1677.92 167 196 189
-89.6656 216.268 1010.47 72 51 60
154.629 401.575 1740.54 229 243 243
123.043 414.991 1705.13 138 161 158
-211.858 272.979 1029.89 51 6 3
-156.212 341.363 1101.05 156 135 129
-58.8728 457.116 1061.63 221 213 195
-36.2018 568.46 1149.02 181 197 188
700.169 -339.339 1942.24 107 107 100
132.955 -119.521 1597.66 150 147 127
41.2305 -98.7916 1476.8 12 14 9
-147.51 1.69396 1163.31 156 154 148
-147.51 1.69396 1163.31 156 154 148
74.2414 133.615 1599.38 112 94 67
-67.0472 114.666 1040.16 243 253 252
136.027 221.645 1554.86 39 23 11
-32.205 225.69 1097.37 255 253 238
-18.6406 244.773 1169.1 190 169 152
-68.3508 362.303 1008.62 254 250 247
-150.536 381.374 1052.23 119 109 87
130.392 213.869 1506.05 43 30 21
-108.535 198.548 983.443 184 146 127
-50.128 277.299 1082.67 147 87 80
-73.5858 309.175 1055.22 253 251 255
-46.6824 395.652 1108.13 91 86 81
-124.395 417.309 1102.05 32 23 18
-48.2361 78.1497 1036.91 216 152 121
-84.4984 125.431 981.734 253 254 249
-58.1892 255.456 1050.38 243 219 200
-143.878 332.267 1040.71 131 117 114
-108.619 133.924 973.695 181 138 110
-4.53709 220.322 1229.77 251 252 248
-172.099 1.35733 1171.2 38 79 88
-179.025 74.0413 945.167 63 36 24
-207.719 42.5276 1024.32 154 129 105
-194.077 220.711 1010.26 142 80 43
-136.762 43.5334 977.162 157 128 105
-102.626 413.67 1049.55 38 34 32
178.772 30.1158 1594.75 255 255 249
-133.243 222.687 1013.74 73 52 36
-46.508 87.338 1106.52 254 215 191
70.7208 139.601 1338.33 73 56 44
70.7208 139.601 1338.33 73 56 44
-213.431 200.146 998.992 103 45 31
