-69.3261 -243.112 708.208 105 98 86
-113.667 -225.668 787.152 149 136 121
4.34458 -181.834 670.546 157 157 152
78.4343 222.897 -960.105 163 168 159
-146.77 -264.764 1191.51 90 82 81
23.604 104.836 -465.39 56 64 59
555.863 -212.738 1213.88 155 145 127
-606.673 -395.555 2722.32 93 79 59
507.47 -201.32 1399.81 118 122 107
-449.036 -93.6237 827.2 68 27 16
628.371 -115.438 1346.05 250 250 250
640.884 -113.708 1351.5 67 67 62
652.004 -101.064 1379.7 179 178 153
705.479 -88.6743 1434.52 255 246 225
613.577 -71.1452 1412.56 175 136 118
512.202 -54.2636 1423.06 92 90 74
630.32 -48.1701 1409.16 235 223 220
630.32 -48.1701 1409.16 235 223 220
630.32 -48.1701 1409.16 235 223 220
782.861 -45.8089 1487.78 173 148 128
739.922 -10.3989 1463.2 255 246 238
94.0529 3.45501 1175.25 255 254 242
799.132 14.3356 1479.07 250 252 248
806.253 55.7415 1492.87 254 255 228
803.394 70.4885 1524.77 247 246 226
831.793 137.238 1571.73 254 254 243
-83.861 97.5955 1071.84 253 237 227
24.4356 100.957 1105.7 253 251 217
72.3219 129.9 1161.15 130 78 63
92.7171 130.485 1169.56 254 235 205
85.6253 145.102 1159.66 244 223 199
-101.394 141.293 1082.39 96 57 41
73.7877 158.455 1150.86 255 246 230
761.944 225.927 1622.89 219 255 255
838.721 268.52 1616.91 148 162 162
934.792 330.901 1819.51 70 92 98
-62.3048 210.386 1093.62 140 113 93
235.099 316.447 1322.12 239 219 201
145.273 409.115 1313.82 96 77 74
24.3754 375.309 1182.64 47 44 42
-21.0285 379.263 1189.57 255 244 229
25.9216 419.813 1151.94 5 8 7
-17.6923 461.985 1252.33 181 165 147
207.277 512.856 1346.81 229 227 219
-248.545 -202.846 560.97 43 53 44
-264.207 -201.642 668.172 162 167 154
651.127 -245.392 1398.64 140 140 124
-303.913 -84.4471 495.094 133 130 122
-303.913 -84.4471 495.094 133 130 122
-465.421 -169.582 1301.88 176 161 141
-356.126 -106.443 854.861 54 59 62
-378.553 -131.503 1062.54 82 60 45
723.935 -174.35 1486.69 133 102 97
-550.954 -108.328 1031.79 115 100 87
682.746 -145.778 1428.12 253 251 251
-145.734 -34.2882 325.552 164 160 128
652.888 -108.787 1398.23 111 95 93
-118.939 -24.2784 1155.59 89 84 73
105.01 -12.9696 1153.75 255 236 210
757.402 11.9557 1423.82 159 162 152
1020.55 4.1291 1756.14 131 135 129
913.576 12.7427 1537.66 126 127 113
52.6821 12.8465 1076.91 225 158 133
798.313 85.0264 1558.96 196 180 160
798.313 85.0264 1558.96 196 180 160
-27.4632 66.7838 1080.86 254 254 249
161.757 85.812 1166.21 255 253 235
-126.589 97.6221 1047.53 162 121 102
738.983 164.709 1543.99 86 84 72
62.5234 122.15 1131.87 255 243 220
631.933 192.038 1611.08 41 52 52
683.661 224.58 1685.65 26 46 49
109.826 187.405 1194.86 254 253 253
106.398 199.538 1198.71 167 134 120
106.398 199.538 1198.71 167 134 120
129.519 203.528 1167.66 247 255 236
852.522 317.718 1656.02 235 253 252
-18.4663 237.214 1082.9 211 99 81
-50.5729 254.252 1130.4 247 252 241
19.587 281.101 1146.26 251 246 240
-38.086 285.275 1146.8 229 224 229
-8.90535 335.388 1144.93 255 253 254
45.365 413.29 1217.74 91 70 70
28.8176 420.577 1178.12 249 247 234
-262.088 -212.536 640.416 128 141 133
-5.66733 254.259 -1138.78 151 123 92
-373.01 -231.462 1054.94 149 148 139
-209.167 -180.024 880.818 153 153 146
51.1362 148.498 -745.516 149 120 96
504.142 -229.488 1447.01 87 96 73
700.094 -202.378 1345.7 103 86 72
672.327 -184.949 1367.52 156 164 148
596.284 -170.869 1312.75 131 129 115
638.268 -149.097 1373.77 254 248 250
638.268 -149.097 1373.77 254 248 250
879.591 -158.792 1553.01 248 254 228
627.72 -95.4213 1372.7 247 242 236
740.238 -25.8269 1441.12 93 77 65
740.238 -25.8269 1441.12 93 77 65
-213.875 -14.4623 1295.26 57 33 24
788.971 -10.7441 1473.65 255 251 245
-39.985 -0.749734 1068.12 221 204 177
17.7949 19.7418 1092.19 244 186 157
672.747 28.6499 1414.99 175 169 145
-58.4197 20.3819 1052.28 179 93 87
20.6724 32.5377 1110.08 223 130 96
165.744 44.0438 1184.48 149 102 69
-72.7224 53.83 1046.59 223 229 230
-34.8636 56.8896 1073.9 194 132 128
-50.0512 76.2195 1059.36 207 215 213
663.497 92.1221 1247.39 129 119 99
-11.5818 85.3789 1076.09 199 116 102
25.6287 90.358 1135.64 218 135 105
-24.3297 88.7348 1083.86 255 243 224
103.562 145.798 1177.79 255 248 233
93.4754 151.735 1143.6 138 99 77
-56.1782 184.444 1024.41 254 253 234
68.5318 219.886 1160.87 254 247 240
68.5318 219.886 1160.87 254 247 240
9.18683 234.229 1130.9 110 68 54
-7.64907 238.4 1122.48 217 132 111
234.409 283.581 1290.11 200 155 125
-58.1207 261.451 1124.6 72 30 31
153.768 293.417 1230.82 254 254 247
26.468 344.206 1172.39 249 255 242
86.8313 522.764 1216.81 30 31 26
3.5485 95.3557 -324.304 151 144 130
-243.864 -162.611 844.859 137 137 135
-626.214 -145.121 1008.09 60 66 55
-500.628 -113.908 1003.02 59 33 20
663.29 -153.654 1424.29 252 249 251
783.904 -111.857 1453.92 254 253 248
685.1 -56.3855 1410.54 251 252 252
93.7504 -25.0744 1124.95 83 30 17
-145.302 -11.7472 1083.27 171 149 124
791.728 -11.3359 1477.03 251 252 249
779.45 57.9791 1478.08 251 254 249
779.45 57.9791 1478.08 251 254 249
143.294 137.536 1231.64 247 219 190
-136.285 223.087 1285.95 106 68 48
74.6212 207.396 1177.09 246 197 191
642.25 320.552 1579.97 65 70 65
772.92 356.579 1638.7 129 166 178
-1.53893 251.217 1127.34 254 255 250
-58.22 254.218 1093.89 91 49 42
228.019 299.139 1282.84 239 213 192
165.568 373.896 1277.94 163 144 105
77.434 406.66 1183.35 252 251 252
-7.58878 435.976 1226.67 77 71 64
-196.021 -151.452 529.274 81 74 68
30.524 -121.437 474.909 62 42 24
30.524 -121.437 474.909 62 42 24
533.642 -230.038 1378.31 15 15 14
-179.148 39.4326 1186.08 107 68 47
50.0549 48.5779 1112 253 255 254
-23.8613 93.0458 1084.78 253 253 252
67.3718 154.001 1162.91 244 222 199
133.401 190.028 1190.89 191 160 135
133.401 190.028 1190.89 191 160 135
64.5379 188.198 1156.56 255 253 252
-31.2454 245.143 1125.12 150 69 42
31.2752 294.295 1165.65 125 96 81
31.2752 294.295 1165.65 125 96 81
31.2752 294.295 1165.65 125 96 81
-40.936 324.824 1144.38 97 77 73
10.2662 332.697 1141.73 248 247 249
31.3334 396.864 1171.77 75 66 65
167.66 423.209 1148.26 83 79 70
-282.019 -194.991 714.269 92 88 77
-24.4877 -19.5823 60.2048 86 79 67
-418.184 -264.776 1155.09 99 95 83
-405.433 -110.055 643.855 132 150 140
655.118 -144.287 1401.92 246 245 251
694.782 -126.633 1401.62 93 79 67
89.3186 -74.3735 1104.25 61 91 107
772.247 1.4915 1499.44 228 213 194
-96.2777 20.8484 1035.62 207 180 144
4.7135 36.1745 1094.78 235 150 126
902.542 56.0636 1544.23 141 162 125
-18.6735 41.2326 1079.96 255 251 250
68.2596 94.7995 1140.77 116 67 56
68.2596 94.7995 1140.77 116 67 56
79.0122 129.335 1161.04 172 109 83
79.0122 129.335 1161.04 172 109 83
28.2245 125.663 1119.84 253 220 200
-7.09094 140.531 1109.01 238 195 163
125.384 168.346 1182.98 251 252 242
16.2596 217.66 1161.84 254 233 213
18.2511 240.761 1149.02 158 99 88
-37.7341 278.037 1166.32 219 212 203
305.65 -293.377 1078.38 48 38 28
-341.37 -247.146 956.749 139 144 139
-341.37 -247.146 956.749 139 144 139
-527.486 -145.164 851.763 128 147 137
761.433 -44.4929 1453.15 173 148 128
-88.2987 175.251 1139.23 131 104 80
47.5998 260.957 1171.65 253 254 251
47.5998 260.957 1171.65 253 254 251
-2.67534 386.734 1158.19 249 241 231
-221.654 -129.709 684.979 99 76 61
-221.654 -129.709 684.979 99 76 61
30.7602 62.0535 1117.25 255 251 244
-105.75 61.5595 1094.46 76 45 33
-66.0038 130.777 1089.19 253 249 250
36.8465 311.862 1172.36 148 119 109
-241.575 -107.446 755.998 152 132 107
-241.575 -107.446 755.998 152 132 107
-486.585 -111.291 1085.05 75 63 45
61.8043 -9.91567 1126.94 255 186 166
756.92 -2.40559 1373.7 253 254 254
756.92 -2.40559 1373.7 253 254 254
648.941 169.148 1784.5 157 150 139
-25.4998 -155.631 534.678 138 137 134
643.084 -316.605 1513.57 101 131 140
454.653 -194.015 1415.96 54 50 40
665.018 296.42 1706.63 80 74 67
24.5913 -63.9139 1146.35 64 101 110
599.472 383.518 1666.39 206 207 196
63.4687 24.9342 1129.61 199 165 155
85.348 140.131 1182.57 113 67 41
85.348 140.131 1182.57 113 67 41
85.348 140.131 1182.57 113 67 41
