-275.241 -67.3454 431.25 180 179 171
184.793 -113.47 1742.7 179 189 176
197.808 -106.754 1743.46 26 10 2
-40.8202 42.9983 1037.8 253 238 215
515.56 174.648 2362.39 254 255 231
303.715 210.353 1796.42 94 84 75
303.715 210.353 1796.42 94 84 75
4.35831 144.331 966.525 255 248 230
205.421 336.03 1982.49 32 61 56
13.1972 270.049 991.754 251 243 228
-120.032 386.124 1159.52 34 22 15
-82.384 399.067 1190.34 159 106 83
-220.445 518.232 1321.33 16 7 3
-141.188 427.781 1055.36 216 209 198
-174.643 633.679 1534.77 41 42 39
-345.901 -82.3751 568.775 141 148 147
-413.461 -94.0311 712.393 38 40 36
256.542 -186.706 1803.27 202 213 213
295.915 -28.8135 1690.36 255 252 244
27.6007 63.2189 1237.95 250 255 242
-194.683 83.3025 1121.89 195 167 162
212.923 138.196 1715.59 79 29 13
212.923 138.196 1715.59 79 29 13
-64.2285 103.087 1075.98 249 255 249
-215.644 107.7 1096.05 60 13 0
-86.1747 125.004 1034.57 229 165 139
-125.192 134.688 1078.65 174 158 147
22.4217 203.681 1207.1 143 111 109
53.9887 266.613 1312.22 255 249 239
53.9887 266.613 1312.22 255 249 239
-72.2323 219.161 1077.66 88 72 69
-201.281 267.235 1182.87 65 17 12
-163.881 417.317 1178.67 198 149 124
389.576 -95.9711 1839.37 127 123 113
328.604 -54.2692 1820.92 255 251 253
-95.8108 -5.80733 1300.13 133 124 130
-95.8108 -5.80733 1300.13 133 124 130
-49.5194 63.6603 1063.78 195 128 103
226.193 137.16 1696.46 153 117 97
409.663 184.836 1907.4 170 162 136
186.713 210.769 1752.72 107 122 100
16.6757 179.881 1249.34 171 125 101
260.761 352.707 2081.49 172 200 197
76.4732 245.888 1324.29 255 252 248
-93.9233 211.245 1100.48 210 161 150
323.691 399.696 1940.33 243 254 251
-128.015 403.096 1170.03 135 120 99
-49.702 446.303 1148.79 35 26 25
-3.53208 484.688 1233.56 254 254 248
-32.1409 504.888 1205.14 242 240 228
198.956 -125.8 1716.97 22 18 13
-231.046 8.75806 1342.66 63 65 68
-231.046 8.75806 1342.66 63 65 68
-36.7369 144.328 1124.1 243 237 239
124.308 307.943 1279.16 55 62 54
-45.6935 296.515 1132.59 185 99 80
-121.05 337.252 1117.88 160 144 136
-45.184 397.988 1140.87 249 252 250
222.332 65.0926 -411.916 138 141 135
-8.81858 126.468 1166.6 255 253 255
347.375 271.172 2000.7 74 55 48
-3.13555 175.758 1197.89 249 232 213
298.03 275.591 1801.11 239 248 245
41.9407 221.509 1259.36 254 255 254
344.056 341.708 1896.1 252 255 249
-144.258 313.466 1178.85 50 30 20
-1.14999 322.049 1202.63 254 255 255
-1.14999 322.049 1202.63 254 255 255
54.1333 363.21 1301.83 242 248 245
-50.4041 323.087 1139.9 255 251 254
-61.7501 383.987 1142.45 77 35 31
-10.8539 419.223 1200.63 88 76 78
-696.396 -110.251 1228.63 62 70 70
224.92 -166.39 1802.19 192 175 165
-165.284 104.944 1082.96 53 36 28
-68.6847 129.173 1065.89 254 250 249
245.947 402.545 2305.85 77 98 111
356.591 -152.995 1789.52 94 87 81
284.78 224.131 1682 61 55 50
-111.233 147.269 1072.68 177 129 110
-111.233 147.269 1072.68 177 129 110
-170.183 297.667 1150.06 143 110 79
-170.183 297.667 1150.06 143 110 79
-35.6118 389.383 1146.24 241 237 234
-367.334 -89.7631 671.646 108 120 113
-367.334 -89.7631 671.646 108 120 113
-179.431 230.975 1149.46 166 102 71
-33.7461 9.33846 1200.99 57 105 110
407.561 128.379 1981.47 230 225 201
-87.069 318.95 1102.88 83 38 32
-73.944 429.201 1127.54 53 45 39
-115.568 234.047 1123.96 75 65 45
-72.8274 404.728 1065.43 41 30 24
-465.294 -98.1944 741.606 123 135 127
253.732 -85.6521 1721.73 57 50 45
-103.559 90.2107 944.474 60 36 31
-270.458 139.705 1189.29 83 54 43
-230.22 387.07 1230.54 81 67 57
162.383 123.973 1338.24 79 53 26
-10.3928 106.858 1168.84 255 247 255
