857.587 -382.139 1500.37 142 150 144
-226.025 -126.878 552.186 168 169 164
-291.576 -172.163 762.675 66 67 55
521.651 -280.47 1698.4 204 234 235
425.588 -269.094 1713.3 114 107 103
375.927 -241.812 1546.46 124 103 93
402.541 -273.438 1794.93 235 215 208
464.36 -236.058 1603.59 156 144 130
464.36 -236.058 1603.59 156 144 130
509.191 -206.781 1683.61 211 199 187
-1017.99 -267.48 2384.73 143 126 102
520.985 -142.268 1629.46 139 143 121
106.591 -86.053 1297.83 253 245 227
106.591 -86.053 1297.83 253 245 227
-446.079 -30.2394 610.513 93 86 59
432.307 -56.3335 1663.29 63 43 31
404.046 -40.4585 1664.32 147 122 119
115.452 64.4691 1362.16 255 239 219
485.734 90.0657 1795.86 162 150 131
-140.457 65.3851 998.873 196 158 138
102.57 93.168 1281.9 249 246 229
394.13 247.493 1930.27 24 47 52
27.5371 161.409 1287.27 255 248 235
61.9186 172.833 1279.33 103 74 63
-16.554 369.808 1239.17 72 58 42
17.9101 356.995 1065.03 13 17 14
104.223 536.481 1437.84 40 40 32
1167.83 -357.503 1538.65 121 133 126
-699.233 -263.141 1325.03 121 115 103
-198.102 -90.425 501.873 146 154 150
425.729 -286.626 1758.93 194 202 205
431.128 -243.211 1646.36 86 92 85
465.25 -230.67 1681.55 53 35 28
571.034 -123.057 1831.28 187 182 159
-44.2793 -85.3929 1388.78 167 158 158
468.272 -53.3506 1677.42 254 249 253
468.272 -53.3506 1677.42 254 249 253
-17.797 -19.5491 1288.47 239 219 201
-194.512 39.3615 1158.23 78 28 7
-194.512 39.3615 1158.23 78 28 7
-20.4439 55.2314 1157.22 255 255 240
-81.2995 149.615 1147.29 226 182 166
569.704 286.37 2018.16 243 255 255
-53.2969 205.397 1167.22 131 105 91
-96.8419 247.197 1209.15 43 25 10
-96.8419 247.197 1209.15 43 25 10
954.473 -372.533 1405.4 74 82 78
-218.541 -99.4921 457.1 141 144 135
326.021 -259.245 1694.19 119 87 78
-1013.51 -296.862 2353.54 134 112 79
422.448 -150.638 1544.27 87 71 63
500.934 -153.564 1728.28 213 201 179
533.022 -31.5482 1786.12 131 123 103
-280.906 -17.9919 1309.02 78 59 40
-24.5821 -15.4862 1160.92 255 251 224
-52.6361 41.8975 1106.56 253 255 247
501.397 133.001 1751.8 130 115 93
372.372 206.388 1747.01 152 180 175
385.549 361.208 1889.31 64 77 74
-28.6754 341.378 1206.23 253 253 242
446.826 -157.879 1621.71 94 77 73
435.334 -136.337 1618.03 255 254 250
-166.855 -74.0214 1358.5 68 44 35
-166.855 -74.0214 1358.5 68 44 35
558.446 -56.2967 1871.96 138 119 103
-15.9761 84.5694 1193.17 255 252 251
-15.6418 85.2162 1230.47 255 252 251
-33.5107 95.6917 1175.87 253 251 255
491.7 199.777 1918.65 230 240 237
507.748 299.466 1860.51 247 254 250
-29.0253 239.191 1191.21 177 88 72
13.9416 404.062 1272.2 81 70 64
13.9416 404.062 1272.2 81 70 64
48.964 -80.1555 1268.17 67 83 99
-68.8387 7.11176 1102.37 213 195 174
-12.5078 28.7895 1170.56 244 255 255
-105.134 148.426 1197.07 77 55 30
89.143 160.519 1310.26 250 253 254
8.23168 232.895 1227.85 167 107 86
8.23168 232.895 1227.85 167 107 86
117.859 307.052 1416.35 251 255 255
-34.4802 269.571 1221.24 251 248 245
-28.1476 300.463 1223.1 246 255 255
-46.1576 337.8 1256.95 72 48 40
-513.569 -202.194 1303.71 67 68 64
-651.254 -129.851 979.149 80 93 85
-651.254 -129.851 979.149 80 93 85
-651.254 -129.851 979.149 80 93 85
160.063 48.1931 -314.41 123 141 132
7.95082 -49.1147 1229.08 164 144 136
0.546562 72.6339 1180.28 240 143 123
115.541 305.712 1401.9 249 254 254
-111.655 -253.127 1436.34 49 47 34
-507.403 -83.2364 729.479 126 144 134
-69.5228 -88.3621 1410.09 61 87 94
-69.5228 -88.3621 1410.09 61 87 94
-51.982 121.389 1145.93 252 254 253
-155.653 161.699 1204.98 158 92 56
-15.3508 341.672 1247.71 255 253 251
-758.002 -100.784 1004.97 75 68 58
-164.174 -27.0917 1221.73 156 134 107
253.554 -395.207 1766.56 178 174 162
-124.376 305.207 1253.41 163 113 81
-54.4027 377.235 1227.89 53 46 43
-97.1756 171.03 1177.49 82 61 42
380.309 -172.267 1624.5 58 49 41
380.309 -172.267 1624.5 58 49 41
265.067 -179.459 1878.93 62 57 36
54.8731 498.536 1355.88 71 70 67
464.973 -501.44 2417.86 183 183 174
-54.0074 560.531 1476.7 48 47 43
300.789 21.9784 1533.23 77 92 61
300.789 21.9784 1533.23 77 92 61
