387.104 -172.397 965.749 16 11 7
-1329.03 -353.093 2348.91 146 155 145
-528.835 -197.205 1451.56 44 41 27
-369.503 -117.785 1412.19 82 81 73
-317.406 -93.7909 1218.34 179 178 158
286.944 -56.765 892.491 208 192 189
87.6654 -50.7964 983.459 38 40 38
-367.103 -47.2049 1188.38 189 178 164
-310.955 -43.3219 1253.42 32 13 3
219.261 11.1188 916.31 211 203 181
-422.955 37.9525 1139.7 255 230 206
180.113 41.3204 943.753 233 207 186
-566.265 73.1069 1229.24 165 167 166
-372.304 97.0344 1150.39 182 117 97
117.652 96.6888 1006.64 255 247 241
266.276 159.439 993.149 182 154 145
-246.342 183.064 1043.69 47 25 9
-424.897 310.364 1226.67 243 243 220
-213.993 351.314 1365.6 212 222 214
-204.34 590.126 1465.73 126 139 132
-549.012 -249.122 1371.16 72 72 65
192.894 -163.766 1160.15 71 70 61
-1075.23 -233.784 1784.6 190 196 187
-1075.23 -233.784 1784.6 190 196 187
181.045 -111.884 1043.86 244 239 239
114.815 -86.8531 1036.44 50 56 53
243.693 -69.857 930.073 26 41 41
288.561 -64.735 886.244 23 28 16
-288.491 -68.9741 1226.72 99 76 58
143.669 -51.0222 924.578 193 179 150
-290.298 -43.8273 1232.28 130 107 85
-301.043 -32.6392 1274.38 105 86 60
358.137 -13.7326 870.634 232 227 210
252.908 -1.23806 921.531 239 231 218
229.198 1.45855 943.975 79 64 50
90.6765 16.9217 954.884 79 72 70
-312.264 42.1725 1191.93 43 28 20
-492.521 57.6828 1164.07 206 135 109
215.381 54.5419 956.662 105 86 68
215.381 54.5419 956.662 105 86 68
-333.416 80.6054 1115.74 254 254 213
-375.959 88.2301 1164.03 255 252 231
114.239 83.3788 1013.99 254 252 242
187.314 83.5265 1002.52 235 213 193
222.807 94.6213 980.245 183 189 144
-312.233 203.809 1252.39 108 64 49
378.421 162.869 962.745 133 165 129
219.151 189.551 1024.05 118 94 80
-486.641 330.74 1385.07 244 246 233
-279.891 324.087 1288.51 242 228 215
386.334 280.277 1062.81 255 255 234
383.234 276.598 1029.64 172 170 155
-238.936 366.202 1282.32 126 109 92
348.343 473.418 1246.66 138 153 153
430.82 477.744 1218.18 83 97 109
430.82 477.744 1218.18 83 97 109
-743.499 -265.125 1518.5 161 165 159
317.225 -124.175 974.184 138 169 175
275.673 -87.4921 918.128 47 76 64
275.673 -87.4921 918.128 47 76 64
127.374 -76.5739 999.251 157 131 104
136.041 -61.4297 965.541 25 26 19
-251.885 -15.5573 1319.58 26 14 12
174.278 3.90417 951.486 81 68 42
-585.498 23.2436 1148.71 241 235 217
-434.733 26.6464 1149.91 91 33 14
-319.844 37.5796 1172.34 173 160 137
275.774 27.8938 930.034 99 81 72
145.384 100.853 1033.76 138 98 81
182.684 107.017 1001.89 254 244 208
182.684 107.017 1001.89 254 244 208
353.855 101.939 964.742 55 56 41
-324.7 120.422 1095.57 193 134 100
-220.339 186.591 1357.45 51 23 12
198.821 136.194 1004.74 219 210 217
198.821 136.194 1004.74 219 210 217
226.134 177.358 1036.4 107 71 64
226.134 177.358 1036.4 107 71 64
-188.089 313.005 1421.59 197 187 164
-185.111 325.357 1393.65 18 17 11
207.564 252.624 1072.53 228 232 201
207.564 252.624 1072.53 228 232 201
-366.774 359.619 1295.41 178 195 160
420.869 394.64 1148.88 82 96 138
515.168 440.173 1212.73 80 108 118
492.725 457.93 1190.95 49 77 84
553.193 512.456 1275.26 120 127 126
-747.847 -266.499 1529.29 162 166 160
-727.503 -161.704 1216.43 95 96 81
-334.011 -29.6714 1157.5 62 52 42
-452.347 -13.1225 1137.28 54 55 54
-268.431 17.5259 1294.19 168 140 121
-231.876 81.9345 1430.27 25 24 19
-238.266 83.4756 1338.76 159 154 145
-238.266 83.4756 1338.76 159 154 145
-571.969 81.768 1182.7 253 253 250
-524.058 95.2346 1203.2 204 135 125
-529.579 102.565 1180.91 249 242 230
-529.579 102.565 1180.91 249 242 230
384.909 92.2534 939.537 167 188 148
187.668 117.567 1000.64 175 112 97
172.598 124.722 979.572 255 250 240
-189.655 317.24 1441.17 197 187 164
362.712 300.231 1056.88 104 94 62
319.177 -138.121 998.998 62 92 95
319.177 -138.121 998.998 62 92 95
152.67 -137.45 1101.39 73 78 67
152.67 -137.45 1101.39 73 78 67
245.158 -118.718 997.274 201 182 167
292.522 -100.59 922.072 71 69 68
-968.511 -91.1582 1806.83 170 176 165
-345.951 -13.7616 1138.09 64 43 35
316.531 78.2604 922.606 251 251 228
-350.597 143.948 1156.96 240 242 232
-350.597 143.948 1156.96 240 242 232
257.249 119.721 971.898 232 215 215
-434.36 157.036 1202.46 133 77 37
152.574 167.549 1044.98 243 244 245
298.357 217.99 1024.36 187 180 172
-275.8 286.845 1276.18 107 77 67
-444.707 372.198 1291.68 94 90 76
487.834 451.852 1215.16 171 209 209
-833.596 -179.556 1861.62 83 79 63
95.6933 -52.2338 984.246 76 63 49
-287.559 10.8921 1240.16 52 45 36
104.985 22.2353 983.633 84 68 62
-380.852 199.132 1202.95 254 253 251
255.576 175.474 1038.74 124 100 92
-274.694 238.992 1205.85 137 107 95
-452.014 250.25 1215.58 250 255 253
-302.547 -10.5125 1226.68 146 130 114
-273.175 41.309 1280.35 159 131 115
-406.182 128.049 1173.85 248 213 184
235.132 123.41 999.653 228 198 183
-234.053 213.889 1341.17 165 132 108
-300.887 -49.8832 1159.53 43 33 22
-381.279 4.672 1106.02 233 205 177
279.516 114.252 978.807 234 232 222
279.516 114.252 978.807 234 232 222
-331.367 159.509 1176.79 250 215 185
-321.358 -278.037 1172.14 156 166 159
-294.427 -81.0205 1308.38 57 41 34
297.047 -43.1738 845.287 139 172 146
275.182 166.694 1037.87 146 118 113
-192.555 246.2 1432.43 63 54 49
282.651 -39.7706 941.271 75 72 76
-326.116 471.576 1347.71 86 90 84
-919.053 -207.778 1790.28 114 103 86
331.523 186.778 991.884 253 255 251
-206.526 425.192 1375.86 54 54 49
-206.526 425.192 1375.86 54 54 49
