-484.049 -419.664 1644.23 57 58 49
-512.075 -172.941 1036.29 170 169 162
86.8575 -141.852 1041.26 165 199 197
39.9831 -100.107 963.813 195 191 188
-110.105 -87.6541 1056.17 144 136 142
-495.219 -73.6163 1067.53 161 151 141
-495.219 -73.6163 1067.53 161 151 141
-145.41 -66.6809 1035.53 77 79 69
-479.325 -30.0544 1241.83 22 32 32
-509.161 8.98223 1078.75 166 143 117
-840.774 11.6313 1446.89 255 248 235
-481.482 12.3378 1162.71 108 97 94
-481.482 12.3378 1162.71 108 97 94
-496.831 14.4006 1099.18 101 93 87
-449.42 17.0415 1259.35 121 104 96
-440.283 17.1171 1290.47 7 8 4
-605.578 16.8938 1093.68 193 171 161
-499.033 19.8301 1087.67 21 10 5
-506.156 21.9339 1029.59 210 190 158
-411.467 32.2447 1340.54 201 208 204
-494.863 33.511 1094.12 24 18 3
-493.296 46.5781 1105.53 23 12 11
89.0367 38.8503 891.597 137 126 113
89.0367 38.8503 891.597 137 126 113
-328.509 71.5396 1178.9 33 29 27
208.089 78.1765 1094.96 45 39 34
-502.58 81.5474 1110.05 253 235 220
-478.045 86.0936 1098.83 170 145 123
-467.074 85.6917 1090.41 31 19 1
-478.732 101.153 1134.45 23 24 3
-64.5152 94.7134 957.384 112 109 104
-65.8015 119.867 982.916 234 239 205
-419.601 160.231 1241.07 203 182 165
-451.829 150.215 1150.66 176 176 171
-446.168 148.299 1114.92 34 16 11
-420.069 170.411 1255.85 86 61 49
-418.325 179.271 1274.99 233 214 203
-599.471 170.977 1205.33 217 219 220
-423.119 191.061 1305.32 24 4 2
-386.012 264.785 1288.81 241 235 216
-384.949 264.854 1257.36 251 254 247
-422.247 294.018 1336 250 247 236
-415.231 251.381 1124.24 136 82 52
101.122 239.57 987.483 138 152 138
-21.8638 266.364 1046.44 235 227 185
23.3356 272.84 1031.19 174 177 140
12.5171 304.062 1060.51 254 252 223
71.2641 375.217 1110.74 115 131 132
100.889 458.859 1136.17 84 118 127
227.943 487.961 1142.09 234 233 230
-651.401 -519.063 1830.65 99 103 98
-773.914 -350.894 1577.12 84 90 74
-834.763 -297.124 1762.23 91 100 91
-8.9022 -144.528 1088.21 97 60 51
30.9769 -126.97 1049.97 53 54 48
-477.621 -81.1175 1186.47 160 138 116
-477.621 -81.1175 1186.47 160 138 116
-45.6322 -49.6121 932.091 52 98 80
-491.525 -65.1957 1274.11 110 102 79
-491.525 -65.1957 1274.11 110 102 79
-516.457 -40.1188 1078.71 40 36 22
-9.039 -21.5272 870.221 80 73 64
-9.039 -21.5272 870.221 80 73 64
75.5689 0.847114 895.845 148 140 121
-511.006 19.7193 1070.78 122 85 45
-570.243 28.8998 1149.68 255 239 220
-570.243 28.8998 1149.68 255 239 220
-109.282 32.2493 934.803 120 110 91
-559.732 46.2911 1146.29 254 248 232
-135.081 71.4993 1000.09 254 254 244
189.991 77.2428 1045.24 128 122 110
-142.854 80.1406 982.515 250 243 245
-68.4986 106.07 982.043 224 222 192
-68.4986 106.07 982.043 224 222 192
-136.546 111.76 1010.92 144 112 89
-136.546 111.76 1010.92 144 112 89
-431.955 145.854 1251.31 171 148 135
-426.472 162.957 1268.87 214 187 172
-82.2874 126.954 982.936 242 235 219
83.084 136.69 948.281 196 200 179
-57.6687 156.948 1004.05 250 246 235
-443.581 197.449 1213.93 64 46 36
-79.7678 181.055 1014.08 255 243 231
80.5467 167.874 943.115 236 235 228
-62.8418 189.771 1014.02 122 97 88
-430.442 279.22 1253.95 218 198 188
95.7138 219.207 932.157 249 255 245
-75.885 252.87 1047.83 237 239 212
-75.885 252.87 1047.83 237 239 212
-36.9655 257.667 1066.26 188 185 184
-10.542 247.411 1008.06 251 252 239
-63.0205 277.561 1001.72 105 101 86
-362.958 457.647 1426.25 109 133 125
-593.436 -393.648 1519.67 161 166 158
-790.095 -251.728 1716.75 100 103 98
7.9559 -135.566 1082.05 82 72 53
-136.687 -36.0431 961.366 23 25 20
-710.865 -30.9599 1201.4 246 245 231
-510.367 -19.0145 1168.03 42 23 8
-191.081 -16.1321 962.297 59 53 48
-191.081 -16.1321 962.297 59 53 48
-496.4 3.20798 1132.69 178 174 161
-533.616 6.12108 1106.6 133 83 42
-767.563 9.15543 1312.43 254 249 239
-484.937 7.82142 1141.63 49 41 37
-521.744 28.9727 1236.06 107 110 109
-723.521 69.2772 1246.48 251 253 247
-99.8674 103.785 983.556 221 210 183
-341.772 144.53 1331.77 65 51 42
-535.103 131.692 1171.62 217 191 175
-389.813 150.526 1303.19 87 43 21
-17.4983 119.602 956.084 197 179 154
-94.5527 133.258 993.043 165 113 93
129.778 129.351 957.559 166 136 112
156.948 146.545 1006.95 162 156 125
-656.898 235.732 1307.2 254 252 245
-382.105 260.149 1441.41 25 25 22
-54.6415 199.068 1021.98 255 246 227
-54.6415 199.068 1021.98 255 246 227
-16.2808 212.302 1013.85 157 132 120
-16.2808 212.302 1013.85 157 132 120
-39.2437 231.535 1026.15 204 199 146
-440.296 301.779 1210.53 249 249 241
133.884 276.599 965.927 197 201 185
-67.6696 315.644 1093.85 163 159 139
78.0873 354.007 1074.31 254 252 253
162.687 557.047 1294.37 195 203 197
162.687 557.047 1294.37 195 203 197
-647.098 -204.733 1455.2 171 178 172
-393.686 30.0986 1331.42 13 16 9
-147.729 28.7503 960.564 146 145 126
62.4959 118.75 925.467 252 253 255
-34.9946 130.355 957.069 237 173 155
-29.3576 149.038 995.1 250 255 250
-126.956 177.121 1051.53 250 251 252
-585.508 275.091 1241.99 122 125 117
-585.508 275.091 1241.99 122 125 117
-48.1865 243.494 1033.29 253 251 255
-48.1865 243.494 1033.29 253 251 255
-19.4953 327.184 1082.43 129 116 98
70.635 303.934 1006.62 235 235 234
46.2909 365.993 1123.86 253 255 252
79.5193 358.276 1086.37 254 252 253
193.648 468.305 1168.62 65 106 146
52.6931 16.8156 885.239 255 253 240
-678.264 49.6283 1156.91 253 255 254
-678.264 49.6283 1156.91 253 255 254
-92.1094 89.406 963.197 153 125 116
16.3056 133.046 952.175 203 196 160
89.4786 137.227 914.769 182 189 182
-113.689 155.049 1002.47 154 129 136
126.258 146.907 951.499 165 133 113
-505.368 229.447 1264.56 224 205 171
128.09 388.309 1143.73 233 248 247
132.527 427.304 1145.3 221 243 240
132.527 427.304 1145.3 221 243 240
251.352 454.97 1170.82 98 89 85
-593.561 -303.452 1661.51 63 54 43
23.5483 -87.2054 953.008 211 179 161
-540.476 -41.591 1147.21 64 58 46
-540.476 -41.591 1147.21 64 58 46
-81.0029 -27.7148 924.616 69 54 50
90.4056 0.705544 905.649 163 162 151
90.4056 0.705544 905.649 163 162 151
-425.912 19.0468 1266.13 41 34 26
66.3515 13.8681 865.042 55 49 44
-418.257 30.5996 1332.97 170 177 176
2.91485 171.103 940.499 252 255 255
-112.024 203.422 1076.69 106 99 98
231.089 431.111 1175.91 141 169 165
-493.433 -73.8917 1183.71 50 48 37
-433.479 -47.2451 1430.69 172 175 162
-540.172 -25.6864 1041.98 226 215 184
60.9868 -11.9392 844.885 52 45 36
-657.681 11.1105 1097.42 247 250 248
-52.4616 33.9393 905.06 217 213 193
236.215 107.246 1116.46 100 66 58
-461.437 163.155 1097.58 251 251 241
103.007 323.989 1023.06 155 164 134
-479.267 -40.4141 1191.76 151 150 137
-479.267 -40.4141 1191.76 151 150 137
-457.666 4.90693 1268.46 188 161 144
-457.666 4.90693 1268.46 188 161 144
-425.472 212.311 1277.61 68 56 49
156.665 466.62 1128.32 216 243 245
-458.882 -113.69 1280.81 45 41 35
-26.8205 4.30864 900.657 118 111 109
55.3045 74.2413 872.309 159 184 143
71.5384 376.302 1051.95 245 255 249
-518.069 -22.6059 1112.99 64 50 43
33.3516 8.33409 857.258 157 190 142
210.38 61.709 1103.78 76 57 46
-774.548 -91.5602 1367.06 147 147 132
-598.809 16.977 1115.19 240 222 223
-126.141 -17.7265 994.05 34 16 15
102.614 414.732 1121.49 250 254 252
140.051 -30.5948 1055.09 56 52 47
140.051 -30.5948 1055.09 56 52 47
-391.065 322.787 1334.14 56 58 54
179.974 234.785 941.39 88 62 55
