356.517 -361.86 1500.99 38 43 22
-639.027 -527.919 2386.32 104 88 61
-639.027 -527.919 2386.32 104 88 61
-574.135 -558.793 2550.12 95 82 61
193.536 122.35 -570.574 94 96 89
885.294 -367.524 2163.5 248 246 246
638.957 -212.455 1321.52 210 206 168
484.93 -176.475 1330.5 85 56 52
448.649 -160.036 1480.27 32 32 15
650.196 -139.429 1410.82 147 126 114
-93.7741 -102.29 1069.1 44 21 16
548.062 -123.055 1468.18 116 99 96
599.204 -107.119 1401.29 252 241 231
619.997 -99.6623 1405.32 255 247 232
619.997 -99.6623 1405.32 255 247 232
455.244 -13.6986 1683.52 25 17 12
455.244 -13.6986 1683.52 25 17 12
591.185 -3.99044 1443.46 116 118 97
737.898 20.6096 1527.47 115 95 79
568.86 29.1246 1504.31 75 67 60
577.027 74.5157 1435.72 56 60 51
599.515 164.107 1635.07 154 176 177
-109.761 125.884 1153.36 255 241 220
678.59 185.016 1677.89 154 186 182
-24.8339 187.068 1209.57 255 251 245
704.955 286.956 1708.95 209 225 225
-136.835 287.653 1187.29 255 246 229
-136.835 287.653 1187.29 255 246 229
-23.5619 347.042 1240.37 23 25 25
-142.523 502.317 1419.03 140 133 122
-701.378 -492.365 1752.19 189 208 198
-353.45 -344.912 1339.95 132 136 129
-754.409 -241.5 998.306 86 97 90
460.062 -254.073 1180.52 113 104 98
755.285 -306.557 1463.88 61 68 53
-686.689 -362.085 1976.57 177 173 149
-686.689 -362.085 1976.57 177 173 149
556.584 -188.317 1383.18 178 167 147
593.284 -185.449 1421.2 110 88 68
530.091 -150.507 1293.39 127 80 61
585.29 -136.546 1367.92 228 218 222
808.497 -110.58 1493.05 77 78 72
616.783 -101.383 1420.9 100 81 68
-304.832 -80.5956 1139.86 34 16 13
-304.832 -80.5956 1139.86 34 16 13
-41.7194 -53.5218 970.258 255 251 236
627.842 -70.3508 1334.44 183 187 180
-40.265 -58.9103 1116.77 255 249 239
-253.411 -50.2171 1005.33 66 40 23
-76.8415 -42.0511 1082.35 255 244 228
681.326 -41.611 1427.72 147 146 108
32.4981 16.6599 1152.42 255 254 249
715.534 28.5682 1519.03 122 109 89
599.743 52.6804 1451.73 147 140 131
668.115 69.5461 1435.2 169 184 180
649.34 108.101 1744.44 56 78 84
595.301 122.98 1714.67 32 51 45
640.983 126.765 1578.22 222 241 252
-209.094 89.8804 1073.95 109 80 60
-22.8039 114.871 1203.66 251 246 242
-181.549 126.049 1101.36 97 85 49
73.3187 193.104 1279.52 198 149 121
73.3187 193.104 1279.52 198 149 121
-145.423 182.048 1124.32 255 249 246
-116.407 192.485 1151.01 255 250 250
-169.303 207.649 1121.29 224 223 223
59.7199 245.56 1262.7 247 240 210
-157.112 312.376 1225.62 255 250 240
-167.99 -165.698 483.331 144 149 143
-280.347 -284.619 910.999 150 150 140
-161.317 -210.592 733.337 152 152 149
560.891 -345.651 1341.75 37 33 32
-582.146 -312.157 1349.95 41 44 38
590.947 -266.662 1293.09 179 181 164
566.589 -266.692 1335.75 151 154 125
510.538 -225.623 1300.9 253 248 248
510.538 -225.623 1300.9 253 248 248
606.911 -239.857 1380.14 252 239 214
-831.256 -161.072 1182.43 2 4 2
502.822 -171.854 1309.54 253 246 243
502.922 -137.855 1328.14 91 67 46
502.922 -137.855 1328.14 91 67 46
532.267 -123.496 1371.23 233 235 233
532.267 -123.496 1371.23 233 235 233
-174.127 -73.4264 1123.47 221 196 167
492.034 -86.3719 1338.95 119 119 114
-158.693 23.0052 1071.1 255 248 238
-46.1106 111.315 1169.4 130 108 85
596.354 170.936 1665.48 74 95 95
745.816 184.773 1675.21 224 244 247
-126.15 165.589 1141.15 121 64 56
103.334 204.851 1284.61 195 138 107
-3.82684 205.903 1245.32 250 252 247
-154.518 248.606 1142.48 254 253 254
-99.4377 345.191 1198.73 208 194 176
-126.814 349.523 1166.69 204 189 165
-220.713 -230.084 837.06 135 137 131
-292.664 -192.841 732.813 114 127 124
445.809 -329.545 1399.71 4 6 3
-42.9688 -15.0994 68.6674 201 217 206
-42.9688 -15.0994 68.6674 201 217 206
735.382 -237.302 1375.33 249 255 243
486.033 -211.418 1307.2 31 11 5
649.778 -189.461 1360.4 255 254 246
649.778 -189.461 1360.4 255 254 246
667.072 -167.237 1281.73 154 181 165
-39.4187 -90.0372 1080.56 74 41 13
680.354 -28.6506 1467.33 252 253 239
765.183 -24.2406 1509.39 254 253 240
42.4686 1.49854 1167.85 209 140 98
691.413 29.1725 1490.34 140 123 99
642.266 97.7773 1586.28 204 226 220
697.876 197.525 1595.8 211 232 229
664.631 193.341 1606.95 198 224 220
674.875 242.659 1587.13 209 237 232
-134.842 184.519 1151.46 229 242 231
-134.842 184.519 1151.46 229 242 231
-134.842 184.519 1151.46 229 242 231
33.7024 288.653 1257.04 162 147 111
-38.6469 333.073 1211.86 254 255 251
-141.48 359.297 1249.58 90 69 60
-61.1171 -169.632 522.704 118 122 109
-70.3418 -172.179 539.545 27 14 9
671.017 -395.715 1398.09 141 174 181
-62.4912 -17.1574 63.0498 128 146 138
-184.89 -62.4189 275.629 82 79 70
-184.89 -62.4189 275.629 82 79 70
-80.871 -17.3814 1076.11 236 239 234
746.888 -0.0267657 1502.88 125 114 93
746.888 -0.0267657 1502.88 125 114 93
-159.45 27.1372 1078.41 248 254 239
-183.272 41.0024 1097.8 243 254 254
-68.3291 116.185 1145.97 252 253 253
-90.5678 128.117 1156.24 250 245 243
-166.363 176.213 1140.07 128 56 39
-228.24 -236.99 729.126 110 101 87
-169.722 -202.997 709.686 138 142 137
-202.495 -89.2704 313.295 57 61 60
592.039 -307.92 1282.06 83 66 65
643.112 -83.9266 1428.19 242 228 215
643.112 -83.9266 1428.19 242 228 215
-129.364 -29.6491 1069.67 239 144 123
-152.622 -24.3175 1050.46 252 238 239
-216.524 20.6324 1056.63 243 227 217
543.908 32.955 1607.83 63 56 47
-64.6393 25.5051 1123.96 159 108 82
-64.6393 25.5051 1123.96 159 108 82
29.3508 27.7045 1176.18 255 240 224
-54.8452 58.6573 1152.91 184 119 104
-54.8452 58.6573 1152.91 184 119 104
92.2358 -92.5349 269.383 46 42 32
-239.071 -250.069 768.099 110 101 87
785.495 -33.5891 1484.89 148 162 128
-235.397 -4.3343 1067.07 110 65 54
-41.3035 97.3294 1165.35 155 125 107
-194.051 -169.864 579.557 136 142 137
541.49 -406.013 1453.25 127 108 113
541.49 -406.013 1453.25 127 108 113
-136.97 -112.686 418.019 101 75 63
-136.97 -112.686 418.019 101 75 63
689.863 -346.62 1297.04 132 176 141
651.765 -334.98 1319.51 92 89 86
-200.481 62.7857 1085.26 249 252 250
-200.481 62.7857 1085.26 249 252 250
-54.5045 269.612 1209.12 169 186 139
-94.701 319.988 1271.33 87 75 72
-94.701 319.988 1271.33 87 75 72
-404.346 -174.829 940.645 76 57 42
5.54385 -127.073 1119.94 234 200 156
357.947 -287.455 1377.4 54 45 36
575.38 194.417 1716.95 76 66 58
-80.0803 -30.2827 108.02 135 147 140
471.125 -271.613 1347.32 48 44 34
-107.509 -133.641 1103.12 48 77 87
-135.954 655.524 1615.39 191 191 184
-72.3085 -42.3254 1118.24 225 188 173
-517.205 -190.006 1060.28 69 54 38
744.921 -151.126 1557.61 209 208 191
-16.2218 220.373 1457.68 209 212 202
-55.0299 62.3908 1099.57 152 70 58
-55.0299 62.3908 1099.57 152 70 58
