-663.473 10.0274 1377.07 131 129 123
-53.0643 17.93 1061.43 255 221 209
-53.0643 17.93 1061.43 255 221 209
-571.555 55.3056 1229.69 255 242 223
-466.295 62.1927 1405.91 212 216 211
-468.46 72.1781 1418.97 33 31 35
-173.134 67.6831 1009.5 98 90 89
-465.74 84.1254 1156.93 23 13 4
-599.931 119.895 1524.72 9 3 1
-151.789 91.1135 895.379 202 226 220
-226.99 105.168 975.008 41 47 39
-510.209 198.42 1517.35 116 106 97
-441.758 168.387 1219.52 139 143 127
-212.624 123.927 912.367 212 215 198
-567.441 209.687 1523.57 218 193 176
-510.489 246.535 1396.42 139 124 101
-405.688 280.575 1469.95 63 43 38
-66.8888 158.42 799.658 211 207 196
-36.3966 210.973 802.441 238 229 226
-365.845 373.31 1391.08 253 250 242
-72.7262 223.384 812.802 253 250 240
-199.264 291.261 1022.65 149 144 146
155.184 306.337 1018.8 115 132 123
-108.373 299.604 978.737 253 254 239
27.0443 305.24 931.925 93 74 57
28.1241 325.297 941.228 229 230 220
110.928 350.968 993.065 179 178 182
-96.2741 470.281 1117.29 207 208 194
-1422.87 -101.726 2367.37 225 234 229
-576.645 -27.0398 960.205 129 139 132
-442.012 -39.5593 1589.13 109 114 93
-416.116 -13.5223 1356.25 157 128 107
-1291.87 -16.4754 2261.68 131 140 133
-1210.37 -7.11049 1958.73 155 180 169
-9841.91 56.8728 16385.8 166 181 169
-497.699 19.6649 1360.72 201 183 167
-621.899 24.3191 1327.88 121 123 113
-505.619 33.0285 1386.01 25 7 1
-368.197 42.8753 1442.03 9 11 23
-1178.85 87.2671 2169.44 137 143 140
-1178.85 87.2671 2169.44 137 143 140
-500.885 76.2551 1232.95 44 29 12
-596.406 114.616 1542 117 123 114
-33.5944 90.0854 850.863 150 197 202
-134.838 95.6488 898.188 214 224 219
-177.599 105.693 946.928 138 169 138
-233.701 112.961 907.547 65 58 39
-224.76 122.258 936.477 59 58 40
-409.729 246.11 1438.03 214 197 188
110.464 166.976 968.55 165 123 112
74.3362 189.818 952.115 189 139 115
-536.196 299.219 1486.86 255 255 244
-48.8882 185.689 844.578 63 61 66
-465.901 323.501 1460.86 242 239 238
-58.9661 187.579 833.696 189 193 187
-444.945 341.975 1404.77 78 66 56
176.334 266.696 1046.57 138 112 90
72.7401 257.713 951.499 64 22 12
220.131 331.151 1182.6 85 43 31
104.229 287.724 974.073 24 46 54
104.229 287.724 974.073 24 46 54
-75.181 253.479 809.37 252 255 246
171.97 346.986 1044.65 194 159 147
-264.894 518.566 1420.82 237 239 234
-12.6732 438.976 942.44 134 129 123
67.0764 509.461 1023.08 50 48 42
-1188.74 -119.81 1892.76 190 196 193
-1167.21 -123.973 1965.96 213 221 215
-473.083 -1.06747 1370.67 37 22 20
-518.974 40.7571 1343.93 215 193 175
-518.974 40.7571 1343.93 215 193 175
-518.974 40.7571 1343.93 215 193 175
-1202.8 94.3035 2078.15 46 49 37
-492.246 95.6035 1376.88 60 50 46
-480.798 115.709 1259.77 106 100 91
-164.764 110.533 897.305 25 41 32
-127.481 132.285 833.897 72 100 93
-95.4337 180.901 789.14 163 179 158
-415.526 336.83 1446.64 73 37 28
133.335 236.817 979.59 40 23 18
85.0868 247.943 969.849 62 37 31
-29.0952 228.18 885.415 37 24 26
-168.959 290.255 1016.07 255 245 236
100.069 282.496 985.666 112 150 150
58.7722 276.987 953.339 104 52 19
-75.3204 254.772 814.532 252 255 245
-127.428 57.5622 1006.41 52 33 28
-127.428 57.5622 1006.41 52 33 28
-116.641 66.6474 982.538 243 224 214
-335.087 114.865 1364.42 225 227 223
-125.407 102.611 897.993 83 109 107
-18.1114 172.325 864.212 121 123 121
-96.0569 175.611 818.629 252 255 240
196.272 352.42 1061.33 162 140 129
17.2707 308.049 906.448 64 40 34
-46.2323 504.352 1064.15 255 254 252
-192.917 121.603 901.426 71 60 63
-460.76 401.264 1478.24 172 125 101
190.835 293.391 1056.36 79 37 26
-174.295 459.044 1181.7 167 166 151
-456.521 -10.6596 1428.92 74 60 46
-1224.69 88.0627 2128.05 72 74 62
-357.437 93.9222 1503.28 53 40 40
146.411 298.647 1024.21 77 57 62
146.411 298.647 1024.21 77 57 62
62.0639 300.372 942.453 147 74 52
37.7275 315.355 932.027 181 182 180
-106.362 456.555 1031.28 197 194 176
-106.362 456.555 1031.28 197 194 176
-466.745 46.9763 1397.08 183 177 166
-41.8724 163.281 841.709 155 160 151
-41.8724 163.281 841.709 155 160 151
-77.2238 181.271 827.996 61 53 49
164.324 228.147 1026.19 52 47 41
185.08 338.768 1047.82 178 138 121
-406.48 -25.0624 1464.63 27 30 16
-422.414 99.1787 1437.15 206 185 169
-200.677 295.542 1052.04 218 208 213
-6.36622 316.064 891.425 190 149 128
-6.36622 316.064 891.425 190 149 128
-145.976 454.265 1105.29 174 171 154
-145.976 454.265 1105.29 174 171 154
77.3402 188.704 947.201 178 131 103
-8.89121 197.373 885.435 45 39 37
169.525 283.98 1032.89 99 41 48
-523.008 59.1761 1309.27 51 37 26
-77.9951 143.726 808.021 51 44 43
13.6662 166.036 885.869 48 41 32
-33.9207 262.67 863.397 57 51 51
275.028 292.971 1177.91 176 169 152
-318.859 379.492 1264.95 75 82 79
-318.859 379.492 1264.95 75 82 79
-360.462 110.682 1106.58 58 43 43
25.433 164.418 894.984 42 36 29
