-158.215 173.612 1044.4 45 2 0
229.646 279.501 1668.28 90 119 134
19.2274 243.988 1060.2 135 109 102
-146.996 248.931 1044.25 63 5 0
-76.8567 271.276 967.475 40 19 19
-161.979 482.26 1236.04 142 122 101
-154.88 461.028 1159.45 20 19 8
-146.234 479.458 1187.19 3 2 1
7.35507 570.329 1180.3 57 63 57
6.96856 572.894 1168.55 162 188 177
-1414.01 -346.919 2038.49 130 132 122
162.119 -156.273 1394.96 181 182 195
85.459 -99.6806 1360.3 98 102 74
141.162 -116.414 1583.93 156 160 152
300.733 -67.6526 1617.03 152 139 113
250.72 -41.6046 1488.18 121 112 105
231.98 -37.7012 1465.36 234 219 215
-67.7323 -17.0735 1122.7 148 143 131
-248.529 41.1008 1027.4 78 62 41
72.3666 73.7946 1203.56 253 234 220
-165.682 86.2762 960.841 36 1 0
1.87982 131.107 1090.79 255 239 238
35.5905 175.638 1118.16 255 246 232
-27.6313 193.339 998.711 68 56 60
-149.884 230.003 1043.98 54 18 14
-72.0286 280.975 1026.91 111 107 99
275.564 -158.579 1781.92 152 139 123
62.5205 -22.2457 1139.57 255 251 230
4.05711 67.9773 1052.27 251 254 254
318.563 146.44 1697.33 162 149 126
318.563 146.44 1697.33 162 149 126
-7.12427 262.89 1034.65 142 74 35
5.43017 273.846 1068.11 255 248 242
-223.34 327.506 1121.11 12 6 1
-8.52899 354.185 1045.17 253 254 252
-57.8696 366.275 1033.36 27 17 9
17.8387 417.89 1117.04 82 64 37
17.8387 417.89 1117.04 82 64 37
-200.616 500.736 1284.81 7 5 3
7.458 85.4428 1025.59 232 167 159
25.2171 151.672 1090.13 238 214 199
28.396 284.241 1098.94 255 252 250
73.0882 320.352 1229.09 254 253 252
11.2793 355.576 1089.15 253 253 252
-6.60447 433.068 1079.44 27 18 9
-23.966 115.492 1014.73 253 252 242
-80.5103 309.056 1043.46 115 112 102
-1392.6 -192.487 2080.15 48 55 52
311.329 -7.6995 1686.13 222 215 197
-194.508 65.1444 966.438 143 86 59
-48.1412 119.665 992.714 181 138 110
-811.308 -457.291 2487.35 16 8 6
-1508.93 -177.483 2122.83 47 59 52
-92.0678 -19.5014 1148.26 49 81 99
-64.0228 127.132 993.814 168 123 96
-64.0228 127.132 993.814 168 123 96
-120.507 323.842 1054.28 144 84 60
-1325.6 -294.904 2120.39 83 93 86
-1325.6 -294.904 2120.39 83 93 86
-132.92 204.479 1050.28 146 78 39
45.3721 -82.3718 1473.58 48 37 26
-40.2219 396.771 1067.9 39 34 28
-1389.49 -261.76 1924.75 98 115 106
191.448 -82.6466 1490.69 48 40 34
-70.3324 202.33 1018.28 64 52 32
-190.025 347.945 1129.16 67 51 44
22.785 68.1261 1077.15 255 222 204
