-279.269 -228.348 1068.21 153 153 148
-1293.33 -334.137 2238.13 146 160 149
240.962 -123.551 1030.03 219 203 186
118.95 -93.1362 1064.81 187 178 173
280.338 -49.2492 855.972 248 231 238
100.73 -59.8017 1007.67 25 27 23
160.316 -52.1418 975.072 144 147 132
-346.796 -48.1153 1129.55 183 173 163
-297.884 -35.6658 1216.02 152 134 123
386.12 -9.75182 915.659 226 229 215
381.536 5.17955 891.168 73 77 59
-502.965 11.4628 1120.51 248 234 218
-459.856 17.8019 1101.91 255 234 216
278.631 29.3678 930.964 92 78 71
-330.878 42.4895 1116.17 156 121 108
-306.073 61.3855 1430.86 180 159 142
-445.687 78.9919 1163.23 201 179 170
-445.687 78.9919 1163.23 201 179 170
-335.715 78.8935 1131.95 255 243 226
-325.37 110.282 1138.98 254 227 209
124.148 99.4168 1014.23 249 241 238
284.128 110.333 1047.67 182 119 97
-356.895 124.049 1177.23 255 251 234
180.548 144.209 1056.79 202 186 182
-240.314 231.392 1326.44 78 51 30
-236.315 241.506 1340.57 180 156 142
-226.072 258.226 1327.21 121 94 84
419.432 212.947 989.848 225 227 219
-214.497 356.095 1376.51 186 199 175
-294.337 337.748 1263.5 224 163 129
289.377 352.626 1107.96 136 143 149
440.27 395.473 1154.86 203 232 243
423.769 460.216 1191.32 240 254 254
-204.455 613.937 1496.37 244 244 239
128.028 -238.983 741.225 245 242 231
460.381 -198.883 1126.31 37 41 33
-811.709 -159.904 1302.78 111 114 107
-840.066 -154.116 1368.75 109 115 110
-869.721 -134.957 1458.11 91 99 92
-2564.68 -328.5 4387.57 160 162 157
-293.005 -71.4813 1257.8 98 75 62
-275.164 -70.9405 1295.24 92 80 66
86.0114 -27.6662 960.644 31 26 21
233.071 5.59125 926.242 93 71 57
233.071 5.59125 926.242 93 71 57
304.278 19.9278 936.05 86 76 67
-305.404 28.0246 1225.82 74 63 55
-314.284 41.9151 1210.16 67 46 37
202.842 46.4996 1006.12 240 213 194
-548.915 68.1225 1188.24 175 174 171
131.176 64.5648 962.811 247 237 242
-365.098 85.1262 1136.42 255 253 228
243.757 104.509 1040.49 210 209 174
384.404 167.626 1001.57 20 19 17
226.564 194.097 1032.82 117 98 90
265.924 210.002 1040.56 255 254 231
265.924 210.002 1040.56 255 254 231
237.763 202.196 974.392 199 173 145
-266.073 310.092 1231.73 254 243 225
284.382 302.417 1118.01 120 115 92
-251.214 388.847 1286.22 251 253 241
-453.034 551.841 1567.2 233 233 225
-180.696 565.801 1452.12 87 101 94
412.761 460.231 1163.93 106 135 155
381.411 -186.135 1118.61 146 188 177
227.122 -161.259 1107.4 78 61 60
-1037.03 -230.405 1724.84 92 94 83
330.422 -123.512 1002.66 129 174 177
198.409 -110.685 1052.42 56 44 38
257.234 -103.986 1026.59 89 58 48
312.097 -65.1654 920.569 43 54 49
-821.523 -100.353 1412.28 96 101 90
-375.229 -48.2093 1163.07 58 73 84
-321.757 -22.1315 1158.05 40 28 21
-254.829 -16.1431 1341.12 44 33 32
-330.113 -14.7545 1149.4 133 112 93
-330.113 -14.7545 1149.4 133 112 93
339.43 14.2781 873.682 79 103 83
-593.429 21.2245 1164.04 244 235 220
-314.757 36.313 1159.08 158 146 125
-314.757 36.313 1159.08 158 146 125
-280.167 51.2769 1289 175 153 135
-493.525 56.7046 1167.37 206 141 112
-214.021 75.8686 1315.08 19 18 14
208.977 54.6992 963.226 249 252 246
218.176 56.6669 943.986 119 89 76
187.697 74.6049 994.385 119 93 85
-435.863 88.7138 1166.16 248 254 253
156.875 105.461 1066.44 137 95 81
191.233 108.986 1005.19 252 242 212
191.233 108.986 1005.19 252 242 212
-331.272 121.92 1125.18 201 146 108
279.986 115.145 1011.17 215 148 119
191.852 118.364 990.558 159 94 80
-469.791 150.508 1247.74 255 250 230
-218.745 185.812 1353.09 41 19 8
172.932 181.513 1052.77 112 91 99
232.34 179.108 1034.95 87 52 46
232.34 179.108 1034.95 87 52 46
241.582 186.794 1032.01 255 251 240
241.582 186.794 1032.01 255 251 240
-188.18 315.137 1425.78 202 185 162
271.803 252.414 1093.38 158 157 157
222.185 263.604 1111.06 238 243 215
222.185 263.604 1111.06 238 243 215
-229.422 344.898 1269.48 174 150 139
425.458 382.252 1199.43 152 165 163
-36.4616 -29.8727 78.0397 107 111 106
-848.491 -298.213 1710.99 156 160 154
-451.178 -14.8163 1136.57 58 59 56
297.693 -0.388573 931.716 86 83 81
-271.943 17.785 1323.78 176 145 132
-539.471 58.8848 1195.11 253 250 246
-240.862 84.9695 1366.28 154 148 143
-522.123 93.2499 1200.09 204 136 122
-522.123 93.2499 1200.09 204 136 122
-529.041 101.004 1179.9 249 246 233
-529.041 101.004 1179.9 249 246 233
291.993 118.711 1064.34 216 147 116
193.212 119.495 996.559 159 94 80
270.967 125.727 994.842 223 213 208
151.477 161.578 998.371 238 240 238
342.222 390.441 1256.2 243 254 252
498.319 421.965 1184.43 179 207 210
256.583 -119.804 1024.21 213 186 168
256.583 -119.804 1024.21 213 186 168
240.185 -116.807 1058.8 216 178 163
306.957 -100.674 942.191 68 64 69
-961.098 -89.2075 1760.68 170 178 170
-345.242 -15.9559 1146.05 63 51 41
-345.242 -15.9559 1146.05 63 51 41
343.286 -6.53982 906.251 109 134 111
328.303 84.4774 935.413 239 236 219
-438.704 123.878 1181.27 173 130 107
-438.704 123.878 1181.27 173 130 107
-357.139 148.226 1189.08 234 234 222
-357.139 148.226 1189.08 234 234 222
-440.748 158.843 1225.93 205 144 117
311.85 226.739 1049.67 186 179 164
-266.377 278.339 1240.41 122 92 75
307.924 294.31 1106.42 146 127 106
-250.256 352.432 1287.16 127 79 49
399.765 318.235 1071.39 105 94 74
399.765 318.235 1071.39 105 94 74
-93.1858 -154.607 502.732 98 103 98
-944.2 -201.248 2069.15 76 73 54
105.03 -53.8076 1006.8 67 59 48
-379.367 198.922 1204.09 254 253 254
265.056 180.276 1051.76 118 95 88
185.61 171.899 965.5 129 107 106
185.61 171.899 965.5 129 107 106
-460.188 255.244 1240.85 253 252 255
307.082 269.263 1072.3 223 224 198
-467.708 394.175 1366.04 94 87 75
-467.708 394.175 1366.04 94 87 75
299.912 249.189 839.215 112 104 81
-396.395 -90.8795 1290.47 86 105 103
-302.702 -11.6249 1235.67 135 128 113
-271.371 39.8778 1281.68 168 134 120
-420.948 92.1973 1163.99 231 202 201
241.135 126.247 998.038 228 200 192
-309.692 235.295 1234.04 255 255 247
-308.743 -51.5844 1196.13 44 28 20
-267.251 -8.76879 1320.31 59 54 49
-370.288 3.27729 1078.64 229 205 178
292.936 119.82 1001.73 220 214 204
292.936 119.82 1001.73 220 214 204
-333.925 163.075 1198.32 251 208 179
200.601 -392.37 1220.97 97 70 46
-316.058 -264.937 1111.45 157 164 158
-293.404 -82.3485 1308.57 65 51 41
281.236 169.071 1036.29 158 133 119
281.236 169.071 1036.29 158 133 119
281.236 169.071 1036.29 158 133 119
-192.776 248.851 1446.47 58 52 46
283.776 -37.0152 917.906 79 73 74
283.776 -37.0152 917.906 79 73 74
-642.583 -213.36 1465.23 144 152 146
-642.583 -213.36 1465.23 144 152 146
238.91 325.559 1167.02 110 97 94
-184.16 -198.689 749.504 25 24 21
458.127 230.65 1042.93 113 115 111
-1254.76 -275.629 2428.52 109 105 85
-414.775 54.6552 1111.99 253 245 239
341.525 191.877 1001.83 252 255 251
-203.865 424.33 1361.98 57 56 53
