-137.421 -219.779 626.429 225 232 226
-260.93 -475.778 1389.39 43 55 53
-13.8053 -279.229 821.354 87 96 92
-363.975 -513.216 1972.12 228 227 224
459.196 -228.324 1056.97 162 167 151
1035.03 -263.717 1554.4 36 32 32
492.412 -162.922 985.879 175 156 150
593.426 -148.554 1004.74 86 110 90
422.336 -82.4625 1030.55 135 131 115
419.657 -82.1067 1024.73 135 131 115
610.634 -78.4848 1024.42 214 234 213
-206.611 -71.5308 1020.17 130 128 127
388.154 -47.6258 994.362 83 92 75
-228.008 -29.9868 921.339 239 228 203
354.803 -35.2835 1051.46 186 153 135
-267.801 -13.8761 920.332 78 45 25
498.582 -11.2335 1056.23 143 123 111
-187.767 12.1895 965.759 255 249 242
-252.937 36.7109 942.758 255 226 201
-314.996 93.9723 1047.2 229 192 178
534.427 115.802 1115.77 186 171 149
534.427 115.802 1115.77 186 171 149
605.489 136.813 1140.33 200 196 181
-192.15 130.629 980.995 243 230 211
-170.758 146.378 987.063 249 245 231
-321.168 197.454 1008.51 138 113 89
526.958 276.42 1367.74 145 177 157
580.661 267.584 1215.86 122 142 157
552.966 271.632 1203.18 204 247 250
-191.209 244.087 1035.5 251 230 217
-144.789 248.386 1045.5 253 254 252
-256.821 282.162 1040.61 255 250 231
621.615 348.497 1273.84 247 253 252
-202.243 279.898 992.239 128 155 115
-290.935 293.179 1005.89 247 252 252
-85.7687 349.026 1108 15 15 21
-380.304 -519.181 1579.81 39 56 50
-267.714 -414.529 1677.66 167 163 139
-267.714 -414.529 1677.66 167 163 139
425.464 -259.728 1141.32 230 202 184
-216.494 -118.598 1083.21 109 124 124
543.022 -93.7412 1014.21 123 121 96
367.722 -94.6654 1031.48 91 77 65
590.948 -72.8908 1061.09 12 19 4
351.134 -67.6876 1046.79 134 110 106
448.633 -65.9786 1068.05 192 175 157
439.864 -57.7529 976.439 185 185 155
610.735 -50.5353 1055.5 234 255 242
623.352 -47.2751 1040.07 183 189 172
-252.884 -27.1863 913.547 37 21 18
593.391 -16.7387 1067.76 22 39 30
350.048 23.1602 1024.6 125 121 115
506.541 31.6238 1053.4 255 251 245
490.853 44.6246 1082.56 255 252 237
490.853 44.6246 1082.56 255 252 237
-161.182 47.0554 1044.44 44 11 2
-161.182 47.0554 1044.44 44 11 2
-114.154 46.6748 987.811 136 78 50
-136.369 47.3055 991.133 180 86 46
-329.005 54.2551 920.26 106 96 86
-154.717 60.2753 1031.5 47 18 11
-154.717 60.2753 1031.5 47 18 11
398.788 79.337 1071.97 79 74 58
-148.798 74.2117 1025.54 48 27 7
-148.798 74.2117 1025.54 48 27 7
-109.493 74.7297 1029.5 138 67 33
484.999 93.907 1036.66 251 253 228
-131.493 113.617 1000.3 34 10 4
-72.5166 129.981 1034.8 238 201 175
-102.052 133.412 1017.56 244 223 192
-177.634 134.688 997.622 255 248 228
-192.281 150.547 1018.14 142 118 102
-192.281 150.547 1018.14 142 118 102
493.821 213.647 1378.24 149 158 154
515.484 189.889 1194.21 133 167 162
-181.589 260.948 1054.99 254 252 235
-99.0428 161.084 -467.911 146 118 89
-460.557 -450.625 1383.62 63 64 52
-103.82 -335.413 1223.03 179 161 140
567.847 -174.001 985.964 95 127 105
-952.027 215.446 -1283.93 68 60 49
485.61 -153.48 1001.29 174 163 148
369.888 -99.8421 999.151 255 251 250
450.851 -97.619 1022.24 235 231 200
613.612 -97.4798 1053.81 246 254 236
613.612 -97.4798 1053.81 246 254 236
394.349 -91.446 1010.9 228 231 232
394.349 -91.446 1010.9 228 231 232
481.487 -11.959 1066.27 76 59 60
525.634 -1.33771 1059.9 225 221 201
-148.727 6.87431 858.09 75 33 11
-109.684 20.042 991.798 144 83 55
-109.684 20.042 991.798 144 83 55
-278.262 27.5051 923.621 172 92 71
-321.188 49.9478 961.563 141 97 85
-329.018 75.0169 955.089 168 100 86
-329.018 75.0169 955.089 168 100 86
-143.551 89.5717 1027.89 57 19 9
418.118 107.475 1092.02 132 135 115
418.118 107.475 1092.02 132 135 115
599.887 117.232 1091.78 130 136 105
-80.2377 138.259 1043.02 190 119 68
-106.746 145.819 1038.63 188 108 71
569.955 183.297 1190.86 229 252 254
-122.777 184.885 1113.41 55 36 13
-106.385 160.927 936.757 55 36 13
-338.586 173.901 996.554 254 253 233
507.411 297.39 1260.2 19 59 68
-225.134 258.787 1044.26 168 108 106
-249.69 301.42 1037.65 254 253 247
354.646 -186.737 1032.79 52 52 40
382.061 -128.832 984.686 105 103 92
368.824 -132.197 1044.77 114 112 97
438.71 -95.7629 997.427 209 194 163
567.799 -86.8963 1041.93 250 250 224
484.724 -51.8808 1014.88 182 130 108
383.478 -52.9859 1072.3 253 243 235
-235.062 -43.9608 941 26 10 8
439.213 -27.7545 1059.04 128 77 61
-184.963 -18.2867 948.135 70 32 19
-241.003 -10.6098 893.955 187 123 90
-257.983 28.1089 944.809 197 102 72
499.384 44.329 1070.59 255 248 230
492.317 156.068 1122.46 83 74 56
513.907 169.132 1140.73 204 228 223
-64.0552 169.262 1031.11 254 255 236
-244.461 201.218 1024.77 149 99 85
-244.461 201.218 1024.77 149 99 85
576.771 -208.144 982.72 112 150 117
596.249 -182.942 1011.57 107 146 113
545.429 -58.7389 1096.11 254 254 249
660.1 0.514627 1115.67 99 115 95
-361.221 10.5454 890.639 188 164 133
480.649 15.0873 1065.04 92 73 77
394.673 24.8464 1073.76 254 251 252
394.673 24.8464 1073.76 254 251 252
-367.603 47.1055 935.651 98 51 45
676.839 140.192 1273.89 97 94 74
676.839 140.192 1273.89 97 94 74
-215.867 168.914 1002.93 255 250 232
-143.383 175.941 1036.16 184 143 112
-203.299 216.147 1026.1 246 239 231
-305.301 209.711 991.302 130 61 51
503.708 272.958 1213.86 163 200 198
-199.929 233.299 1025.11 202 162 159
-115.313 341.233 1125.61 149 127 89
-512.106 -477.472 1474.17 132 144 140
528.515 -66.7584 1006.21 143 140 105
528.515 -66.7584 1006.21 143 140 105
-292.935 33.5183 915.671 252 231 224
-245.159 109.603 951.292 223 195 172
-285.432 121.779 962.588 226 181 145
-155.007 152.809 995.18 228 225 202
-258.589 185.656 992.93 238 218 199
-260.592 212.391 1014.95 183 139 123
-253.403 263.382 1052.16 104 75 66
-224.45 466.484 -1384.45 160 137 107
-169.686 -385.451 1444.88 160 138 112
457.834 -170.239 960.845 73 61 58
-197.214 56.4864 965.765 220 179 163
-186.707 153.616 999.252 112 90 79
-186.707 153.616 999.252 112 90 79
596.129 -90.4686 1021.3 249 255 240
-166.256 -77.0773 968.633 36 82 89
324.653 -38.787 1005.35 88 62 46
-335.783 105.751 946.458 252 252 251
-335.783 105.751 946.458 252 252 251
503.62 188.136 1160.38 140 173 172
-204.35 309.079 1065 139 168 119
-355.576 -426.441 1652.35 80 62 39
-227.781 -7.78135 983.449 201 147 124
503.75 0.406641 1071.2 133 113 105
621.968 90.4906 1089.98 112 134 106
552.438 -194.542 941.773 112 151 114
563.999 -197.569 1055.75 72 69 72
611.262 26.3962 1058.67 127 152 139
554.486 25.6082 1066.24 254 254 252
554.486 25.6082 1066.24 254 254 252
552.054 216.201 1212.37 190 220 220
-733.468 -274.649 1124.89 66 76 69
-209.495 -86.2789 1008.9 72 86 84
27.3239 542.589 1453.04 185 185 178
-384.001 -361.156 1423.02 78 52 41
322.6 -140.17 1034.3 54 50 46
533.382 -179.543 1085.52 77 58 52
-142.977 257.817 1087.48 206 205 204
469.534 131.511 1347.91 62 53 47
