-193.399 -71.1434 1521.8 100 93 76
-265.229 -34.5734 1502.65 147 103 67
-222.669 -22.1 1457.46 109 102 90
-259.005 -17.8346 1494.73 133 104 73
-259.005 -17.8346 1494.73 133 104 73
174.753 35.3045 971.159 50 53 48
165.952 41.1708 924.055 197 205 201
-34.8911 77.3342 926.705 71 71 77
-21.6316 81.7791 921.952 62 54 55
179.082 133.932 958.801 32 1 0
87.6446 142.705 915.889 80 81 82
192.337 167.877 970.486 164 95 94
176.184 199.626 966.457 44 23 17
-14.8259 227.563 928.184 35 28 34
-36.9124 242.786 928.917 223 214 217
166.024 261.843 983.971 37 15 4
132.742 276.201 961.147 148 143 138
22.1318 305.495 949.432 38 15 7
-37.123 302.275 889.167 111 102 99
-5.22281 341.734 950.148 122 99 84
-31.4818 340.076 936.755 133 116 110
7.8822 335.052 923.239 45 32 34
-14.4259 353.132 944.03 61 44 38
204.132 389.947 1024.85 196 155 134
204.132 389.947 1024.85 196 155 134
138.058 392.553 989.018 123 90 84
283.109 432.192 1059.47 77 61 54
309.588 488.026 1163.05 38 15 10
76.9052 419.075 988.538 128 89 78
262.599 506.987 1146.23 245 244 236
118.705 449.781 1008.15 183 163 147
250.238 -247.095 772.35 113 98 86
261.605 -226.24 767.173 22 9 3
-128.521 -207.594 1692.66 182 162 140
-220.928 -140.687 1596.02 71 96 94
-293.069 -138.055 1595.52 184 170 153
-62.1006 -130.278 1577.29 28 25 22
-186.343 -95.4877 1493.67 188 151 128
-186.343 -95.4877 1493.67 188 151 128
-120.961 -85.8066 1551.64 108 93 73
66.1589 43.8014 989.911 98 135 137
-138.756 81.598 1032.48 60 59 55
-108.2 82.8573 1001.69 124 142 124
115.966 87.628 914.869 194 194 180
-22.0944 96.048 891.117 66 60 59
-22.0944 96.048 891.117 66 60 59
-1399.36 355.485 1999.16 51 54 42
90.4805 167.798 918.939 160 109 91
-47.889 163.217 875.752 20 37 38
84.7847 177.86 919.071 52 30 24
-67.7308 165.971 854.034 226 219 219
-56.3601 182.021 892.333 56 58 54
-47.561 193 884.119 28 34 37
-55.4006 203.158 891.492 51 50 49
119.587 222.218 949.981 142 89 68
138.877 235.03 955.334 53 16 10
126.246 280.526 986.918 79 55 52
230.503 302.577 995.714 178 123 101
123.673 294.944 960.406 49 59 55
123.673 294.944 960.406 49 59 55
60.2257 347.95 972.069 249 245 244
161.864 379.758 1020.11 224 181 174
177.976 510.111 1086.66 151 161 150
260.87 -277.415 805.807 33 19 14
-219.18 -79.789 1512.59 160 135 119
-199.565 -48.2406 1484.44 71 57 44
-211.554 -29.6164 1554.97 203 187 171
-211.554 -29.6164 1554.97 203 187 171
100.358 7.74839 1058.42 81 88 64
130.084 93.7889 900.692 144 117 92
130.084 93.7889 900.692 144 117 92
191.245 97.2102 941.705 16 5 0
172.621 168.997 953.318 133 93 75
-1106.54 333.969 1522.32 149 154 142
-9.6768 242.442 915.034 45 36 39
-46.1172 305.003 915.565 44 33 30
115.51 357.186 960.514 46 29 31
5.30797 41.6402 1011.2 220 206 188
-79.782 92.9217 947.566 114 136 133
-46.8417 192.017 856.47 65 61 65
182.876 260.928 973.36 179 152 134
203.657 287.988 991.232 101 137 142
-46.0034 305.608 918.153 44 33 30
101.554 420.657 1052.94 146 82 64
-241.467 -79.5404 1502.19 60 47 38
103.969 -18.8704 1127.2 52 49 42
119.093 101.809 912.889 33 32 30
188.74 179.802 970.552 57 37 32
39.1826 229.247 920.765 138 66 46
15.736 296.817 924.418 66 54 48
-123.604 -121.662 1536.17 60 44 39
-1075.8 324.932 1429.57 70 75 65
272.266 323.948 1032.31 191 193 180
246.653 327.692 1001.99 59 26 25
-45.2534 306.227 925.313 66 52 48
-150.299 -67.9018 1554.11 174 165 151
-150.299 -67.9018 1554.11 174 165 151
-37.0434 171.172 872.16 171 178 172
158.764 278.191 978.066 49 45 42
96.1945 -12.4994 1123.31 79 90 90
-131.841 87.4803 1008.1 63 61 60
-61.8081 235.989 905.374 59 54 51
95.1147 267.996 953.854 70 39 28
-3.73985 324.539 935.923 179 138 128
-3.73985 324.539 935.923 179 138 128
249.213 388.576 1048.15 181 142 124
249.213 388.576 1048.15 181 142 124
275.559 423.564 1050.42 57 40 36
73.1888 447.055 997.122 140 71 58
-54.3714 -219.547 1576.91 189 188 185
-58.8551 -126.222 1484.73 60 59 46
-235.618 -64.3331 1518.47 51 31 18
206.637 207.011 978.04 53 36 33
113.148 213.819 934.484 188 140 114
113.148 213.819 934.484 188 140 114
-52.9491 -186.727 1320.44 188 188 185
93.5289 43.4613 990.633 108 184 181
-85.1398 107.708 956.411 172 209 202
-26.0145 128.013 884.882 37 32 30
-77.4581 145.588 839.208 50 44 39
-0.570742 -205.213 1235.25 77 67 57
-6.25409 58.8617 897.166 224 169 153
210.91 129.072 916.613 166 153 140
-35.0434 276.482 915.972 55 54 53
215.19 299.547 969.525 55 37 27
127.267 331.905 993.534 103 120 125
127.267 331.905 993.534 103 120 125
