-408.628 -246.399 1095.34 46 46 38
238.808 -221.992 1907.7 26 28 14
550.034 -117.819 1759.61 178 175 146
-185.007 -80.0475 1400.79 146 132 116
468.167 -45.572 1902.26 126 110 102
453.363 77.3636 2290.31 147 156 126
-109.32 73.6964 1145.31 147 121 113
26.1285 157.682 1245.37 255 248 228
584.687 327.904 2108.74 246 254 254
520.082 355.447 2121.32 210 241 252
520.082 355.447 2121.32 210 241 252
520.082 355.447 2121.32 210 241 252
38.0306 314.081 1311 236 235 221
-120.046 455.984 1374.23 236 235 221
-120.046 455.984 1374.23 236 235 221
-60.1488 697.862 1524.43 37 58 48
-428.713 -195.819 631.694 128 142 136
-428.713 -195.819 631.694 128 142 136
546.132 -291.907 1776.66 203 227 233
434.973 -290.967 1789.65 198 199 202
-863.954 -385.475 2555.49 141 122 92
117.607 25.3581 1385.68 255 245 228
115.084 46.2693 1344.05 255 222 201
483.212 90.0732 1774.49 182 173 156
78.9719 140.753 1340.34 253 248 228
78.9719 140.753 1340.34 253 248 228
-52.8433 143.762 1192.92 253 253 254
31.2202 30.3147 222.87 232 252 253
-80.426 157.678 1211.5 200 168 152
533.891 296.944 1982.32 160 194 187
492.419 388.693 2043.54 162 193 181
388.574 -302.517 1981.69 103 92 84
-629.942 -101.159 841.348 136 149 140
65.7043 -90.187 1409.95 61 83 75
77.8546 -37.9321 1319.63 118 55 40
-170.12 32.1935 1205.22 169 137 139
557.025 146.827 1932.69 133 118 98
391.177 214.584 1830.44 151 180 174
75.1861 172.77 1337.34 131 113 90
-68.17 189.134 1183.79 215 170 145
435.361 403.808 2118.77 72 91 84
-53.4046 270.006 1240.67 75 29 22
-492.134 -80.3753 730.154 134 148 140
507.236 -156.737 1861.16 253 244 243
-165.928 -73.9622 1373.64 105 80 63
-165.928 -73.9622 1373.64 105 80 63
593.016 -57.2653 1975.65 149 123 107
587.382 -33.9314 1954.35 139 119 95
536.199 -1.08761 1900.86 125 101 89
-11.6489 86.4407 1228.32 255 251 253
51.8431 146.142 1312.28 249 238 232
30.7269 233.364 1219.21 248 254 253
-119.804 251.735 1265.5 56 40 28
-25.9 248.876 1234.26 157 66 45
35.3233 454.247 1388.92 246 238 230
532.326 -135.472 1876.39 139 127 106
-65.1969 6.61712 1125.94 231 210 187
-164.801 43.5346 1308.7 48 33 24
499.231 202.445 1940.36 219 230 230
97.6837 166.078 1364.38 255 253 252
146.84 187.217 1416.74 253 250 254
-20.1022 181.583 1212.11 244 201 177
-24.8273 302.094 1229.36 252 251 255
-374.007 -233.833 1416.53 59 40 28
-526.907 -204.698 1331.14 75 76 73
-727.758 -143.653 1094.17 65 72 66
6.27812 76.2577 1257.68 221 149 120
-149.327 241.909 1292.32 155 114 99
120.242 310.278 1420.2 251 255 250
-135.427 -314.488 1795.03 55 46 34
397.906 -270.778 1789.74 182 173 157
-1024.32 -171.02 1517.65 118 136 126
-48.4051 122.667 1169.67 249 255 249
-159.972 169.715 1277.06 153 94 56
114.68 303.883 1378.15 250 255 250
-426.333 -49.8532 542.134 75 65 56
-64.7804 -83.8025 1336.24 62 106 109
50.7171 -15.8544 1236.98 255 242 226
-45.698 -76.752 -258.721 66 61 53
-123.728 312.496 1281.62 148 89 56
-244.269 67.8398 1316.64 80 51 39
-95.805 177.021 1218.77 77 57 39
413.229 -184.207 1740.92 61 52 46
293.195 -191.719 2038.45 44 38 29
59.0061 512.923 1394.94 73 72 69
546.045 -582.8 2811.88 181 184 174
-52.7468 548.833 1453.04 48 46 42
358.664 27.9765 1794.28 74 95 59
