-1520.14 -422.896 2687.86 97 103 95
95.443 -113.997 1015.49 254 226 220
-469.519 -98.3267 1249.32 122 145 142
-394.86 -80.6092 1313.15 112 98 88
-432.432 -67.4619 1121.17 160 159 150
-522.605 -58.0363 1261.13 60 74 74
133.181 -37.9417 887.579 243 251 247
-542.298 -38.9058 1213.05 140 163 163
-518.333 -25.8666 1180.6 196 188 176
-478.884 -5.19229 1071.64 254 253 233
-578.939 -7.00009 1137.54 101 88 75
-440.068 4.91399 1212.16 152 136 120
-401.997 17.3873 1307.53 117 83 68
-474.186 34.8788 1153.71 104 58 22
114.66 27.1913 920.233 93 93 78
-469.026 38.4399 1173.28 177 150 129
-420.208 40.957 1192.71 96 88 83
72.4055 35.6328 972.05 175 148 127
-464.781 53.4357 1181.73 137 125 91
107.003 48.7452 992.543 226 199 179
-300.636 71.713 1268.35 34 28 20
-28.7269 98.4339 1045.63 255 252 240
116.011 88.7689 931.601 166 144 112
96.2946 93.5948 929.612 187 137 122
-1154.8 213.59 2013.9 182 189 182
-422.466 130.589 1194.77 37 26 4
-330.265 159.565 1433.14 17 2 1
249.987 116.497 954.149 243 240 218
-430.272 177.75 1211.98 255 249 228
-422.12 180.265 1170.73 204 164 136
-397.08 197.004 1240.5 144 139 124
-404.608 199.547 1239.66 48 36 21
-404.608 199.547 1239.66 48 36 21
-642.113 230.061 1298.91 245 243 231
-353.043 248.325 1382.66 163 140 129
73.4025 192.961 1064.77 109 85 72
-397.595 255.16 1228.66 255 247 226
45.3154 236.143 1080.57 75 73 62
127.069 242.062 1066.68 185 182 149
-330.974 331.356 1436.9 223 220 201
-322.503 334.539 1437.97 9 11 9
-318.652 317.613 1361.06 216 224 201
-347.701 349.085 1410.82 228 232 221
116.472 262.204 1031 242 234 203
-538.771 435.455 1448.75 43 49 45
315.407 388.83 1158.39 123 154 152
-347.725 473.121 1403.97 53 81 67
355.252 432.108 1198.91 161 188 202
223.543 444.73 1218.01 109 136 135
-310.817 566.789 1482.12 227 226 223
330.18 491.05 1172.05 121 140 148
-1159.02 -291.155 2099.34 108 99 83
-1172.36 -274.619 2041.04 114 117 110
118.959 -83.2265 913.487 65 87 80
107.172 -84.3459 940.099 75 72 67
110.7 -76.4486 910.068 248 248 240
-472.957 -81.4853 1221.65 65 80 89
71.5025 -60.3716 895.704 209 195 184
71.5025 -60.3716 895.704 209 195 184
-460.971 -75.1641 1210.01 181 176 168
-425.457 -60.7882 1231.83 117 99 76
-463.885 -47.7513 1096.44 54 74 86
-417.316 -40.0391 1270.14 110 88 66
-417.316 -40.0391 1270.14 110 88 66
-479.475 -10.9104 1150.83 148 136 112
233.756 -3.99189 924.437 145 130 116
73.7584 5.8121 948.746 95 76 68
-435.151 34.1545 1213.94 47 39 35
-469.467 55.0154 1122.28 196 166 130
-2.89608 52.5391 1046.4 255 252 255
-438.23 63.6642 1176.33 92 78 72
-438.23 63.6642 1176.33 92 78 72
54.3248 80.3047 947.968 132 117 90
-456.414 118.634 1195.13 255 242 216
-354.707 63.5954 650.184 92 93 97
-419.111 132.312 1216.45 104 100 80
113.298 110.058 1000.82 229 170 136
11.8744 131.242 1045.29 151 134 132
248.807 132.662 937.867 246 252 233
251.714 162.429 968.8 165 173 138
-613.107 240.888 1349.53 255 247 244
244.891 186.838 966.465 253 254 235
-380.116 252.529 1272.67 190 184 169
-380.116 252.529 1272.67 190 184 169
265.251 234.759 1002.13 249 253 248
265.251 234.759 1002.13 249 253 248
193.286 389.646 1303.5 248 255 251
-304.04 562.525 1555.95 104 130 121
270.572 462.31 1195.59 236 255 255
-322.52 562.962 1445.71 253 254 252
-1786.77 -499.204 3180.27 89 94 87
58.4712 -165.014 1133.83 62 63 61
83.2197 -94.5564 921.684 126 66 60
-367.989 -28.6767 1338.98 38 43 37
-460.824 -18.8842 1185.81 141 122 99
-460.824 -18.8842 1185.81 141 122 99
-489.159 -12.6333 1127.91 103 75 61
-576.791 9.92102 1156.3 205 175 144
-708.727 17.2552 1203.66 253 252 239
-708.727 17.2552 1203.66 253 252 239
-449.329 30.163 1211.85 152 142 130
-449.329 30.163 1211.85 152 142 130
182.567 33.8916 915.959 111 125 109
182.567 33.8916 915.959 111 125 109
-585.195 48.0953 1084.42 253 253 241
-513.683 48.34 1106.18 255 250 236
131.312 55.4814 956.714 120 100 82
-549.484 87.8467 1227.68 255 246 232
-631.263 105.687 1260.86 194 139 132
70.0337 93.6583 984.711 200 204 165
34.9251 104.322 1010.04 255 255 228
34.9251 104.322 1010.04 255 255 228
90.8653 146.911 1050.79 121 98 92
23.68 157.585 1011.39 245 237 236
75.2696 174.721 1050.77 95 64 53
-652.677 278.111 1376.54 255 254 253
-652.677 278.111 1376.54 255 254 253
-367.191 282.474 1363.53 68 46 34
42.2593 256.619 1124.5 171 173 146
61.8712 248.896 1093.83 242 240 217
-313.01 377.236 1560.93 83 76 67
345 350.599 1159.82 80 100 94
-553.506 456.216 1476.98 242 244 239
287.4 490.786 1219.18 245 253 252
-1261.57 -744.065 3339.82 81 80 77
76.6193 -110.517 1014.77 234 211 192
216.975 -42.1885 890.076 165 169 153
-470.205 -36.0864 1219.76 61 58 47
-386.057 7.3459 1310.41 163 130 112
-450.207 30.1541 1214.72 152 142 130
-705.023 76.7399 1256.39 253 255 251
-705.023 76.7399 1256.39 253 255 251
-645.397 87.3263 1240.9 190 143 127
105.021 80.7938 977.008 156 136 115
-483.122 138.949 1214.45 255 253 253
132.101 156.772 1073.72 151 123 111
-574.534 196.735 1278.93 254 254 253
99.4965 212.208 1044.26 214 203 167
-304.499 313.921 1466.32 39 33 28
-598.866 491.446 1628.48 87 94 89
376.904 407.077 1211.75 141 166 163
337.476 434.426 1167.59 57 83 118
386.372 477.247 1232.54 112 134 139
142.209 -100.113 932.437 97 97 94
18.2171 -56.6599 976.473 24 27 25
-55.3595 -45.9397 982.55 78 67 54
-360.745 -23.5482 1383.55 177 174 162
185.77 -11.4451 870.509 127 150 114
-350.873 27.5252 1361.43 47 33 21
169.312 82.9615 956.652 255 254 228
12.4301 145.092 1043.4 139 111 109
-554.091 232.373 1225.19 254 254 254
141.007 199.183 1040.01 255 251 250
146.376 212.996 1025.97 179 175 158
145.239 258.182 1067.66 250 251 234
-373.445 333.292 1306.2 137 85 55
-371.578 384.578 1368.1 55 55 51
-348.416 471.143 1424.25 80 95 88
285.03 408.638 1176.72 225 244 242
285.03 408.638 1176.72 225 244 242
49.3799 -57.5176 925.574 53 47 40
-515.655 -49.8287 1181.5 63 90 105
40.8995 68.0992 991.188 138 113 100
40.8995 68.0992 991.188 138 113 100
-411.666 239.672 1292.89 127 91 76
186.439 346.57 1136.02 216 226 222
280.659 352.722 1144.26 198 220 219
327.783 415.628 1180.41 171 203 198
-1350.3 -579.31 2992.06 143 154 146
-1457.67 -565.203 3057.61 62 57 45
-484.525 51.6002 1150.82 225 200 161
81.4206 120.778 1000.39 236 216 199
-428.689 219.918 1236.85 252 252 243
19.3332 192.859 1097.02 118 103 89
-632.514 -103.202 1448.6 144 139 115
-393.344 31.1755 1299.69 169 144 127
-676.283 61.1653 1225.88 215 217 213
-676.283 61.1653 1225.88 215 217 213
123.31 112.331 973.621 233 229 230
123.31 112.331 973.621 233 229 230
-356.94 200.817 1378.41 175 135 117
-356.94 200.817 1378.41 175 135 117
320.817 468.936 1213.17 191 223 222
219.013 85.1277 934.131 250 255 243
112.939 158.695 1013.35 177 153 143
112.939 158.695 1013.35 177 153 143
99.2157 208.331 1051.53 212 211 190
-468.66 -0.585445 1179.34 50 40 28
243.904 424.227 1260.16 225 249 244
364.581 414.784 1164.32 158 185 186
364.581 414.784 1164.32 158 185 186
-1289.53 -551.618 3234.26 145 152 145
-1289.53 -551.618 3234.26 145 152 145
274.277 20.5885 1013.99 123 96 82
-456.245 475.536 1455.58 84 88 83
-402.095 194.448 1037.23 255 252 254
-405.893 116.007 1341.79 53 38 33
178.923 168.813 996.736 250 255 251
349.778 242.732 1061.93 126 120 103
