-667.474 -149.304 1133.1 28 36 30
409.211 -224.853 1759.53 191 208 210
409.211 -224.853 1759.53 191 208 210
231.769 -170.582 1956.36 82 103 73
432.465 -102.783 1784.13 140 128 106
106.782 1.93358 1225.18 125 41 11
477.467 90.775 1960.05 254 255 234
-200.306 54.9101 1120.77 135 91 65
56.9458 128.298 1139.94 183 127 122
-127.902 150.225 1137.21 45 1 0
-23.0925 169.582 1088.79 55 21 6
176.645 241.674 1297.06 34 51 50
355.788 370.611 1848.1 220 238 240
-36.4575 330.005 1074.94 148 142 133
-37.0421 356.647 1149.59 18 8 0
11.0234 384.116 1143.55 152 103 81
-22.3068 408.64 1160.16 91 71 58
-28.6205 441.903 1231.41 43 31 21
-104.161 531.58 1384.37 1 3 0
62.5704 458.545 1164.52 46 52 47
57.6914 517.921 1105.29 148 173 162
5.35209 578.563 1214.21 87 88 89
46.4979 569.985 1193.52 135 175 157
-657.867 -162.86 1100.53 25 31 26
350.561 -231.621 1759.93 82 94 98
-395.65 -74.4152 636.195 106 122 113
-752.538 -123.795 1120.14 50 53 45
388.377 -101.166 1799.46 255 248 234
340.971 -79.505 1654.73 27 7 3
365.687 64.0889 1757.1 32 15 11
138.602 64.2997 1311.73 234 208 192
-136.121 82.5692 1104.55 42 3 0
374.986 174.672 1843.75 78 71 69
412.846 178.376 1818.72 131 118 95
446.867 196.147 1913.26 216 211 191
94.9181 143.638 1198.29 142 106 78
103.823 179.288 1229.18 121 100 80
14.0975 197.473 1090.14 69 49 46
14.0975 197.473 1090.14 69 49 46
-115.543 235.445 1148.57 64 31 23
53.9292 466.558 1183.97 243 244 228
14.342 493.077 1230.4 31 21 15
128.168 -41.7022 1270.24 247 232 217
-222.705 31.7479 1147.68 77 56 43
53.1439 60.3453 1168.69 254 255 251
91.7192 112.027 1210.3 201 134 110
50.2454 117.997 1144.69 255 252 237
50.2454 117.997 1144.69 255 252 237
50.2454 117.997 1144.69 255 252 237
401.479 214.415 1804.53 214 201 176
154.061 217.993 1336.41 250 246 238
289.468 339.386 1882.79 80 100 105
38.8002 371.502 1150.43 243 241 228
112.477 431.759 1315.06 151 153 122
40.232 391.64 1169.83 57 26 20
-15.1145 383.886 1134.69 25 13 6
71.4673 439.702 1223.68 61 54 50
45.7091 473.179 1223.6 39 26 25
86.6738 607.961 1341.65 39 37 34
-630.531 -101.932 946.761 106 120 112
102.398 79.7218 1221.19 239 224 213
75.5666 101.015 1186.6 254 253 250
88.4074 183.82 1214.64 240 220 204
354.161 261.786 1700.77 227 244 242
123.535 194.575 1276.14 251 250 251
86.5324 279.189 1242.61 247 253 248
41.7402 326.51 1152.86 254 253 255
63.6712 372.151 1195.92 255 252 251
73.9362 397.985 1228.41 82 79 74
89.8664 447.99 1242.24 255 253 246
43.6514 461.789 1196.33 52 46 42
-624.006 -144.865 899.732 114 121 112
17.8364 105.606 1079.75 254 253 241
378.863 210.866 1827.37 66 49 40
78.203 146.7 1183.74 248 223 204
78.203 146.7 1183.74 248 223 204
-40.2062 334.254 1192.25 132 121 111
25.5716 363.787 1160.84 68 38 34
-633.798 -109.566 1055.48 46 57 52
448.635 -32.7063 1876.84 234 225 213
-106.612 62.6734 1070.95 159 144 125
-82.8858 78.7332 1079.08 25 24 15
-44.9263 -37.9616 1300.19 51 84 108
138.029 197.449 1312.49 243 227 216
202.478 232.986 1526.57 43 54 72
-83.7977 341.837 1187.6 157 109 88
-549.083 -144.526 975.049 88 94 89
-438.324 -209.173 1674.76 36 34 24
-95.5694 204.36 1122.82 151 84 47
-36.8867 17.48 1163.96 159 130 105
130.277 -111.556 1598.99 55 43 39
-68.7276 345.588 1172.59 155 88 61
-610.55 -133.226 929.66 102 112 105
301.286 -116.966 1660.72 42 34 30
-30.5331 206.487 1116.83 60 52 33
239.888 107.753 1416.34 84 57 41
239.888 107.753 1416.34 84 57 41
