62.7457 -283.559 1762.99 51 36 28
-208.471 -203.862 1665.48 171 165 152
-70.2753 -106.186 853.345 174 165 166
-66.3493 -61.3474 520.139 168 166 161
-261.802 -151.218 1637.73 168 160 153
-221.666 -113.718 1581.62 47 24 12
-246.511 -72.9066 1516.7 133 96 56
-81.7667 -35.416 1692.65 128 108 100
-62.0172 17.4135 1107.68 255 251 255
139.192 30.4772 920.119 243 250 250
-145.797 47.5765 1082.36 55 55 49
-139.855 68.5165 989.193 64 62 57
154.762 103.604 944.632 36 4 3
-72.938 150.947 906.378 28 46 44
126.931 158.49 926.961 131 103 87
-83.0966 166.301 911.937 73 73 68
-73.2363 173.068 806.692 172 156 148
89.0806 203.87 939.363 143 80 66
112.094 225.111 948.049 128 106 97
-14.6633 242.456 968.875 29 29 26
104.55 247.97 965.967 111 84 80
104.55 247.97 965.967 111 84 80
139.173 249.036 969.494 149 122 106
-0.304367 257.184 931.11 34 24 14
0.904344 262.683 927.657 218 216 207
43.6405 282.629 963.535 240 236 238
8.22658 319.14 976.244 233 229 221
-42.7401 327.132 946.018 45 37 31
94.9352 354.747 1022.43 15 21 20
190.786 471.681 1098.25 124 130 120
64.7362 521.39 1094.63 118 139 135
-10.8265 495.081 1018.16 26 25 22
-134.91 -181.109 1467.08 80 109 103
-46.3966 -185.304 1618.52 115 113 96
-207.269 -180.078 1624.35 85 102 105
-50.5238 -183.696 1763 31 26 24
-87.9373 -108.654 1034.81 37 20 9
-166.642 -150.106 1579.48 60 46 32
-166.642 -150.106 1579.48 60 46 32
-121.485 -149.132 1575.61 150 129 119
-263.88 -123.074 1531.43 126 103 76
-26.5123 15.9869 1089.83 0 8 0
-153.397 62.0721 1055.03 64 67 61
-128.085 83.4557 975.921 212 237 233
162.77 85.8637 927.836 19 15 9
127.273 177.337 959.781 52 33 18
-29.4358 180.799 960.503 145 142 141
-89.6273 189.741 892.311 13 19 23
109.863 217.461 951.722 68 24 18
-102.466 259.615 981.14 248 247 240
6.03562 254.189 941.992 33 14 6
15.9173 255.636 948.102 219 215 205
15.9173 255.636 948.102 219 215 205
-16.1624 280.361 931.594 32 14 6
70.7215 294.008 974.581 65 69 64
70.7215 294.008 974.581 65 69 64
110.874 300.54 982.348 24 31 50
110.874 300.54 982.348 24 31 50
-75.6196 308.489 936.486 239 238 232
121.713 364.525 997.242 23 18 21
62.202 375.906 1008.22 135 82 73
197.721 399.146 1033.1 191 147 131
88.5562 433.389 1036.2 172 137 116
244.614 493.599 1177.69 231 231 212
224.828 498.075 1173.02 119 112 106
153.798 466.728 1077.25 18 11 10
122.575 542.996 1110.86 35 66 89
-275.57 -170.785 1689.31 97 107 103
-193.477 -68.3193 1559.77 189 174 162
-193.477 -68.3193 1559.77 189 174 162
-20.346 -39.9225 1512.3 213 149 120
132.862 5.30053 1012.64 90 91 80
103.235 83.1878 890.813 145 115 92
103.235 83.1878 890.813 145 115 92
144.841 155.44 952.506 138 96 72
49.1529 263.777 951.058 192 186 177
85.2365 270.458 962.09 144 177 179
92.1831 268.594 937.799 42 61 56
92.1831 268.594 937.799 42 61 56
229.454 492.442 1145.95 43 46 44
171.677 514.342 1110.77 53 69 82
171.677 514.342 1110.77 53 69 82
-211.976 -160.561 1615.7 156 147 138
-236.253 -151.633 1610.84 160 144 131
-70.0619 62.1574 993.831 158 196 198
-131.133 71.4712 1006.16 74 61 53
-1100.73 297.47 1537.04 74 81 71
12.9132 218.904 959.28 160 87 69
12.9132 218.904 959.28 160 87 69
55.586 281.766 972.713 111 53 27
55.586 281.766 972.713 111 53 27
55.586 281.766 972.713 111 53 27
232.395 335.929 1011.09 82 44 36
-53.6307 351.642 965.801 59 56 56
-5.70614 -280.92 1086.18 94 92 87
-130.929 -217.648 878.25 166 173 168
-58.2249 10.295 1112.55 157 140 149
91.68 90.503 908.877 44 39 41
160.831 166.2 970.699 67 44 37
-10.8018 281.923 949.914 61 60 57
-10.8018 281.923 949.914 61 60 57
-146.884 -143.318 1567.36 49 41 33
-146.884 -143.318 1567.36 49 41 33
93.0096 -36.4008 1129.16 47 38 29
93.0096 -36.4008 1129.16 47 38 29
143.685 77.8419 848.261 42 42 37
-1002.58 255.067 1446.11 56 58 48
242.084 307.79 1030.97 212 212 196
222.675 317.311 1025.36 65 48 39
162.312 320.236 1021.02 64 56 62
202.077 493.742 1136.73 91 115 104
-134.726 -105.774 1589.36 171 156 140
117.066 -2.3682 1045.76 85 87 78
-72.9076 39.8486 1044.39 109 98 89
-105.383 170.858 894.81 71 65 60
157.253 239.875 994.275 172 152 143
157.253 239.875 994.275 172 152 143
91.2025 246.839 981.567 46 38 34
85.8797 -30.296 1130.22 83 104 116
121.627 32.4153 1006.7 117 172 163
-144.236 64.0094 1012.94 79 76 75
201.339 251.836 1003.45 55 48 46
-31.2984 303.967 949.537 178 144 133
213.701 362.804 1030.3 179 145 126
213.701 362.804 1030.3 179 145 126
249.056 409.629 1067.08 47 35 36
42.1227 416.595 990.348 141 73 53
-43.4008 -164.722 1526.82 80 79 67
-222.423 -104.746 1571.97 65 47 36
177.639 192.295 972.937 68 52 47
86.8082 199.77 943.932 182 134 108
-104.52 134.975 884.363 42 35 37
-61.8692 259.923 931.482 59 53 54
4.71703 -101.576 521.5 76 65 53
197.908 295.894 1020.3 78 53 43
87.9454 284.739 907.77 96 112 121
87.9454 284.739 907.77 96 112 121
-114.533 -57.8671 1172.36 158 152 143
25.0422 163.115 856.831 71 69 65
