-526.015 -626.208 2333.4 138 128 112
-470.66 -532.652 1999.42 126 111 99
360.012 -278.274 1468.22 159 135 121
497.289 -248.782 1320.87 34 33 31
531.403 -244.715 1323.89 169 159 146
617.75 -228.576 1491.35 90 83 65
-455.399 -100.481 705.485 93 105 105
689.396 -207.278 1493.43 245 249 223
458.352 -174.884 1311.31 12 7 0
-353.303 -81.0193 643.034 32 41 39
520.186 -148.944 1416.06 243 240 239
443.636 -135.018 1464.78 48 36 24
494.352 -109.746 1425.6 83 52 50
500.082 -87.5785 1458.6 195 154 139
734.404 -87.6158 1599.02 166 175 164
519.066 -66.0477 1459.53 243 234 229
583.944 -59.8508 1437.71 255 240 230
57.0654 -24.3312 1098.77 255 233 216
644.834 -8.91352 1515.14 189 190 180
97.233 31.5343 1188.8 220 136 96
-11.3603 87.0451 1082.99 254 238 220
-11.3603 87.0451 1082.99 254 238 220
582.984 185.814 1745.99 38 79 82
622.547 223.016 1743.97 211 238 240
47.6578 167.826 1136.13 255 254 240
607.927 264.707 1684.18 96 129 138
607.927 264.707 1684.18 96 129 138
162.583 231.075 1252.27 200 158 128
156.727 282.186 1281.98 200 149 127
156.138 481.288 1367.96 233 232 221
-24.5235 401.388 1107.26 14 18 16
-24.8179 533.404 1184.21 66 84 77
-107.228 -80.5826 312.101 160 154 144
514.191 -282.716 1432.9 112 75 59
548.142 -266.904 1374.69 42 56 54
373.558 -206.325 1321.65 153 158 147
544.336 -192.842 1395.31 156 156 137
512.365 -161.01 1388.67 255 250 248
512.365 -161.01 1388.67 255 250 248
514.588 -122.304 1446.69 71 52 55
660.104 -111.777 1504.51 208 211 203
660.104 -111.777 1504.51 208 211 203
-61.0918 -15.5571 85.4901 102 84 62
-326.958 -40.0583 587.565 153 152 125
514.853 -74.4657 1429.66 79 60 43
712.642 -70.671 1549.28 146 160 150
-3.4877 -39.416 1078.44 255 252 233
691.715 -40.2666 1467.12 125 128 116
-254.628 -29.8285 1164.25 97 75 54
523.43 -10.9738 1459.46 24 8 9
18.3517 1.50755 1113.99 227 168 147
595.764 14.4934 1479.56 255 251 240
98.0829 17.6147 1153.95 255 251 228
98.0829 17.6147 1153.95 255 251 228
98.0829 17.6147 1153.95 255 251 228
-14.2733 21.0508 1078.82 222 130 100
93.3743 28.8454 1153.06 218 144 112
93.3743 28.8454 1153.06 218 144 112
-179.169 31.6148 1114 57 33 22
-79.576 53.6675 1037.6 156 124 120
-54.9348 54.2603 1061.64 255 248 249
-54.9348 54.2603 1061.64 255 248 249
-38.6727 91.2383 1067.84 186 101 91
121.526 134.678 1211.74 207 157 140
581.415 196.002 1609.3 33 68 92
61.6472 155.382 1163.24 128 108 96
60.1016 169.514 1173.27 250 254 253
559.096 261.941 1772.77 121 142 138
-96.3066 155.22 1040.25 66 42 40
599.528 319.124 1692.1 146 176 167
-16.5788 250.191 1141.23 253 250 246
-50.1894 347.192 1121.93 239 224 211
-47.1969 -70.7576 278.634 124 124 115
-200.713 -88.2707 389.276 151 154 147
-131.541 -44.8849 224.72 138 142 136
-15.0208 23.4469 -107.111 146 119 89
-75.6612 -15.1114 67.8631 56 73 67
-150.287 -82.8665 488.493 145 123 96
489.383 -182.087 1358.81 128 128 112
-392.795 -91.1615 792.335 51 54 54
669.673 -117.986 1489.12 254 252 243
523.169 -112.568 1436.83 239 226 223
-15.8151 -95.2836 1226.29 133 139 138
-15.8151 -95.2836 1226.29 133 139 138
536.08 -61.328 1458.3 234 231 231
23.2653 -41.349 1092.61 180 138 109
539.434 -48.2015 1436.41 129 108 118
520.342 -23.3838 1491.18 161 148 139
-79.9976 8.65796 1024.82 170 97 86
697.094 40.0486 1545.55 245 246 224
-94.3199 42.8648 1023.38 252 255 249
649.873 86.4364 1533.95 143 129 106
582.929 138.181 1595.21 37 25 16
572.318 193.275 1764.11 137 160 158
57.2413 125.873 1154.14 255 251 236
-105.838 145.172 1081.84 87 45 34
-81.7088 172.894 1025.12 254 254 233
-81.7088 172.894 1025.12 254 254 233
527.675 309.337 1667.53 55 66 63
-23.0573 218.585 1120.26 121 85 64
-10.3529 231.899 1140.66 139 82 69
112.756 346.118 1256.37 173 162 125
-8.03903 325.606 1157.71 255 254 250
-134.678 380.814 1298.48 89 57 40
-274.656 -131.419 480.697 154 156 144
-286.42 -121.519 516.063 145 150 147
-36.4454 -133.08 574.965 50 32 15
548.102 -291.275 1358.54 80 107 102
471.291 -299.397 1560 92 57 63
-293.637 -103.902 549.584 142 146 138
430.736 -241.469 1450.31 9 6 3
-318.312 -116.824 720.781 131 139 133
-28.6393 -111.617 1267.48 56 77 85
540.421 -30.8674 1459.53 250 253 254
540.421 -30.8674 1459.53 250 253 254
7.75962 -8.38736 1087.49 255 216 208
-75.0468 -3.62658 926.277 220 203 178
716.84 63.6339 1614.01 135 128 93
716.84 63.6339 1614.01 135 128 93
-76.2336 63.1293 997.153 218 242 229
617.041 108.09 1541.69 116 99 78
-136.991 111.518 1134.05 162 117 109
-93.6489 131.746 1057.59 254 250 250
592.565 249.159 1678.24 180 211 203
18.614 184.352 1195.55 255 252 252
-4.73905 380.647 1161.56 64 49 44
-4.73905 380.647 1161.56 64 49 44
603.109 -298.292 1443.95 185 212 208
594.502 -246.388 1425.92 88 72 70
-351.817 -70.9763 451.434 55 65 57
486.899 -145.484 1382.23 46 25 16
-509.167 -57.6671 751.967 63 28 22
555.019 -96.0356 1464.54 149 103 81
-40.2246 -41.8969 1113.17 99 75 56
29.4372 80.6142 1139.17 144 81 67
-135.384 79.5398 1069.12 162 118 91
-135.384 79.5398 1069.12 162 118 91
-50.8614 79.4053 1061.73 233 253 248
27.0076 135.08 1138.76 247 225 205
-30.6509 235.202 1114.16 255 241 255
-65.1843 252.117 1107.68 244 240 240
-70.4112 311.507 1132.65 96 73 67
-358.17 -157.26 641.41 70 70 57
-305.58 -132.236 616.968 95 97 86
492.287 120.97 -826.664 74 88 84
573.9 -143.105 1459.37 117 98 82
573.9 -143.105 1459.37 117 98 82
640.391 -66.689 1529.3 139 109 94
-243.696 -15.7259 1156.14 67 46 32
756.439 29.1344 1615.03 160 171 147
-102.512 72.4469 1032.15 246 247 238
-36.6184 124.525 1083.9 242 203 170
82.5568 151.12 1190.64 252 252 244
51.7486 153.872 1175.29 159 134 123
-15.0507 221.801 1125.78 164 110 102
-15.0507 221.801 1125.78 164 110 102
457.425 -110.631 1558.96 74 80 54
457.425 -110.631 1558.96 74 80 54
-225.288 41.1935 1158.53 96 68 55
-30.0451 68.0147 1044.6 220 136 107
126.14 92.2267 1229.23 242 209 173
-33.9733 375.475 1163.27 250 241 233
635.27 -270.621 1461.4 96 88 84
-360.454 -129.947 717.415 135 137 133
-302.421 -101.56 635.821 91 75 59
-302.421 -101.56 635.821 91 75 59
-302.421 -101.56 635.821 91 75 59
88.3865 -70.8573 1156.29 215 187 157
-3.09738 48.3199 1098.18 254 255 254
-3.09738 48.3199 1098.18 254 255 254
-3.09738 48.3199 1098.18 254 255 254
-136.913 48.1321 1083.42 67 49 41
39.8936 323.521 1194.57 171 193 149
5.24778 365.655 1200.68 93 77 76
664.638 171.803 1675.48 238 254 251
-95.1951 -130.395 493.948 138 137 134
361.648 -207.176 1544.53 56 51 39
-17.898 -66.8318 1107.89 85 104 109
646.509 -9.14619 1493.79 255 253 250
467.933 45.7067 1812.73 65 56 50
534.098 283.935 1787.2 78 69 62
487.448 375.173 1760.03 203 204 192
466.22 -193.481 1413.04 56 46 45
116.532 128.612 1247.63 221 204 179
258.545 178.32 1523.57 147 137 118
658.746 -76.4169 1543.02 175 169 155
39.634 120.538 1195.51 170 106 100
