-521.52 -262.433 1071.42 106 108 95
444.189 -250.685 1747.26 102 95 93
244.655 -197.382 1880.53 23 31 13
590.518 -156.481 1869.06 198 185 163
432.146 -82.2615 1636.13 103 82 82
517.037 -68.7046 1779.76 246 241 216
499.376 104.263 1845.98 39 25 8
120.436 204.789 1299.38 255 249 243
397.071 330.647 2034.16 48 66 59
474.215 344.071 1916.03 216 255 255
-34.8111 211.869 1134.44 144 111 95
-79.2291 263.865 1170.27 98 87 77
-0.624907 304.502 1217.81 255 243 234
21.5593 375.556 1291.29 254 255 255
-162.424 445.908 1414.19 60 29 12
127.158 545.876 1417.03 245 243 238
-622.003 -285.045 929.557 139 149 142
406.555 -246.129 1637.89 213 212 213
484.774 -212.118 1706.46 74 53 47
479.584 -158.78 1668.06 166 158 145
485.087 -124.895 1645.56 241 232 212
434.551 -86.9765 1694.73 163 139 128
553.734 -85.9026 1783.8 255 254 223
528.491 -38.0016 1845.93 255 252 242
383.295 27.7027 1767 36 20 7
520.572 58.6941 1769.94 252 250 235
1.81912 92.1824 1177.69 255 244 237
556.217 167.171 1900.25 144 122 100
77.1299 115.641 1263.19 255 234 215
423.693 135.014 1441.02 255 253 244
90.4248 152.532 1300.44 254 254 246
-63.6048 168.241 1181.12 194 156 145
-42.6482 180.809 1163.39 78 54 49
-153.264 203.774 1205.61 47 14 5
573.503 336.215 1989.91 166 180 181
-88.1402 239.716 1179.96 121 101 86
-6.40816 287.513 1181.38 180 136 143
-6.40816 287.513 1181.38 180 136 143
125.895 391.913 1370.62 250 245 224
-164.851 468.806 1452.45 164 156 141
-164.851 468.806 1452.45 164 156 141
-59.3597 449.623 1269.26 193 178 162
25.7751 456.233 1264.65 28 31 34
-17.9516 474.216 1277.04 160 143 127
52.6581 574.082 1346.31 48 47 42
498.314 -252.175 1682.69 187 214 213
470.211 -100.96 1728.84 251 247 246
519.752 -31.3343 1720.07 132 118 105
85.6711 -20.6676 1238.6 126 61 38
538.819 27.584 1805.09 255 251 232
-18.563 19.1972 1148.45 181 105 91
125.522 61.5526 1333.32 251 224 186
-11.3922 89.1756 1158.64 160 119 116
-11.3922 89.1756 1158.64 160 119 116
76.3299 156.981 1232.98 172 136 118
-37.1747 146.103 1098.55 251 253 255
-37.1248 266.169 1156.87 78 36 38
-84.8806 310.618 1322.75 70 37 27
-10.3828 316.204 1145.39 252 255 251
25.1105 345.367 1210.04 254 253 253
-11.9539 349.12 1184.4 254 254 251
-60.6111 381.901 1255.34 61 40 32
-165.571 471.439 1458.95 157 152 138
543.365 -161.721 1919.18 98 77 71
644.586 85.0391 1936.35 162 165 137
597.929 114.853 1877.29 154 146 121
2.68822 97.5579 1182.2 255 250 245
59.1841 192.538 1241.93 252 252 252
-37.4392 263.553 1144.86 78 36 38
29.1153 413.139 1246.7 85 74 72
29.1153 413.139 1246.7 85 74 72
48.342 448.956 1323.03 253 247 231
-48.4688 19.0334 1084.83 208 189 166
-134.251 54.5265 1178.21 42 25 10
424.195 164.342 1599.19 61 44 34
464.28 207.897 1789.21 201 219 215
105.78 175.208 1305.43 255 253 254
-85.4025 160.455 1184.55 75 63 40
-5.36546 189.716 1168.5 247 202 167
25.2183 242.446 1205.11 160 109 105
25.2183 242.446 1205.11 160 109 105
-26.5339 341.756 1208.45 84 72 62
19.2413 351.442 1235.71 248 248 253
-6.36735 420.95 1194.49 63 51 44
-718.157 -262.308 1815.99 73 72 70
20.843 89.0362 1242.72 222 145 122
392.613 260.829 1959.08 105 116 134
-117.72 299.524 1196.35 151 97 69
34.8313 381.689 1270.78 94 85 76
-555.834 -330.972 1715.8 117 119 115
-166.643 -361.194 2190.35 45 45 30
381.125 -234.227 1685.89 186 171 150
480.629 -205.054 1578.1 100 84 75
-32.6712 132.352 1128.14 250 255 254
-140.122 181.703 1228.7 161 92 56
-48.5634 -63.7213 1240.43 51 100 97
19.8072 -44.0734 1183.44 71 102 113
420.399 -24.1432 1791.69 61 47 40
-106.717 312.218 1222.96 148 83 46
-37.329 399.853 1246.92 62 51 55
-521.267 -241.495 1279.37 126 136 129
-87.4657 56.3769 1151.48 55 37 30
-212.702 77.328 1208.12 71 48 32
448.379 223.456 1650.42 208 228 228
-79.566 186.9 1190.65 73 57 41
405.729 -156.266 1676.66 57 46 43
405.729 -156.266 1676.66 57 46 43
256.749 -145.077 1756.33 57 51 46
308.536 94.8942 1946.25 109 101 93
69.1397 510.94 1341.34 75 74 73
661.979 -674.287 3398.25 180 182 170
335.48 47.139 1644.33 80 94 53
53.8004 112.84 1336.36 176 143 124
-139.043 119.744 1115.28 157 85 58
