-71.9679 -523.126 1870.67 189 185 175
-35.096 -393.287 2002.35 45 30 10
-10066.6 -828.125 19307.3 246 253 246
-1129.62 -4.76912 2250.69 126 130 125
-992.754 24.3259 1892.8 154 156 140
-509.188 25.0406 1399.26 107 101 84
96.3409 32.4788 993.244 18 24 12
96.3409 32.4788 993.244 18 24 12
-565.25 77.0448 1408.91 227 196 187
-559.295 96.5467 1439.71 2 4 0
37.5545 99.1961 1006.15 197 196 185
-234.896 122.877 940.029 132 135 130
-476.431 268.042 1420.28 25 10 8
-467.992 302.273 1438.8 34 43 33
-597.937 369.902 1682.34 252 252 233
130.278 246.174 1064.17 29 30 26
125.208 294.716 1049.98 9 29 35
-12.166 286.541 955.281 17 8 1
-17.3676 293.459 950.509 30 23 16
150.046 382.69 1103.99 87 35 18
186.4 474.167 1176.92 93 48 33
-147.878 486.816 1145.99 255 255 242
-129.958 442.918 1024.75 252 252 239
86.9399 493.945 1055.22 42 41 29
35.6447 525.772 1098.75 153 104 91
-83.3986 487.559 982.852 174 174 163
-83.3986 487.559 982.852 174 174 163
-115.78 -559.019 2048.58 69 54 40
-1256.56 -121.972 2343.26 240 246 240
-413.944 -45.0424 1546.25 27 25 12
-413.944 -45.0424 1546.25 27 25 12
-451.883 -35.7033 1521.92 161 137 112
-362.518 -30.4245 1431.6 31 25 13
-502.48 -33.2627 1550.71 40 29 27
-524.345 -0.790377 1464.2 217 191 166
-520.763 25.8905 1435.15 107 101 84
-50.7879 44.4662 1048.15 97 94 93
-591.615 72.3425 1433.42 141 96 60
-422.743 103.084 1576.84 38 25 28
-198.434 73.602 1068.23 106 99 95
-546.264 134.129 1448.25 24 4 1
-127.761 110.597 936.036 40 54 64
-127.761 110.597 936.036 40 54 64
-524.627 188.093 1544.49 30 22 17
-145.759 116.509 925.164 71 99 92
-57.9914 115.161 907.638 5 25 38
104.226 163.994 1033.99 149 105 89
-83.7013 172.966 859.264 30 42 39
-90.7714 191.969 864.912 75 72 70
-85.0475 212.83 899.274 35 35 39
64.7442 238.178 986.414 47 19 13
161.339 301.471 1095.76 152 102 83
-179.332 300.673 975.936 255 253 249
82.1056 324.018 1028.15 28 55 70
195.195 362.21 1141.8 83 48 41
96.7278 397.067 1056.1 48 36 31
-64.4157 354.44 907.462 152 132 122
-78.7292 513.353 1044.12 250 251 240
-78.7292 513.353 1044.12 250 251 240
-638.823 -26.5887 1465.27 183 181 158
-32.3487 18.2612 1101.69 113 88 74
-63.0789 32.9461 1090.73 97 95 89
-545.143 74.5497 1480.74 201 195 190
-690.285 84.0539 1565.27 255 251 246
-754.784 151.458 1758.78 255 250 238
69.1825 90.2426 993.988 131 102 86
69.1825 90.2426 993.988 131 102 86
-77.6405 106.596 902.164 59 66 64
-168.422 153.035 901.501 95 112 101
-488.376 312.269 1568.81 86 64 61
73.8312 232.453 1028.6 185 140 119
-476.991 385.189 1492.67 178 130 100
32.2358 309.381 1003.31 110 66 42
137.922 391.342 1073.5 189 148 128
-363.413 -37.3625 1320.18 52 39 34
-363.413 -37.3625 1320.18 52 39 34
-539.545 2.75402 1444.35 59 49 39
-151.7 65.2906 1066.71 36 36 31
-106.554 62.6743 1040.08 224 215 200
-81.0928 63.1792 1017.38 220 195 185
57.1992 96.4163 985.073 45 43 39
-134.127 100.965 986.624 149 184 181
-155.187 114.735 931.443 116 135 139
117.849 173.053 1052.62 49 31 17
-159.243 158.859 854.559 243 253 238
-132.827 193.22 847.072 251 255 245
99.9584 260.504 1058.5 56 33 23
116.569 259.083 1043.11 186 160 144
116.569 259.083 1043.11 186 160 144
-169.91 364.241 1052.3 184 172 163
-15.2576 343.431 961.301 41 14 11
-62.1524 401.139 958.388 41 33 29
-8.72221 232.881 924.22 137 64 48
-484.306 392.679 1548.69 177 126 97
-79.3039 324.538 902.87 41 30 29
-145.264 493.054 1112.49 195 192 176
-110.602 -566.353 2112.44 69 55 41
48.4324 -1089.76 5086.72 165 167 162
-466.904 -32.3189 1496.93 59 47 40
-466.904 -32.3189 1496.93 59 47 40
-1162.24 2.35232 2197.6 95 95 81
-366.125 79.5227 1585.47 34 30 28
-397.612 98.7047 1522.52 30 17 17
-163.008 91.3089 1020.9 130 131 109
-138.949 100.146 925.975 138 186 176
111.97 315.73 1077.4 94 142 133
123.838 330.181 1056.45 72 58 60
123.838 330.181 1056.45 72 58 60
6.72121 346.272 973.909 177 176 164
-486.36 27.4494 1487.89 179 175 162
100.883 222.179 1039.2 73 50 41
-222.068 282.73 1019.39 250 246 242
38.2268 43.3549 1015.23 129 201 194
-444.448 85.9299 1544.08 199 178 165
-175.228 129.573 929.627 231 248 241
130.438 198.501 1050.12 67 49 43
31.8099 471.125 1030.86 151 78 56
201.164 -341.614 1036.25 161 169 165
-331.69 203.957 1255.91 177 178 166
55.9935 217.839 997.862 185 145 110
-541.564 39.1384 1376.54 60 51 45
-113.976 165.775 856.683 55 46 50
-108.28 288.325 808.736 236 238 225
28.8508 -507.433 2058 160 160 155
28.8508 -507.433 2058 160 160 155
-70.1176 291.404 907.587 58 52 50
-364.787 396.017 1370.05 82 90 84
-373.36 95.6724 1155.01 66 50 50
2.6934 194.258 968.99 60 58 56
