-202.887 -144.547 687.55 145 146 132
235.151 -173.711 1071.42 157 195 184
-700.675 -134.99 1118.53 106 115 105
110.277 -94.6215 1001.52 253 221 214
33.3503 -75.4351 998.805 57 47 41
-369.249 -52.4551 1271.21 102 94 84
-696.752 -49.6041 1248.84 89 92 85
-400.372 -34.1395 1210.13 118 112 92
-36.7035 -12.9405 914.884 33 37 31
-395.249 36.5974 1183.52 145 142 135
-435.23 63.3347 1156.91 32 21 15
-348.384 73.5603 1276.11 28 12 13
-595.822 70.5113 1180.62 252 230 217
195.729 57.8405 919.636 198 189 174
-461.526 75.5203 1101.56 194 144 125
-407.477 85.887 1172.24 30 21 11
-423.867 102.467 1179.3 47 31 19
-454.498 119.091 1077.65 252 243 218
-286.347 177.113 1355.1 165 132 116
14.0055 137.047 986.559 244 231 221
-320.222 218.66 1250.69 216 178 162
-365.925 243.638 1216.65 38 32 26
-546.112 252.083 1206.33 148 118 109
51.1429 237.796 1015.64 114 116 101
305.997 242.969 999.671 242 242 228
300.465 251.661 975.318 252 255 250
-462.587 320.58 1147.09 197 226 191
-325.571 477.463 1307.91 134 144 137
-312.798 496.207 1337.66 127 166 150
-249.129 547.437 1378.01 246 248 241
-579.859 -174.454 1111.71 52 53 42
-600.588 -173.458 1171.17 52 52 33
-600.588 -173.458 1171.17 52 52 33
57.8967 -135.915 1089.14 176 173 163
-516.919 -93.5511 863.294 104 100 88
-805.951 -139.606 1320.91 106 114 107
162.943 -91.7563 924.137 50 52 55
-917.66 -149.036 1529.67 89 96 89
8.58596 -81.9123 1023.29 176 170 171
127.704 -72.9242 919.619 213 224 222
132.395 -69.7068 894.868 68 75 72
-852.854 -100.325 1477.91 101 109 102
160.711 -26.2361 852.362 250 250 240
160.711 -26.2361 852.362 250 250 240
-464.22 -24.7231 1134.11 61 81 89
-412.305 -13.8843 1146.84 140 130 107
231.61 -0.108546 857.704 204 211 202
-449.609 14.1189 1120.57 142 119 95
-549.968 26.7768 1112.29 255 253 236
-578.202 35.4194 1089.87 241 237 229
-335.91 54.3463 1295.09 153 125 102
-421.023 65.2778 1052.97 250 218 178
-434.801 73.3938 1119.21 108 65 31
78.404 62.4659 915.635 255 253 235
155.616 64.7099 903.077 112 94 76
91.3762 64.8446 904.537 133 109 92
-603.652 96.7278 1131.69 253 251 248
-411.731 94.5993 1072.02 251 239 222
-436.838 104.637 1033.72 175 140 124
-447.136 120.331 1123.44 255 247 222
103.027 115.164 970.704 184 132 102
272.774 118.419 910.591 218 235 209
-298.965 193.752 1359.82 139 102 89
-446.741 176.994 1121.88 255 245 225
-396.683 199.001 1168.14 249 240 229
105.106 198.797 1020.96 133 109 91
270.762 188.064 925.721 236 242 225
88.6039 244.608 1010.15 222 224 203
88.6039 244.608 1010.15 222 224 203
-226.781 378.663 1364.07 51 43 38
-317.826 349.188 1253.51 190 173 164
-324.89 369.682 1263.33 130 117 102
221.1 397.196 1176.44 78 117 124
235.875 458.447 1209.31 176 190 187
-268.541 577.335 1426.05 247 247 242
-617.789 -212.254 1229.82 156 162 156
221.998 -170.928 1064.2 69 98 87
221.998 -170.928 1064.2 69 98 87
-335.293 -66.4158 525.373 91 95 79
59.5903 -97.4976 1028.46 219 218 216
59.5903 -97.4976 1028.46 219 218 216
92.607 -65.4368 932.068 180 188 190
-382.618 -26.0636 1219.52 138 118 97
-429.341 6.67034 1148.49 158 132 106
-429.341 6.67034 1148.49 158 132 106
207.005 11.8114 859.902 251 255 252
-539.72 20.6161 1137.04 242 233 215
213.953 24.3627 884.842 107 117 108
203.743 31.003 832.475 253 255 254
-509.678 45.1459 1098.39 146 76 54
-407.487 53.5196 1142.53 182 167 153
-404.778 60.4534 1176.3 67 55 43
310.863 54.1527 1000.37 169 160 149
-10.7561 54.5494 948.232 133 116 115
-295.772 82.4373 1261.6 23 21 21
26.9945 60.8165 950.804 250 247 251
-362.206 60.2466 795.877 253 251 237
-552.223 75.4941 1048.47 255 254 239
155.906 126.972 1048.08 227 164 130
155.906 126.972 1048.08 227 164 130
83.185 146.285 993.441 218 208 208
116.645 148.704 970.086 117 100 91
-282.644 204.339 1248.74 94 52 43
116.225 160.75 980.491 229 223 221
116.225 160.75 980.491 229 223 221
-256.036 252.613 1421.27 43 33 23
-354.324 218.011 1218.16 61 47 39
50.5012 178.375 986.296 73 66 64
42.6758 205.85 1036.72 104 93 87
-268.201 322.776 1366.57 18 24 18
-282.101 394.881 1500.59 100 90 87
395.168 427.79 1187.85 63 90 104
319.035 477.046 1136.43 167 176 172
319.035 477.046 1136.43 167 176 172
132.514 -145.367 1064.7 71 76 66
103.393 -97.0029 998.805 226 189 175
-425.587 -10.5626 1141.4 43 33 28
-663.979 45.3659 1141.32 250 244 223
2.37943 49.8576 942.392 253 255 255
133.657 88.5802 928.296 156 135 115
-608.389 114.263 1191.87 192 129 125
137.628 115.129 958.191 238 162 135
-433.653 156.606 1132.52 246 250 242
-433.653 156.606 1132.52 246 250 242
62.5723 136.595 985.631 255 249 245
62.5723 136.595 985.631 255 249 245
300.165 164.322 977.694 207 210 192
54.2257 234.595 1071.65 125 122 108
-274.233 332.119 1402.97 28 29 21
294.221 221.657 937.394 68 66 60
374.978 410.607 1164.94 167 205 197
378.142 448.307 1175.02 71 95 123
378.142 448.307 1175.02 71 95 123
193.825 -124.69 976.282 55 97 99
171.585 -107.917 950.464 213 187 176
125.64 -105.582 984.701 209 187 174
166.936 -87.1029 905.47 96 92 93
-407.116 -98.945 1267.18 173 165 144
-704.723 -62.3464 1285.04 166 174 167
217.404 -0.383604 863.016 121 149 111
-364.015 34.625 1289.06 169 138 116
-322.62 54.0975 1306.01 36 16 13
-604.102 82.1641 1184.51 229 157 130
193.739 87.9892 903.013 255 252 248
46.1957 153.542 999.16 124 105 103
168.736 159.39 939 251 253 251
38.2363 169.673 1000.8 249 253 255
179.95 222.422 1010.87 198 197 186
177.577 262.517 1033.98 254 254 246
-421.85 363.722 1286.11 255 251 245
-512.048 375.047 1261.55 106 103 95
212.421 257.621 863.855 134 128 113
-326.141 390.282 1276.52 58 61 51
159.4 -63.9906 871.055 154 195 185
-379.543 27.3068 1220.76 49 39 43
85.123 42.2096 948.579 106 79 69
68.4915 75.1225 900.273 132 116 107
68.4915 75.1225 900.273 132 116 107
129.902 176.752 991.915 142 118 108
-573.3 285.159 1308.14 252 251 252
-324.083 387.596 1271.01 64 64 55
353.912 413.545 1141.17 166 202 195
84.8494 -10.1701 871.321 97 78 73
-391.577 7.07974 1194.54 137 132 119
111.969 129.419 961.334 237 213 197
52.873 195.836 1030.29 204 192 181
-383.583 233.141 1157.28 253 247 233
-395.473 304.183 1139.68 251 254 254
144.752 38.1671 -325.874 142 152 146
-545.42 -61.5751 1254.26 157 144 122
-359.182 8.37632 1293.72 64 59 57
111.839 15.5938 894 221 220 207
-617.718 85.7156 1135 217 223 215
153.948 121.394 943.281 233 228 223
153.948 121.394 943.281 233 228 223
-433.716 177.16 1197.71 228 204 183
-319.776 218.171 1302.15 173 138 117
227.006 306.212 1046.82 142 129 117
227.006 306.212 1046.82 142 129 117
-183.187 -139.833 592.957 158 167 163
-383.157 -62.8527 1273.49 53 49 44
141.819 164.199 967.813 150 128 117
141.819 164.199 967.813 150 128 117
-279.311 249.109 1395.81 60 55 51
-279.311 249.109 1395.81 60 55 51
-212.252 140.964 1156.31 184 177 165
235.521 369.333 1059.4 226 250 249
329.379 -104.726 1189.73 112 107 103
-401.846 472.441 1332.61 86 94 90
-561.666 -120.446 1056.98 111 105 90
41.944 -20.6098 888.802 54 37 36
-372.417 138.972 1288.26 61 47 43
219.07 185.385 1012.3 252 255 251
-272.599 390.598 1274.23 61 58 57
-272.599 390.598 1274.23 61 58 57
426.84 288.804 1191.17 128 122 111
