-419.666 -52.4626 845.364 51 47 38
343.042 -50.7281 1023.44 100 79 72
521.489 -52.7223 1085.67 181 169 150
-356.206 -56.7681 1199.14 123 120 108
627.143 -31.3406 1111.71 235 249 230
502.248 -17.1486 1109.85 165 152 129
-263.028 233.43 1116.32 123 117 108
636.575 329.428 1330.07 232 255 254
509.292 387.246 1359.65 177 207 221
593.512 370.85 1290.26 213 237 242
600.733 490.42 1492.02 96 131 131
-309.018 -73.6432 1213.7 133 152 147
-366.235 -64.6251 1196.85 89 70 60
533.589 -46.5188 1078.3 147 142 117
441.222 -5.69061 1098.66 199 194 165
-356.937 25.7316 1009.41 27 17 11
-421.542 67.9334 935.773 150 96 76
-320.117 128.758 1047.1 244 248 244
-490.403 139.612 1065.56 152 148 141
-180.793 235.997 1060.27 255 224 202
573.008 366.067 1192.19 226 253 251
702.731 486.218 1461.08 251 254 251
574.315 -47.2727 1056.22 248 255 242
-346.515 -53.5061 1156.54 145 141 121
356.35 -41.6844 1072.5 255 252 250
469.333 -25.789 1073.54 146 126 111
-345.724 29.3985 1003.33 239 227 212
627.968 43.7555 1197.63 133 142 138
-413.242 53.096 944.408 207 202 183
-413.242 53.096 944.408 207 202 183
-456.117 99.77 982.533 79 58 48
-444.077 108.433 985.299 146 111 103
-405.763 115.994 1015.9 252 254 251
528.272 398.849 1441.52 84 112 130
-122.915 349.843 1196.91 198 140 114
-122.915 349.843 1196.91 198 140 114
647.023 421.772 1389.97 240 255 251
323.617 -49.9515 1046.19 255 254 254
588.178 -48.1252 1079.42 247 254 242
588.178 -48.1252 1079.42 247 254 242
480.332 0.947992 1109.35 206 142 109
480.332 0.947992 1109.35 206 142 109
-467.689 48.8563 1015.85 131 109 88
-324.285 59.1539 988.511 247 208 189
-357.222 85.3035 1028.05 209 128 94
-457.832 63.127 959.34 207 195 169
-446.875 162.033 1027.22 252 254 252
-308.187 239.449 1092.28 253 252 248
512.223 -17.2647 1063.01 160 158 131
512.223 -17.2647 1063.01 160 158 131
503.401 -2.62347 1110.44 251 254 255
-389.223 90.0979 990.98 250 254 250
-389.223 90.0979 990.98 250 254 250
-294.016 145.275 1027.33 133 83 69
-294.016 145.275 1027.33 133 83 69
-351.144 179.804 1075.9 235 213 195
-292.977 182.275 1074.71 136 92 74
415.869 -26.5991 1098.36 108 93 85
-276.259 222.638 1086.07 130 107 97
-276.259 222.638 1086.07 130 107 97
613.744 -44.3515 1118.51 243 250 244
-382.446 142.674 1060.88 220 136 116
-435.752 167.299 1035.01 254 254 254
-435.752 167.299 1035.01 254 254 254
-147.386 237.833 1104.44 254 244 219
-76.2344 390.453 1271.53 78 66 63
626.714 89.9623 1132.25 95 113 103
577.627 90.0695 1184.45 252 255 250
-226.098 354.53 1241.53 210 204 203
