-312.029 -474.835 1542.09 160 156 148
-20.4735 -210.099 732.014 6 2 0
-433.013 -388.887 1419.99 28 39 32
-464.834 -364.97 1375.08 49 53 47
-508.032 -337.202 1875.52 179 171 157
701.983 -151.171 1271.48 128 148 134
406.551 -109.188 1143.16 120 109 106
535.573 -105.88 1212.52 108 84 63
437.621 -98.8007 1151.57 145 146 147
405.789 -79.5218 1198.93 45 26 17
552.948 -63.9563 1202.88 163 109 91
537.128 -49.3909 1220.03 246 211 198
521.621 16.3142 1261.83 254 247 232
-119.846 33.4495 1025.57 255 248 234
455.689 74.9045 1235.49 142 141 110
-168.764 83.9639 1035.41 227 218 210
-159.611 102.078 1046.16 98 38 24
479.832 169.084 1469.71 47 36 25
-158.806 131.396 1047.01 255 222 200
-80.9673 276.663 1137.1 255 251 253
-268.269 257.456 1046.89 247 254 250
-88.1753 247.422 968.498 166 152 139
-205.214 313.06 1090.41 249 232 220
-32.373 387.719 1202.61 26 27 34
-242.606 353.619 1072.26 246 234 224
-36.2985 353.715 1088.42 8 16 10
-101.036 467.999 1321.7 19 29 32
-240.28 404.194 1098.48 147 148 140
-36.0691 527.127 1296.24 35 51 42
-38.7797 499.782 1201.79 175 203 194
-187.916 505.951 1168.45 16 13 11
-226.689 -371.26 1053.64 74 70 54
-226.689 -371.26 1053.64 74 70 54
86.4161 -326.097 985.914 146 147 139
-274.167 -181.674 595.239 70 82 75
-1427.66 -578.619 3125.99 74 63 50
691.804 -123.84 1239.91 238 241 220
-189.457 -102.783 1185.96 127 133 134
-256.985 -91.4006 1173.23 57 40 33
596.61 -93.2472 1234.48 206 193 165
405.504 -69.8079 1186.66 126 105 96
449.823 -63.1596 1161.45 162 159 137
557.904 -45.3833 1209.8 252 232 228
541.614 -24.6286 1244.94 253 242 234
546.083 -15.0837 1243.39 74 56 43
476.039 21.5796 1220.76 255 251 252
541.131 27.8739 1259.23 241 226 218
531.029 44.6013 1247.33 227 213 185
558.381 45.6343 1262.34 255 255 238
558.381 45.6343 1262.34 255 255 238
549.98 80.2586 1262.28 158 157 147
-242.566 62.4109 984.985 203 137 122
-327.536 75.047 1074.93 100 83 68
634.041 96.068 1329.97 255 255 228
-30.9492 83.3858 1109.81 248 247 222
-136.228 81.2792 1037.69 252 217 204
576.514 103.405 1264.74 253 254 223
661.724 165.28 1387.73 247 251 246
-46.5745 149.018 1078.42 251 218 191
-121.222 154.204 1064.04 250 241 224
589.171 210.152 1409.06 157 184 181
649.53 225.408 1476.6 132 156 168
649.53 225.408 1476.6 132 156 168
480.039 226.505 1434.3 44 51 50
-117.032 168.039 1064.64 255 248 234
603.079 249.066 1504.21 38 71 94
-113.471 186.006 1065 252 248 243
584.832 259.093 1438.55 50 90 86
-261.66 235.012 1055.57 104 47 27
-264.246 274.899 1060.69 251 243 253
-118.504 290.03 1103.8 78 65 50
-230.689 368.621 1146.47 23 27 18
-230.689 368.621 1146.47 23 27 18
-243.451 367.575 1126.42 62 26 1
-243.451 367.575 1126.42 62 26 1
-212.109 377.033 1141.44 14 10 8
-95.949 376.915 1057.6 18 29 31
-307.641 -494.997 1399.32 59 61 52
249.676 -543.257 1580.04 140 145 137
-195.033 -298.257 1009.14 86 83 69
-606.218 -405.471 1364.76 60 70 65
-147.138 -360.638 1287.19 160 160 155
-335.543 -132.278 629.154 55 58 50
-190.815 -114.597 498.796 46 53 46
654.907 -292.545 1353.28 153 201 209
452.802 -75.6297 1168.72 82 72 71
605.856 -47.7934 1241.48 192 190 171
482.596 -18.997 1207.96 255 251 244
-158.137 -14.8758 984.129 150 105 63
-222.159 -8.88526 912.154 133 102 71
548.548 -2.42949 1258.93 242 219 216
-315.504 7.13248 1262.79 202 180 148
-315.504 7.13248 1262.79 202 180 148
-309.102 8.99414 968.45 108 82 60
-50.4312 29.024 1059.33 157 106 68
-258.714 50.7888 978.941 146 98 94
-77.7313 58.8027 1069.35 183 111 75
668.359 77.484 1353.75 255 255 242
-249.416 73.0594 984.905 226 235 227
-249.416 73.0594 984.905 226 235 227
-162.114 78.2492 843.718 197 102 70
-55.7842 103.346 1100.62 237 238 238
-242.854 105.138 1034.25 215 177 164
520.328 173.612 1315.75 142 136 129
669.247 211.006 1425.75 137 160 162
-269.863 190.96 1014.82 89 63 26
-285.224 199.169 1038.91 253 246 234
544.6 319.004 1469.44 39 81 87
2.86288 262.179 1165.45 181 139 111
-188.569 258.372 1054.73 255 251 243
-174.996 291.176 1116 202 143 140
-241.183 299.781 1027.38 247 254 251
-205.855 327.313 1102.12 78 55 47
-235.349 463.659 1207.59 12 12 8
-214.203 -276.326 815.116 156 157 145
-318.981 -162.181 649.679 55 58 50
376.723 -206.699 1252.1 4 5 3
482.575 -141.899 1176.2 143 141 120
412.854 -93.4591 1177.96 39 18 8
683.532 -70.8813 1246.47 136 156 130
396.235 -0.392043 1312.32 99 94 82
554.806 12.1227 1256.52 96 70 65
554.806 12.1227 1256.52 96 70 65
554.806 12.1227 1256.52 96 70 65
757.197 27.6628 1372.26 83 77 70
599.829 50.827 1283.1 180 181 168
483.126 64.1838 1246.08 164 168 138
521.62 108.53 1392.74 155 160 138
599.312 149.006 1291.83 121 113 94
-9.39032 191.348 1123.79 255 252 247
647.947 259.891 1388.9 164 186 190
656.686 377.539 1507.3 213 235 234
-242.045 424.014 1164.52 57 52 44
-550.935 -263.594 1132.84 82 83 71
628.555 -80.0763 1255.9 160 159 121
628.555 -80.0763 1255.9 160 159 121
459.087 25.8734 1237.06 237 234 234
459.087 25.8734 1237.06 237 234 234
586.296 94.733 1282.48 251 251 241
-260.137 241.961 1060.61 133 48 33
-254.278 295.079 1072.41 245 228 238
-196.003 389.391 1113.05 33 26 26
-196.003 389.391 1113.05 33 26 26
288.036 -671.537 2081.21 64 69 71
173.22 -528.313 1682.21 69 76 72
-533.958 -285.743 1115.3 128 147 137
509.33 -86.0205 1202.09 105 83 71
-216.318 45.0538 986.884 208 133 98
-304.002 88.0379 983.387 233 216 206
-152.22 102.323 1035.62 137 85 81
-152.22 102.323 1035.62 137 85 81
-60.3987 110.006 1087.71 252 242 232
-192.495 127.67 1005.14 225 200 178
-144.094 132.946 1040.49 85 36 21
-144.094 132.946 1040.49 85 36 21
-144.094 132.946 1040.49 85 36 21
-144.094 132.946 1040.49 85 36 21
-100.498 173.035 1069.87 249 246 230
-208.859 239.202 1070.67 111 76 62
-277.847 -405.167 1195.08 143 146 143
-277.847 -405.167 1195.08 143 146 143
668.941 -104.154 1225.23 244 253 235
438.823 -97.5866 1170.94 253 253 252
-132.99 174.486 1074.52 124 96 87
-16.7907 196.167 1149.33 226 220 199
-236.408 -323.446 1218.39 97 77 61
-236.408 -323.446 1218.39 97 77 61
-114.483 -67.0334 1035.28 56 83 93
574.013 -2.98214 1261.83 132 110 96
442.883 66.0488 1262.78 47 39 35
711.96 97.2964 1326.42 129 155 117
-212.553 89.5153 964.352 205 114 90
-157.068 350.794 1151.24 146 169 127
-439.547 -272.849 958.349 81 81 76
-439.547 -272.849 958.349 81 81 76
-188.512 -205.544 927.851 171 152 129
-188.512 -205.544 927.851 171 152 129
518.179 -299.136 1371.43 113 97 103
-417.729 -234.688 1243.13 75 61 37
639.933 -221.161 1173.38 122 165 118
464.938 -202.749 1157.92 97 99 91
312.8 -187.428 1259.04 58 52 43
503.451 203.179 1650.38 140 129 116
6.68463 163.588 1241.81 151 140 122
581.541 353.329 1768.2 88 76 65
42.0378 548.888 1422.61 182 181 170
637.594 245.099 1459.92 207 234 235
-174.174 -65.5944 1054.7 67 82 88
-560.557 -265.358 1436.47 64 51 40
368.62 -125.075 1219.35 56 51 45
-100.799 281.799 1171.88 216 224 209
-147.188 141.809 1021.34 137 103 84
