-436.625 -86.586 1158.91 142 122 102
115.805 -63.8176 903.55 31 21 15
108.121 -57.9519 871.458 33 26 14
-105.071 -57.136 951.321 58 57 51
-602.351 -26.307 1076.56 255 249 239
-471.895 -19.7261 1192.67 176 179 170
-442.211 -15.7671 1215.73 35 12 9
35.8385 -6.83305 804.036 255 255 242
-558.132 -8.56947 1140.46 97 67 25
-440.989 8.94884 945.798 21 12 9
-465.03 12.5563 986.887 154 132 109
-406.983 20.3334 1208.8 29 13 8
-437.303 20.7037 951.48 8 11 6
-431.606 22.4126 1224.88 132 110 98
-434.734 44.9668 973.678 26 10 5
-166.193 64.913 958.61 123 116 114
-544.82 86.3142 1159.24 255 232 211
-566.453 97.2744 1189.74 215 164 147
-141.314 78.9143 950.792 193 187 192
-141.314 78.9143 950.792 193 187 192
-158.686 81.0975 948.383 250 254 255
-63.6327 95.4765 923.105 249 248 239
-67.1451 101.875 931.433 116 103 95
-133.261 114.228 953.505 140 106 90
-624.644 159.29 1295.47 110 107 107
-142.224 122.273 979.069 229 212 189
-393.932 134.893 982.82 53 53 35
-426.882 171.137 1283.98 202 177 161
88.6363 136.58 890.18 27 25 20
-496.802 196.82 1289.23 24 9 3
-452.144 270.583 1250.1 190 147 133
-396.293 293.729 1333.59 17 30 27
-22.6476 267.339 1006.98 242 236 201
-400.597 408.966 1323.9 154 201 183
25.7376 330.5 1043.19 206 191 171
-382.597 484.629 1421.14 110 155 144
-388.275 478.047 1372.73 124 161 149
196.478 406.546 1091.68 124 156 153
114.915 471.9 1168.25 252 253 250
-59.5911 -109.318 1057.97 14 11 8
-471.151 -112.281 1182.92 160 156 153
-471.151 -112.281 1182.92 160 156 153
-70.9119 -92.8593 1001.54 64 54 62
-72.5595 -79.9522 979.376 214 223 216
-419.2 -97.2408 1194.32 28 22 17
-419.2 -97.2408 1194.32 28 22 17
88.406 -69.8279 863.009 106 157 162
-148.925 -44.1875 960.694 70 71 55
-450.123 -53.2854 1177.19 110 95 72
-450.123 -53.2854 1177.19 110 95 72
-47.3293 -38.1828 882.626 50 85 90
-133.544 -24.8357 911.079 24 24 17
-453.998 -19.419 1177.65 24 31 31
-182.559 -6.9549 895.615 30 35 32
-437.925 0.394758 1206.64 119 96 82
-535.783 13.5118 1122.92 128 84 50
-477.023 18.6527 1164.9 112 98 88
-477.023 18.6527 1164.9 112 98 88
-637.745 41.2417 1125.23 170 136 125
-549.053 50.9415 1134.15 245 232 212
-549.053 50.9415 1134.15 245 232 212
-561.409 68.3786 1150.72 191 162 149
-132.42 77.1345 950.131 255 252 245
-454.434 98.3856 1101.27 106 102 96
-642.586 139.926 1206.86 254 253 248
-787.88 170.159 1481.93 254 253 248
-69.8542 111.278 942.159 219 223 197
-423.731 149.83 1242.04 181 157 150
3.32755 122.069 936.291 222 220 183
-99.7088 128.358 954.778 254 252 223
-57.8949 130.858 958.354 197 134 112
-116.534 145.307 972.994 154 138 141
-116.534 145.307 972.994 154 138 141
133.235 144.972 942.476 62 37 34
133.235 144.972 942.476 62 37 34
-107.57 178.272 948.537 105 82 90
-501.008 221.574 1174.06 255 252 246
65.7144 163.84 868.564 247 254 242
-65.7862 195.204 989.2 102 75 69
77.6663 186.428 911.826 252 255 249
118.266 244.101 941.196 210 207 195
214.316 342.759 1052.85 87 82 80
-381.503 506.395 1482.94 245 247 242
64.189 374.265 1075.5 101 131 129
110.093 458.224 1135.47 253 252 250
29.2794 -112.178 1010.43 67 64 58
-64.5092 -72.1841 956.848 35 7 4
-437.66 -63.2804 1156.15 151 126 108
-482.635 -53.108 1120.65 157 139 120
-482.635 -53.108 1120.65 157 139 120
-134.14 -43.2649 961.741 168 153 124
-388.25 -41.6596 1204.38 22 31 23
-512.307 -35.6959 1140.9 179 156 134
69.056 2.27973 826.541 50 44 37
-474.166 13.652 1130.29 44 33 28
-355.153 32.1854 1209.75 20 22 18
-675.145 28.346 1134.77 250 253 253
-584.543 31.2886 1126.43 255 252 235
-690.107 69.9124 1199.17 255 252 251
-553.724 66.6649 1134.01 191 162 149
-149.244 56.6686 898.759 255 254 253
27.5054 65.6561 855.555 136 145 128
-95.3771 137.168 956.331 188 129 118
-55.8217 176.712 958.978 253 252 237
-56.7853 201.983 987.867 255 246 233
-113.652 233.975 1053.93 129 124 103
-431.778 288.024 1269.29 192 173 156
-70.0797 323.193 1084.2 171 166 148
193.288 338.11 1051.97 59 82 94
71.5925 349.525 1025.09 252 252 248
121.201 493.701 1129.94 251 254 253
127.168 507.32 1120.05 244 255 255
61.0409 -44.5877 841.245 87 153 166
-61.3607 -38.3278 896.725 183 215 207
195.679 37.7836 1012.89 137 131 118
-596.071 74.7969 1154.56 123 100 81
-38.4174 132.936 908.271 223 164 151
-33.1125 153.79 960.169 253 254 248
-529.321 200.901 1233.17 204 183 163
82.482 145.766 889.545 252 254 245
-125.943 178.746 1009.68 254 249 255
-52.0758 252.583 1026.68 254 253 247
42.0253 366.44 1089.18 253 255 254
201.504 444.203 1127.73 70 105 126
51.623 -90.0077 932.358 40 92 96
13.0527 -53.1578 883.606 101 90 97
13.0527 -53.1578 883.606 101 90 97
-81.426 -15.9679 868.614 55 48 46
-706.12 36.2107 1277.24 250 255 253
161.518 33.8831 971.168 160 114 77
-673.811 55.9248 1164.26 251 252 253
-673.811 55.9248 1164.26 251 252 253
-94.9073 97.135 948.287 152 127 112
-498.781 240.623 1175.47 255 253 254
-454.871 293.054 1275.39 142 99 71
-2.93533 282.997 1026.24 251 251 247
219.526 488.163 1138.68 115 137 144
49.0345 -118.905 995.943 188 203 199
19.0801 -73.7913 905.648 210 179 158
-513.964 -32.805 1099.58 69 58 51
-513.964 -32.805 1099.58 69 58 51
80.0333 11.0751 853.974 161 161 154
80.0333 11.0751 853.974 161 161 154
160.84 16.1956 966.451 157 114 82
-404.872 24.5091 1217.24 45 29 20
59.2096 23.5315 844.586 65 57 53
-472.882 196.799 1219.45 120 102 86
114.333 149.795 902.371 162 127 102
114.333 149.795 902.371 162 127 102
19.0646 -74.0293 900.861 210 179 158
-471.387 -64.4357 1141.36 63 55 49
-116.313 -23.7321 894.798 71 69 66
-566.433 -20.0844 1107.03 230 213 193
-677.218 14.8929 1145.9 231 235 237
-185.897 31.8028 911.192 184 186 168
-56.9729 43.4344 873.052 173 162 152
-413.315 -33.9927 1224.06 65 54 50
51.2894 -0.658313 793.277 49 43 36
-434.088 11.8347 1214.5 178 155 142
-434.088 11.8347 1214.5 178 155 142
-539.516 122.542 1203.07 233 214 191
-405.663 161.196 1272.98 191 151 135
-405.663 161.196 1272.98 191 151 135
68.0523 132 891.514 248 252 239
-428.053 223.197 1301.28 71 54 55
-45.2271 227.461 984.121 218 209 178
153.056 474.402 1119.05 212 241 241
-427.774 -99.614 1207.09 46 45 34
-32.1903 12.4634 815.521 127 125 121
48.2414 80.215 859.667 145 182 141
-113.98 100.191 949.502 161 144 123
94.538 111.733 871.161 62 57 55
-357.422 186.138 1356.23 62 50 50
-357.422 186.138 1356.23 62 50 50
80.7033 428.632 1168.15 245 255 250
258.383 439.352 1181.28 105 95 89
24.782 17.8268 795.81 146 176 131
145.877 388.979 1074.48 196 225 223
-597.772 21.8332 1125.67 249 232 225
-125.815 -8.23576 968.043 40 20 14
122.176 -14.2926 954.724 55 51 44
122.176 -14.2926 954.724 55 51 44
-385.208 327.064 1328.49 55 57 55
166.351 233.842 902.708 92 62 56
