-83.9048 -284.13 1212.67 29 23 25
-391.553 -226.862 1145.86 48 52 46
236.822 -184.64 1832.44 31 30 9
617.852 24.5596 -1034.68 67 64 45
368.973 243.613 1826.17 33 47 46
-68.6889 151.553 1111.83 170 163 164
69.1208 216.346 1282.6 166 137 117
-178.281 229.151 1264.54 67 25 6
465.276 339.88 1843.03 205 233 253
-184.19 234.032 1247.67 171 120 102
-184.19 234.032 1247.67 171 120 102
-110.252 300.795 1282.04 116 98 82
-38.7964 302.947 1180.56 254 251 253
30.3776 328.921 1252.02 254 254 242
54.0702 343.392 1294.47 248 253 237
-198.629 510.754 1550.08 172 158 140
-123.577 535.37 1500.52 233 229 218
32.3955 418.032 962.243 212 234 227
53.5636 635.736 1326.56 125 175 161
-483.856 -236.995 1180.97 170 165 154
458.269 -198.898 1632.51 39 27 22
-45.0944 -47.3278 1211.64 146 148 146
540.739 -58.6055 1736.19 255 252 242
477.395 -30.9046 1779.89 99 80 64
501.954 -25.8586 1749.99 255 240 241
-35.5629 14.4265 1150.74 235 226 202
-35.5629 14.4265 1150.74 235 226 202
-185.292 43.362 1198.16 181 161 147
-7.00087 40.7844 1022.78 215 123 105
102.756 51.9382 1288.25 255 238 218
-59.0591 67.8332 1094.91 248 253 242
-25.3291 82.0942 1156.17 255 249 246
373.212 153.194 1853.53 133 143 120
445.463 145.15 1699.26 78 71 64
-118.547 99.6702 1133.44 157 130 126
-118.547 99.6702 1133.44 157 130 126
427.534 192.182 1623.29 242 254 253
-66.3891 192.073 1143.26 83 65 54
-56.1004 199.418 1124.5 255 255 228
-56.1004 199.418 1124.5 255 255 228
-112.021 262.903 1226.2 135 116 94
80.4253 297.224 1304.85 255 251 251
2.14943 282.8 1201.03 245 255 250
-29.0277 294.956 1159.33 179 124 115
93.6241 354.436 1366.67 244 253 229
30.2507 327.527 1247.86 244 242 225
-65.8599 342.755 1175.99 139 89 69
9.16198 371.08 1250.51 254 249 245
-79.0187 421.656 1330.33 56 38 25
227.144 -400.815 1645.9 190 174 160
-396.176 -193.707 1182.78 138 145 137
205.08 -248.881 1587.82 123 61 22
82.0964 44.5215 -319.152 135 111 82
243.506 79.4129 -703.786 123 105 72
483.145 -139.07 1643.12 104 79 69
-753.185 -5.15749 964.666 51 38 23
461.504 16.3892 1672.86 255 252 249
461.504 16.3892 1672.86 255 252 249
-47.1535 20.8462 1133.28 225 214 188
-47.1535 20.8462 1133.28 225 214 188
554.205 90.3752 1780.93 251 253 247
509.928 161.644 1730.91 137 117 106
67.485 160.182 1260.85 255 252 238
-123.259 161.146 1245.15 73 33 17
-61.1768 161.363 1122.19 253 253 252
502.758 297.395 1797.51 175 202 200
500.832 391.777 1868.65 168 194 190
37.5285 312.488 1269.96 225 176 170
-109.775 326.048 1278.18 143 129 111
-31.789 374.96 1220.63 253 251 253
-171.846 479.319 1427.26 162 153 134
-171.846 479.319 1427.26 162 153 134
-168.009 529.112 1528.17 7 3 1
527.994 0.32732 1728.59 150 121 108
-164.834 43.8469 1162.41 78 40 28
595.433 119.555 1841.32 155 136 112
595.433 119.555 1841.32 155 136 112
-21.5811 109.789 1168.12 253 254 249
-21.5068 111.98 1217.53 253 254 249
432.514 174.423 1609.08 42 25 15
510.495 295.907 1892.39 241 252 249
100.766 228.372 1311.76 254 255 255
100.766 228.372 1311.76 254 255 255
548.643 353.39 2019.93 238 255 248
399.054 388.046 1870.52 60 77 70
-58.1862 273.929 1134.15 82 38 28
13.9999 310.283 1213.06 129 89 86
11.91 427.071 1250.08 86 71 61
11.91 427.071 1250.08 86 71 61
-267.447 -162.069 1076.13 51 35 16
-786.698 -94.6909 1142.71 130 142 137
-166.743 -44.2183 1341.6 114 84 69
-166.743 -44.2183 1341.6 114 84 69
-75.4433 32.6078 1080.06 202 187 167
-1.11237 47.9542 1150.52 232 145 121
-1.11237 47.9542 1150.52 232 145 121
-156.05 68.0158 1160.45 53 39 34
31.4661 137.797 1245.47 239 210 177
458.199 209.337 1736.19 209 229 223
-106.264 168.589 1138.37 73 50 31
131.137 199.278 1304.17 250 250 237
-29.3787 202.978 1162.88 241 198 166
100.916 228.977 1314.03 254 255 255
4.7129 254.409 1199.29 139 80 74
4.7129 254.409 1199.29 139 80 74
-37.5078 283.426 1165.41 251 254 254
-46.8018 339.096 1154.47 102 72 69
-25.3949 434.309 1194.94 39 30 28
-305.84 -128.74 869.56 72 77 72
-448.522 -166.932 1199.18 67 74 68
-601.398 -108.422 941.947 72 75 70
38.9626 -50.5246 1212.63 72 113 122
-252.973 21.1951 1175.05 120 87 69
-161.164 38.6426 1160.17 94 69 52
-5.17121 97.7726 1180.12 230 146 117
115.383 125.68 1289.54 254 236 220
366.091 248.161 1791.7 94 108 109
-146.085 251.663 1193.8 149 105 79
-146.085 251.663 1193.8 149 105 79
-15.3358 415.713 1226.66 255 253 253
-303.777 -186.788 986.634 113 118 106
-89.8855 -252.184 1538.71 51 40 29
393.636 -237.304 1742.57 203 187 179
570.981 -236.909 1845.96 104 103 98
-665.129 -97.245 1018.92 125 139 131
-57.2189 143.917 1116.33 255 249 251
-57.2189 143.917 1116.33 255 249 251
-155.912 183.412 1172.89 163 93 61
462.046 71.1795 -671.645 117 135 125
-68.223 -52.7217 1278.38 64 94 101
-68.223 -52.7217 1278.38 64 94 101
38.656 10.5302 1186.29 245 236 210
-72.4052 281.728 1141.01 75 36 25
263.966 -359.281 1674.66 182 175 163
-1.84634 -33.3015 1213.62 83 115 123
382.368 -14.7662 1642.72 62 48 36
-212.241 84.0624 1089 77 51 36
401.291 380.199 2049.83 72 64 56
-395.433 -190.272 1034.29 132 136 131
-111.272 69.2769 1121.92 61 42 29
331.178 114.235 2035.53 51 46 28
-100.002 196.163 1162.15 79 57 41
378.029 -142.033 1581.1 69 57 51
255.565 -137.669 1757.52 64 50 35
56.9582 519.17 1329.84 77 77 72
512.306 -22.5938 1644.63 207 197 197
436.489 127.771 1734.07 49 42 36
-139.856 98.6729 941.867 162 134 113
323.1 48.2428 1587.16 71 89 54
