-202.442 -283.143 996.418 148 149 134
-374.634 -284.743 1088.84 57 60 52
-351.168 -257.927 1057.69 56 60 45
-53.6336 -141.062 1128.8 239 243 221
-45.5835 -130.685 1093.62 34 37 34
110.576 -97.3881 908.426 65 83 90
-76.4357 -102.62 1011.87 131 129 126
-79.6875 -93.2994 1059.29 63 56 62
-520.369 -77.2548 1203.41 42 25 2
30.1566 -50.021 880.317 190 222 217
-640.826 -40.7311 1158.49 238 229 214
-783.03 -33.2122 1232.91 120 115 101
-524.081 -6.73445 1097.77 214 172 125
-520.359 -6.7999 1153.86 17 11 5
-522.448 -3.38595 1141.09 147 122 99
-503.803 5.02552 1151.64 88 92 77
-441.284 7.48848 1340.93 13 2 1
-516.406 7.65278 1161.48 31 21 16
-521.219 8.71628 1155.05 162 148 121
-500.277 20.7292 1139.29 25 22 6
-575.513 32.959 1199.95 180 150 136
-497.537 49.1932 1167.15 13 8 2
-1093.78 70.2318 1444.61 154 159 145
96.6917 69.8419 930.383 147 165 139
92.9097 75.5276 905.051 241 247 231
-606.504 132.715 1300.82 113 101 87
-441.808 155.505 1363.27 25 10 4
-469.031 149.53 1216.45 64 57 49
-469.031 149.53 1216.45 64 57 49
111.439 122.659 977.4 250 255 239
-425.458 182.389 1355.08 234 216 209
-449.516 183.86 1216.56 53 37 16
178.91 246.177 1031.28 99 95 86
-407.408 524.731 1559.65 130 151 144
162.25 473.668 1221.25 232 253 255
-549.092 -179.131 1044.22 91 99 92
-572.327 -179.316 1104.94 97 106 104
64.0053 -150.575 1073.08 70 68 56
-54.7609 -153.744 1153.86 83 66 47
-35.109 -147.63 1126.56 30 28 26
76.4528 -127.084 1016.21 178 162 162
84.3587 -122.397 1005.55 34 66 61
-38.2346 -109.866 1066.82 39 32 28
-510.689 -124.427 1393.09 104 88 73
14.2713 -71.2 929.139 34 47 43
31.4732 -43.7881 887.141 25 44 36
31.4732 -43.7881 887.141 25 44 36
234.846 -43.2624 1100.63 129 105 91
-503.232 -31.0286 1222.11 158 146 127
-522.937 -29.9577 1241.43 59 45 26
-582.495 -2.16091 1255.86 135 82 49
-504.168 0.0867365 1231.51 44 37 35
256.927 2.31875 1144.89 145 133 110
-667.801 7.32631 1161.64 255 253 234
-565.45 21.548 1174.08 255 247 224
-145.571 18.657 1006.75 87 83 77
-563.413 41.8974 1244.51 242 234 206
-596.062 42.7857 1194.71 255 247 235
-573.05 54.993 1253.43 148 120 100
19.3857 42.419 941.067 122 106 90
115.761 44.2261 909.578 249 251 242
-539.942 74.5743 1179.18 255 246 228
-596.188 83.4355 1162.25 253 248 229
-504.439 97.4987 1267.48 112 110 96
-104.254 98.3704 1055.72 142 101 85
-104.254 98.3704 1055.72 142 101 85
124.357 85.7704 899.994 247 253 236
-27.9772 103.263 1018.96 221 215 180
6.08607 103.531 1010.66 249 236 205
-63.7308 106.354 1008.34 255 250 223
-18.6598 105.036 981.373 200 137 110
122.449 104.371 966.568 251 255 241
-28.3012 124.407 1051.56 255 239 225
-739.319 191.774 1435.31 255 254 246
-48.1112 138.25 1028.35 243 237 233
-443.288 166.016 1181.54 43 33 22
126.96 150.039 983.876 254 253 249
-657.446 218.561 1367.67 251 253 249
-461.015 208.613 1295.15 205 193 190
-386.719 254.17 1548.88 237 221 204
-377.941 261.639 1489.78 15 12 9
-19.618 211.842 1070.22 193 184 144
162.306 256.247 1026.85 231 234 228
162.306 256.247 1026.85 231 234 228
-32.5676 290.657 1118.92 108 100 88
-31.6801 316.247 1164.31 175 165 154
-413.651 432.355 1438.09 145 196 179
-695.384 590.97 1877.65 246 251 247
-693.237 -283.655 1311.97 100 101 87
-469.572 -321.165 1513.06 155 159 151
124.905 -174.733 1067.93 58 102 86
-23.9814 -73.0591 976.348 177 188 183
-23.9814 -73.0591 976.348 177 188 183
-511.909 -75.3347 1214.92 160 145 128
-511.909 -75.3347 1214.92 160 145 128
-468.987 -84.6893 1383.55 55 64 59
-468.987 -84.6893 1383.55 55 64 59
95.4827 -36.7498 865.011 36 24 17
-546.287 -3.56538 1170.96 124 74 42
-664.602 6.52043 1178.31 206 151 134
-136.255 41.681 1009.8 144 132 128
-757.803 47.5136 989.662 148 153 138
-555.53 59.7864 1191.08 254 253 230
-96.4043 50.7601 968.828 251 253 250
-743.097 69.4492 1297 248 254 250
97.1876 89.5537 957.207 158 174 139
-58.8074 118.702 1026.26 183 116 94
8.96147 115.926 986.58 240 172 134
8.96147 115.926 986.58 240 172 134
120.318 109.053 925.941 203 217 182
-671.349 201.41 1303.01 249 250 252
-465.318 213.108 1344.64 75 51 42
-15.9049 185.507 1057.4 255 248 233
-81.0311 223.737 1133.84 124 122 101
15.6515 222.158 1121.34 252 254 247
-1.0207 215.399 1047.96 211 200 165
-588.575 309.816 1432.9 206 216 191
-40.3489 258.397 1151.44 214 215 192
-40.3489 258.397 1151.44 214 215 192
70.9229 276.667 1094.29 255 255 240
114.669 323.66 1088.87 130 119 106
99.7124 397.896 1252.97 248 254 252
-729.123 -204.628 1534.07 177 187 182
57.9371 -108.514 979.025 210 187 168
221.042 -0.886875 1088.75 166 123 90
-113.047 10.1476 971.133 148 142 123
-123.445 37.114 1002.25 255 252 252
-561.089 99.2286 1246.16 255 250 234
112.376 101.128 983.43 254 253 255
5.03129 114.586 991.162 242 176 139
128.678 136.704 969.84 161 187 147
-91.5791 158.419 1050.68 252 253 255
-81.3179 226.843 1148.86 124 122 101
55.7225 -89.7918 952.483 90 90 87
214.963 -21.2461 1063.8 167 123 95
-54.5672 71.1682 972.737 148 123 111
-54.5672 71.1682 972.737 148 123 111
126.14 90.8547 914.846 236 242 232
58.4428 112.739 974.182 194 193 154
-83.696 147.379 1079.7 149 129 130
-552.39 204.871 1327.72 210 179 165
44.1137 226.451 1059.25 195 194 180
-471.961 304.973 1384.51 153 97 65
41.7405 265.64 1078.73 253 254 248
-43.5564 -49.0373 919.857 59 38 34
-441.538 11.475 1364.45 56 42 32
-134.57 22.7046 990.511 110 99 98
-45.195 36.5794 966.159 114 88 72
-81.8962 -53.1172 945.006 76 63 64
-81.8962 -53.1172 945.006 76 63 64
-576.107 -35.5956 1149.99 216 209 186
-506.8 180.166 1262.55 252 250 241
-495.539 -53.8672 1277.04 155 149 133
-451.265 -56.8034 1372.95 67 60 60
-464.938 -5.03738 1337.15 181 158 139
-464.938 -5.03738 1337.15 181 158 139
-430.02 161.527 1397.73 181 147 129
-430.02 161.527 1397.73 181 147 129
25.418 126.259 1009.38 248 250 250
25.418 126.259 1009.38 248 250 250
210.779 478.519 1222.51 208 235 234
-156.689 -224.286 712.711 158 166 160
-467.938 -129.537 1340.83 42 45 35
13.1299 -18.0289 896.347 106 98 94
249.753 38.3062 1152.18 83 65 55
118.149 102.402 936.29 249 255 242
-4.3896 209.473 1044.43 195 187 153
-547.554 -33.6117 1219.09 49 41 30
74.9523 -14.0263 864.861 144 179 134
-28.1968 299.818 1147 126 114 103
-477.508 -289.851 1293.07 145 151 146
-477.508 -289.851 1293.07 145 151 146
-477.538 -212.874 1027.85 115 107 87
328.451 -98.8275 1300.18 178 168 150
-653.55 15.6109 1246.58 253 236 227
-480.983 152.088 1081.77 216 212 192
-431.019 69.1894 1220.48 56 50 41
247.01 244.348 1054.74 135 116 101
