81.2846 56.9376 1195.91 195 137 128
81.2846 56.9376 1195.91 195 137 128
435.963 204.442 1907.98 225 219 202
-131.509 151.914 1155.01 49 12 8
-126.621 171.244 1131.14 39 4 1
-23.8185 172.236 1083.74 70 23 13
-121.471 195.047 1126.48 53 12 8
404.926 402.432 1947.12 238 252 246
-38.8318 360.994 1159.74 22 6 0
-146.923 484.249 1305.25 6 0 0
7.78042 608.263 1272.81 90 89 88
-696.992 -160.624 1176.17 28 34 31
353.059 -234.127 1807.08 84 92 92
398.835 -219.793 1749.26 188 207 205
349.654 -78.8972 1715.47 40 20 18
103.868 3.81091 1232.07 116 65 53
-227.283 32.583 1155.37 61 48 29
358.153 64.8584 1762 26 7 5
131.606 64.2365 1279.07 229 190 174
-138.231 84.299 1112.21 38 6 1
-5.45277 146.53 1075.05 115 86 84
91.0833 172.247 1218.99 255 243 229
91.0833 172.247 1218.99 255 243 229
153.431 223.372 1354.93 254 232 220
13.3103 200.396 1100.94 94 70 71
13.3103 200.396 1100.94 94 70 71
-118.198 237.482 1156.63 49 2 1
41.9255 286.385 1146.76 246 252 251
70.9142 318.672 1182 73 79 50
70.9142 318.672 1182 73 79 50
3.9054 355.823 1137.13 142 97 77
-23.4068 413.001 1173.46 88 62 51
-108.007 544.581 1409.46 14 14 9
52.0449 471.101 1192.15 253 242 227
27.4898 509.075 1252.35 121 115 101
-695.797 -178.857 1157.39 34 38 33
-93.944 60.2839 1062.65 89 40 22
139.537 88.0368 1336.07 252 230 210
453.56 142.392 1896.68 158 142 117
99.2754 152.155 1261.27 167 129 101
87.2375 211.179 1191.17 252 253 248
114.538 230.572 1281.4 193 153 143
81.4533 271.355 1201.22 253 251 247
-38.6027 265.571 1117.16 118 97 79
36.8052 371.524 1147.54 250 254 249
107.993 426.574 1297 154 152 125
37.5833 391.696 1167.83 47 22 12
78.5338 143.996 1186.07 239 220 194
306.392 239.609 1898.59 128 144 137
84.2665 183.37 1200.65 231 210 197
121.433 196.89 1283.55 254 252 250
82.7994 274.329 1213.31 254 251 251
81.201 297.99 1218.7 253 252 254
39.5359 328.668 1160.14 250 252 250
61.4892 375.209 1202.73 255 252 254
-16.2329 423.87 1250.68 33 28 18
-127.469 438.671 1261.97 115 66 46
80.5113 591.232 1301.5 41 48 41
-131.829 -29.4941 158.142 112 117 106
16.1375 103.958 1069.81 254 245 237
386.248 220.901 1883.2 47 26 21
-42.0452 329.091 1172.94 121 116 104
23.2904 360.797 1145.82 75 42 34
71.208 394.693 1215.34 82 76 77
505.189 -38.276 2123.73 217 215 198
-108.398 63.4216 1071.02 172 145 135
-83.7631 79.5403 1071.32 44 20 15
-10.9976 113.865 1069.54 189 132 115
414.85 -198.162 1825.76 120 113 99
-47.4671 -35.8042 1285.5 53 83 100
-27.7455 124.445 1083.36 166 119 94
-27.7455 124.445 1083.36 166 119 94
200.213 235.857 1537 41 50 64
-83.134 332.507 1142.59 141 83 59
-617.341 -164.04 1100.94 83 91 84
-437.217 -202.27 1645.15 35 34 23
-106.96 12.2851 1069.29 155 124 97
-97.7733 207.038 1133.64 150 79 44
-38.5567 18.3635 1125.23 163 134 113
130.226 -111.616 1652.9 62 47 35
77.1662 509.386 1216.17 73 72 70
-727.104 -161.494 1115.54 105 115 108
298.446 -114.41 1670.59 46 37 32
-32.4703 209.086 1125.25 67 55 36
234.104 108.4 1405.75 94 74 59
