-292.359 -65.3764 1251.42 106 94 80
316.416 -44.2988 889.508 236 252 244
-1216.42 -47.7237 1900.25 99 113 100
-464.127 11.5427 1051.66 85 85 72
-401.987 37.2347 1034.77 255 237 209
-355.527 43.5032 1119.93 116 65 30
401.732 36.9658 910.406 131 126 108
-308.624 52.4929 1136.99 99 89 83
409.465 40.8312 938.618 248 252 229
-460.46 51.9649 1095.83 231 193 175
-361.766 59.2361 1064.74 255 240 202
125.23 80.1379 1014.51 151 132 117
193.534 103.84 1046.19 182 158 132
-560.051 130.006 1281.51 199 148 134
145.333 100.873 1000.19 194 181 156
392.783 100.382 936.148 245 246 225
294.62 139.147 994.248 254 229 217
-237.666 196.775 1362.05 153 112 88
400.975 138.396 955.003 239 255 247
400.975 138.396 955.003 239 255 247
-362.315 169.589 1085.04 255 245 233
-337.245 197.809 1121.8 170 118 100
-337.245 197.809 1121.8 170 118 100
-290.264 211.99 1194 123 122 107
234.44 192.052 1040.7 86 64 49
234.088 191.169 1012.25 235 219 193
193.39 234.909 1041.36 82 84 69
-451.21 285.679 1207.03 255 251 246
348.098 263.083 1081.48 153 149 96
391.074 277.325 1064.22 255 250 233
456.179 269.373 1012.8 106 108 78
276.129 300.794 1125.68 175 163 142
262.415 299.74 1105.86 77 61 44
262.415 299.74 1105.86 77 61 44
393.274 286.612 1053.87 253 252 237
-211.673 314.984 1168.94 199 213 197
-252.887 387.438 1228.87 46 41 33
405.107 449.791 1174.34 236 253 253
-214.904 585.232 1392.88 235 234 227
468.563 517.66 1211.21 116 135 142
-1213.56 -410.995 2157.73 75 87 79
232.172 -167.792 1158.37 82 64 60
134.051 -100.929 1045.08 182 173 166
296.535 -86.1786 941.281 229 229 225
308.515 -81.5091 917.034 133 156 160
156.204 -66.0771 969.298 20 18 4
163.305 -54.4363 909.898 135 137 124
-312.723 -49.4815 1167.44 127 105 85
252.14 -9.71094 945.99 174 151 136
252.14 -9.71094 945.99 174 151 136
248.606 -1.30582 930.309 82 61 47
248.606 -1.30582 930.309 82 61 47
-443.151 4.95419 1022.66 246 236 220
228.818 50.1373 991.249 245 243 229
-576.39 59.0016 1099.61 255 253 248
-571.617 68.4975 1135.54 255 253 253
-571.617 68.4975 1135.54 255 253 253
-346.205 67.6648 1094.82 255 250 227
142.432 60.6294 967.86 250 243 245
273.486 87.4678 963.664 222 192 180
216.729 102.683 978.794 251 245 223
-358.107 124.524 1115.75 255 250 231
-318.111 124.002 1076.5 255 250 226
246.242 135.023 1006.79 239 215 207
-291.017 212.748 1197.78 123 122 107
-284.857 221.139 1229.79 61 51 39
423.065 191.354 1001.01 243 253 232
168.459 223.794 1058.63 79 71 59
-489.272 259.16 1164.68 254 252 248
-489.284 277.979 1179.9 254 253 247
362.385 251.252 1033.62 253 254 242
-464.697 299.275 1217.67 211 194 182
-287.316 296.722 1195.47 255 250 232
-532.611 309.809 1227.49 250 253 255
294.221 259.826 1022.77 250 252 225
-224.597 338.647 1271.3 211 207 195
415.854 392.628 1153.04 67 91 106
-472.248 482.387 1408.27 51 57 54
350.554 451.96 1218.87 100 132 135
335.137 473.327 1241.59 93 125 130
404.483 459.948 1175.76 68 112 124
368.491 520.152 1253.09 206 233 235
364.363 532.209 1263.78 142 167 167
-36979.6 -8172.87 63426.4 66 66 49
-1067.58 -275.753 2289.46 139 142 134
261.389 -106.436 1002.4 108 60 52
-744.679 -86.9408 1087.51 87 88 65
243.649 -86.2228 978.86 170 201 186
-10273.2 -1234.1 15610.5 91 86 71
197.433 -48.347 894.745 226 221 201
-1729.39 -74.5943 2609.22 90 99 89
100.489 -31.8371 948.767 49 47 41
-332.469 -18.4178 1137.75 47 37 23
-334.447 -11.805 1107.15 137 125 96
-272.41 -9.99374 1276.77 41 36 34
274.938 -4.04724 921.753 191 188 172
-575.429 25.4565 1048.94 238 227 206
-575.429 25.4565 1048.94 238 227 206
-426.232 26.7218 1077.4 77 28 15
-312.116 36.803 1084.93 171 157 140
-289.234 55.2212 1217.35 168 143 125
-493.041 60.2971 1095.63 208 137 118
227.333 49.647 927.567 86 68 44
-249.771 86.6934 1340.38 32 28 22
371.739 70.6434 907.425 250 254 246
371.739 70.6434 907.425 250 254 246
160.606 79.7828 985.263 173 173 141
-356.391 104.677 1078.52 255 238 220
373.442 127.982 998.853 250 250 246
217.599 136.411 1021.27 206 197 200
217.599 136.411 1021.27 206 197 200
291.64 145.235 1011.04 95 56 46
253.961 154.358 1021.73 241 219 208
-370.882 168.285 1096.38 248 232 215
173.617 177.3 1036.55 66 58 53
243.156 178.571 1011.41 255 250 241
243.156 178.571 1011.41 255 250 241
-224.489 335.468 1421.39 186 169 150
219.588 254.898 1082.9 198 206 173
230.788 311.712 1129.01 100 86 82
-302.336 325.26 1104.41 253 255 234
-259.368 379.14 1191.2 255 253 236
331.836 408.339 1209.65 56 100 120
484.671 416.831 1220.02 113 156 153
-214.004 572.161 1413.88 93 111 98
443.574 518.414 1228.23 144 163 156
443.574 518.414 1228.23 144 163 156
-893.727 -243.3 1502.1 147 155 151
330.255 -138.45 1009.88 40 82 89
-1441.9 -248.278 2029.95 86 87 74
307.828 -123.843 980.337 205 183 172
-1081.64 -279.297 2317.28 137 143 136
311.067 -101.261 924.517 49 57 54
273.942 -91.9532 955.433 187 203 198
-1544.36 -118.463 2260.51 100 109 100
203.987 -49.7377 917.062 210 209 190
-282.716 21.5523 1242.79 164 134 117
138.425 33.0136 974.589 253 248 247
121.524 37.985 975.548 116 86 79
-311.913 61.4156 1139.86 94 90 86
276.954 76.3158 967.489 118 96 71
233.339 102.272 995.746 131 96 68
233.339 102.272 995.746 131 96 68
272.565 102.225 969.499 203 121 92
193.284 126.436 1006.87 254 254 255
-418.267 173.272 1143.26 255 244 224
-480.991 190.381 1223.45 253 244 227
159.74 160.669 1006.81 227 234 228
163.577 202.099 1052.32 69 62 48
-541.589 235.589 1191.47 167 140 114
-541.589 235.589 1191.47 167 140 114
254.115 232.664 1062.89 252 251 249
254.115 232.664 1062.89 252 251 249
181.16 255.892 1088.2 96 95 93
395.208 481.733 1200.44 24 75 94
395.208 481.733 1200.44 24 75 94
261.511 -163.024 1118.37 61 70 62
257.039 -119.775 1005.91 197 173 162
257.039 -119.775 1005.91 197 173 162
-315.073 -113.886 1306.89 103 89 66
199.328 -62.76 952.4 36 32 27
321.181 27.8457 935.017 69 53 50
-582.26 85.5386 1118.68 253 254 246
-582.26 85.5386 1118.68 253 254 246
345.226 78.6794 955.96 255 255 230
-514.193 95.4575 1104.38 204 135 118
-432.316 123.152 1087.76 143 92 72
-432.316 123.152 1087.76 143 92 72
-489.72 317.835 1189.8 254 252 249
394.754 307.299 1060.84 104 97 88
394.754 307.299 1060.84 104 97 88
-544.43 568.669 1651.87 80 83 80
425.095 416.201 1166.14 186 213 208
425.095 416.201 1166.14 186 213 208
-1208.02 -179.069 2186.13 73 68 53
230.917 -67.2384 937.683 41 32 28
-294.444 13.5159 1182.35 58 51 50
200.14 174.434 1000.28 132 107 105
298.945 255.193 1040.19 218 220 192
-476.229 390.733 1264.54 97 90 85
-476.229 390.733 1264.54 97 90 85
-476.229 390.733 1264.54 97 90 85
-1166.61 -316.497 1991.8 146 155 148
-1328.29 -325.948 2167.9 79 77 61
-309.399 -8.55441 1177.96 143 135 117
-283.146 43.1317 1218.35 161 128 111
-501.536 89.2245 1138.2 255 251 253
-411.418 132.471 1126.7 245 208 183
255.725 123.521 1017.72 220 190 174
-442.603 350.798 1240.74 184 213 174
-369.209 5.03764 1034.53 237 201 173
-356.43 55.5644 1066.62 230 184 151
-362.663 265.983 1146.03 251 254 252
-549.582 70.9195 1091.75 247 241 244
393.598 81.4115 946.878 232 240 228
174.316 118.102 1092.34 181 141 117
-186.364 172.473 1381.09 177 167 147
362.787 400.635 1172.97 207 232 233
371.692 201.241 1071.72 255 254 251
441.548 221.21 1022.77 48 50 46
-408.992 56.0509 1043.07 252 240 229
-283.788 129.474 1220.8 69 56 48
-320.495 250.802 1049.12 252 254 254
-240.959 451.828 1356.22 61 61 58
