-202.171 -354.179 1290.85 104 103 94
-109.266 -300.418 1372.37 42 34 30
14.1401 -64.6982 1060.23 59 58 47
-385.258 -57.7952 1379.51 145 123 104
-366.62 66.2479 1395.48 131 108 94
-366.62 66.2479 1395.48 131 108 94
214.226 57.1395 993.248 139 101 88
-422.951 72.7276 1256.9 10 8 2
-459.394 84.6847 1301.45 17 3 0
-473.477 87.5694 1271.05 248 241 220
-995.475 120.788 1420.85 99 107 98
-17.2562 79.1329 862.127 252 248 245
58.3376 84.7053 843.759 182 172 160
-435.29 149.053 1314.03 18 6 0
-444.338 191.449 1267.83 255 246 239
-391.67 213.002 1278.1 24 21 17
85.3011 142.67 852.442 198 187 184
85.3011 142.67 852.442 198 187 184
-41.3211 186.283 965.173 245 248 236
-73.0064 205.073 1016.12 253 254 236
-392.93 292.32 1305.08 254 248 235
-307.817 347.676 1497.52 20 27 27
-280.525 286.113 1184.47 240 233 222
232.137 278.696 1045.45 60 27 19
22.1762 310.506 890.681 177 177 146
-270.002 518.788 1483.14 120 137 134
57.417 403.485 1055.52 255 254 233
116.611 724.382 1860.64 152 135 122
76.5637 484.224 1170.93 253 254 254
163.653 504.691 1111.6 184 208 204
185.013 522.265 1127.33 116 145 140
206.41 550.036 1133.93 226 251 252
222.978 548.815 1131.29 59 102 125
-361.64 -442.293 1814.23 55 41 34
-361.64 -442.293 1814.23 55 41 34
-134.749 -378.114 1659.5 46 40 33
-128.72 -341.334 1629.74 165 161 154
22.406 -71.266 1154.31 89 85 73
-390.582 -65.0304 1361.98 51 31 17
-25.1922 -42.52 1063.56 250 255 254
-25.1922 -42.52 1063.56 250 255 254
-1229.75 -50.5287 1712.05 200 204 196
-409.701 -41.4798 1360.86 171 150 128
-409.701 -41.4798 1360.86 171 150 128
-668.176 -29.1167 949.845 202 215 212
63.1811 -20.5606 963.681 191 158 143
-1328.18 -30.248 1874.19 225 234 229
-1263.3 -23.829 1674.29 153 179 164
-1279.61 -25.6574 1782.22 148 159 152
-1389.77 23.9437 1989.51 134 142 136
-111.928 16.0466 1009.95 190 179 150
-640.146 12.3709 919.994 250 255 252
-41.4039 28.568 917.369 51 106 101
-480.959 45.8933 1256.25 136 86 44
-375.482 54.0941 1417 191 166 154
-375.482 54.0941 1417 191 166 154
-427.948 51.8913 1301.59 45 30 24
-58.0546 41.2883 899.947 251 240 224
-465.156 68.9932 1296.9 14 11 3
-1286.34 129.363 2004.21 134 142 135
168.475 64.0998 953.905 128 81 69
222.459 87.476 1034.55 169 125 107
97.858 83.7451 906.23 26 29 28
-464.355 135.372 1254.36 255 249 234
-63.9395 109.369 926.73 144 131 108
42.062 110.878 871.132 251 250 238
-38.0713 132.503 923.222 135 123 110
-418.755 215.199 1380.87 180 177 174
-317.868 241.08 1473.13 17 10 10
247.16 203.722 1073.07 108 133 137
-264.419 305.423 1557.26 248 255 244
-81.8946 206.181 1011.6 153 132 116
-89.4272 220.403 1040.83 252 252 248
277.201 246.552 1075.3 181 144 133
-42.9086 264.702 992.262 255 249 235
-27.9594 314.114 1047.92 195 197 175
-44.0014 397.299 1148.59 131 119 109
35.6387 376.517 1045.41 245 243 236
102.04 352.148 939.949 254 253 251
-22.1956 351.727 930.362 254 253 245
239.85 478.509 1122.26 66 83 95
146.009 592.948 1230.12 250 251 247
-270.313 -371.413 1478.09 166 165 159
-1306.04 -156.061 2023.43 108 113 108
43.1323 -67.4866 1070.64 85 74 74
-1251.62 -74.6412 1785.31 213 223 216
-386.798 -32.4036 1372.62 159 136 113
-32.332 -12.4227 1040.09 34 31 33
179.18 -4.25874 962.083 52 54 50
-526.526 21.9675 1237.47 204 144 116
19.2264 19.2984 921.027 16 29 26
-1226.57 54.8042 1840.69 133 139 136
-326.166 47.5771 1422.64 175 135 118
-1542.82 111.581 2325.21 234 242 236
-1512.03 137.724 2304.8 239 243 238
-100.188 54.2825 913.232 208 205 179
-20.1643 55.4247 861.723 73 76 77
-20.1643 55.4247 861.723 73 76 77
-4.31922 55.7978 853.563 49 63 60
-546.665 95.3754 1348.61 255 245 236
-546.665 95.3754 1348.61 255 245 236
-134.846 96.8023 981.278 167 161 150
-353.336 184.294 1390.26 33 15 10
241.963 146.727 1048.84 200 180 163
-306.242 217.325 1469.66 103 58 49
24.2732 127.084 866.506 254 253 254
-110.575 161.405 972.986 207 206 177
-526.205 293.636 1532.94 252 251 249
-261.806 304.122 1486.55 28 26 25
-121.71 227.985 1104.73 255 254 247
-45.6806 253.339 1015.95 254 252 243
-357.232 330.763 1246.66 248 245 233
81.4741 290.466 914.758 251 254 246
106.342 336.542 948.404 113 115 107
240.198 390.314 1077.23 144 146 141
131.091 -64.7197 1025.08 102 118 114
-456.819 -19.0122 1309.89 58 47 33
-105.617 43.1718 935.817 39 38 29
-302.944 85.6899 1517.86 21 20 8
-672.032 86.495 1480.22 251 250 249
-572.038 118.573 1361.81 252 242 227
-152.065 109.777 1021.89 126 117 116
-500.178 185.514 1346.25 253 252 252
-500.178 185.514 1346.25 253 252 252
-84.9768 163.053 988.671 147 128 113
-5.7829 147.366 898.173 133 125 116
159.707 197.247 979.609 143 150 140
-354.04 327.064 1233.74 228 219 202
233.331 454.108 1102.51 69 94 120
17.7467 -66.6537 1118.85 54 58 52
30.1001 94.0233 812.17 255 254 243
246.532 212.786 1038.99 75 58 67
-298.858 361.235 1733.82 55 52 52
-393.06 347.742 1414.94 166 103 73
213.196 473.51 1089.61 49 75 109
-20.0454 -35.0985 109.626 31 28 27
-274.573 -383.047 1565.19 159 162 158
-403.189 -56.4327 1380.17 63 53 43
-316.061 82.2603 1439.89 171 172 167
-469.843 161.652 1325.24 245 230 212
270.562 147.61 1087.63 57 50 44
238.33 195.226 1057.23 78 105 106
49.4811 415.63 1058.22 152 145 120
49.4811 415.63 1058.22 152 145 120
270.739 492.591 1168.64 128 158 149
-271.129 -382.496 1579.93 156 159 157
42.7764 -9.57886 964.988 255 218 205
-405.67 1.87572 1335.25 169 162 150
-1236.42 122.239 1811.24 79 80 71
-450.443 153.434 1261.33 247 237 225
-14.8625 218.42 956.239 253 254 255
104.449 511.547 1172.68 242 255 252
151.55 482.211 1058.28 222 245 241
-363.758 -70.9385 1425.11 53 38 31
-368.205 52.9223 1385.1 191 166 154
-368.205 52.9223 1385.1 191 166 154
193.064 109.064 1002.84 181 138 100
-333.822 214.642 1426.85 199 156 143
41.8826 154.751 863.635 171 195 156
-343.167 267.29 1389 74 55 55
64.5561 215.318 909.684 252 255 251
-31.0407 302.369 1020.72 208 205 184
31.221 -305.496 987.524 163 169 164
47.5008 67.2273 837.168 52 44 40
-41.9108 383.708 1108.44 132 119 108
-41.9108 383.708 1108.44 132 119 108
58.6623 359.461 1014.19 253 255 254
-471.733 16.957 1291.05 57 39 26
93.057 186.856 886.89 55 52 50
-414.384 444.413 1495.95 90 92 89
-212.363 -361.778 1629.6 156 156 151
-582.316 50.6028 1372.79 255 249 233
-100.835 41.8616 992.02 75 72 73
253.009 169.849 1089.39 74 65 65
-143.382 449.686 1321.09 228 228 221
-363.569 499.63 1369.09 252 254 250
-447.949 185.046 1219.3 179 183 171
-323.974 424.218 1593.16 55 61 55
154.288 309.124 928.646 64 57 57
-425.479 133.174 1556.79 67 61 56
