-332.657 57.5287 1136.48 187 182 162
219.773 226.898 1855.72 130 114 91
183.724 260.519 1806.92 17 9 7
-227.202 285.713 1175.2 30 1 1
-49.774 286.003 1134.22 248 235 218
-125.112 311.901 1138.42 125 82 62
-137.024 337.605 1154.06 167 150 146
-75.3668 393.303 1150.59 116 102 102
-39.6067 499.316 1168.22 40 41 42
-171.502 460.528 1065.08 3 2 1
-2.44971 634.375 1335.39 252 251 244
378.983 -229.773 1311.33 43 43 37
378.983 -229.773 1311.33 43 43 37
378.983 -229.773 1311.33 43 43 37
245.095 -58.6773 1908.16 139 128 102
-52.0153 103.515 1142.94 255 250 244
175.971 217.248 1827.9 70 62 56
-10.4176 219.857 1255.77 149 121 103
-93.9098 221.968 1128.66 33 7 0
-225.913 312.734 1191.01 49 15 3
-33.7611 372.202 1245.17 92 82 75
-33.7611 372.202 1245.17 92 82 75
-209.557 362.979 1150.51 56 14 5
472.1 -228.259 1278.83 105 103 97
-224.448 -101.562 1143.77 112 59 34
-49.3396 56.5924 1130.2 186 122 111
-233.901 117.509 1067.6 48 14 0
-57.4007 120.503 1090.28 253 247 249
-53.3392 147.638 1107.92 255 251 230
-53.3392 147.638 1107.92 255 251 230
-140.978 147.62 1108.15 168 158 149
-140.978 147.62 1108.15 168 158 149
-85.4262 161.127 1059.7 110 24 15
-85.4262 161.127 1059.7 110 24 15
177.098 370.969 1966.92 211 233 230
-104.925 218.45 1090.52 194 153 140
9.65594 277.644 1320.13 255 255 240
-49.986 339.231 1162.6 180 134 142
-58.4543 388.923 1089.27 246 253 253
-61.4888 426.901 1157.77 60 29 20
-36.8084 468.21 1195.5 104 94 73
-36.8084 468.21 1195.5 104 94 73
-50.2241 506.776 1181.5 233 223 214
-50.2241 506.776 1181.5 233 223 214
-34.9643 634.835 1296.36 33 33 30
-571.834 -66.8602 727.221 106 118 111
-190.754 87.8112 1077.59 45 16 7
-48.3396 115.394 1131.42 217 173 152
165.141 235.54 1651.34 50 34 28
-26.4299 326.761 1194.11 249 251 248
-79.7215 422.815 1211.77 58 36 32
-113.107 419.359 1114.14 35 35 25
-59.4294 480.978 1143.04 40 27 23
-588.899 -118.798 1320.04 74 63 52
-62.6882 313.753 1073.54 254 249 253
-140.879 354.57 1121.11 122 115 104
-63.8607 -9.14932 83.4396 57 59 54
-275.782 99.0363 1107.91 140 87 56
-104.614 144.735 1058.84 188 137 114
11.8 234.538 1317.83 244 253 243
-168.296 -0.632351 1249.85 46 86 93
-181.116 83.5602 1045.57 42 20 17
-58.5858 19.9695 1171.4 69 88 101
-207.319 160.811 1110.16 152 114 94
-207.319 160.811 1110.16 152 114 94
-198.43 241.353 1112.47 154 84 49
-198.43 241.353 1112.47 154 84 49
-137.977 49.9248 1103.29 157 126 99
-41.7125 -70.042 1677.86 50 39 28
-169.078 373.227 1115.22 150 87 56
-96.7042 446.625 1140.86 46 28 30
120.736 -70.729 1689.36 52 42 36
-130.427 240.43 1104.59 60 51 29
-34.5998 94.0872 1199.38 246 212 199
-225.319 223.245 1131.9 134 77 66
