-634.409 -240.989 1373.83 48 45 32
-3.3787 -117.249 1147.4 120 129 125
-0.873921 -96.9917 1083.42 73 48 43
-765.764 -124.581 1499.47 202 206 204
-498.93 -65.3439 1223.17 169 161 149
98.7036 -38.3375 968.672 179 174 166
185.63 4.68069 968.865 254 253 235
-484.522 26.974 1188.48 156 124 99
-41.4863 32.6411 982.623 254 255 252
-389.674 56.9258 1423.15 19 13 5
-304.363 68.4815 1272.32 20 20 12
160.337 54.1073 982.598 239 236 216
-507.87 109.828 1244.15 255 250 240
-477.41 115.245 1241.34 255 248 223
-363.977 165.738 1554.71 45 27 13
78.9489 119.686 1087.75 246 223 210
-361.093 171.956 1484.37 30 2 1
154.381 124.225 1061.53 255 254 216
-432.016 211.357 1318.14 33 12 9
-432.016 211.357 1318.14 33 12 9
113.053 169.372 1066.99 183 162 148
-357.62 206.828 1270.64 216 196 185
86.4549 184.951 1076.97 119 90 75
-531.669 297.59 1687.95 60 39 27
286.561 238.754 1061.16 96 88 84
-289.204 389.045 1567.79 39 33 21
-401.306 450.344 1412.88 105 109 104
349.792 413.823 1257.5 113 150 149
138.509 -110.41 1014.85 66 67 64
-1197.77 -232.002 2208 167 170 160
104.543 -86.4954 996.596 29 37 35
-752.276 -116.566 1451.32 94 96 91
86.0877 -74.5659 1003.64 109 164 160
-453.53 -94.164 1384.6 100 80 64
-440.238 -97.3809 1454.64 93 87 75
186.942 -60.9662 916.595 215 224 209
-15.1496 -51.6867 1008.96 138 135 121
-510.687 -28.7901 1230.6 54 36 23
-509.907 25.7167 1224.38 117 73 35
214.295 28.7173 945.708 254 254 236
-662.549 69.7782 1209.88 156 139 129
-497.528 70.8838 1228.92 255 245 224
58.8474 62.2656 1055.79 119 109 93
58.8474 62.2656 1055.79 119 109 93
67.4476 76.7821 1058.36 127 107 90
-318.304 193.411 1548.47 65 32 23
-423.912 195.676 1300.82 150 146 128
-423.912 195.676 1300.82 150 146 128
-20.6424 183.652 1179.5 169 165 157
-317.442 263.054 1567.61 75 48 22
255.643 177.842 1033.13 147 164 125
-633.428 309.919 1465.41 241 242 226
272.675 256.376 1076.56 252 255 252
-396.395 353.641 1437.5 205 192 183
173.634 276.914 1112.32 253 252 236
172.801 377.792 1264.69 248 255 246
238.503 361.552 1170.33 177 184 177
391.228 458.598 1292.57 161 187 185
391.228 458.598 1292.57 161 187 185
-345.912 603.52 1617.8 248 249 246
30.4041 -124.044 1135.45 209 200 205
42.1434 -120.675 1136.92 32 26 22
93.5207 -109.694 1080.93 114 56 45
-742.339 -109.701 1397.18 168 166 159
60.0495 -83.9435 1031.66 166 190 177
17.9677 -83.2068 1083.85 188 119 95
196.03 -46.5414 938.345 219 226 209
-383.105 -37.2443 1380.74 43 40 42
-483.351 -28.1328 1229.96 173 142 124
-483.351 -28.1328 1229.96 173 142 124
-475.843 23.018 1268.07 176 169 158
-475.843 23.018 1268.07 176 169 158
-469.87 29.1662 1297.1 46 31 24
-596.266 38.1077 1098.57 254 249 242
-56.363 44.8218 1072.83 133 115 112
-667.498 76.3128 1273.09 165 120 113
58.123 61.8851 1049.56 119 109 93
58.123 61.8851 1049.56 119 109 93
-514.246 86.8212 1253.47 173 129 104
60.7223 87.0437 1041.68 214 212 178
60.7223 87.0437 1041.68 214 212 178
121.371 99.5606 1050.28 188 159 127
224.701 99.4415 975.547 199 205 178
-379.629 210.85 1574.27 81 41 24
78.3952 164.368 1082.27 251 237 228
78.3952 164.368 1082.27 251 237 228
78.7683 194.646 1115.41 255 254 235
118.748 201.039 1082.88 147 129 114
99.477 232.173 1128.65 201 184 136
-379.692 370.316 1354.26 61 58 47
-389.14 361.008 1318.41 253 251 236
360.481 383.536 1253.24 55 81 73
377.992 490.134 1290.3 185 212 195
-219.219 328.45 879.74 160 199 189
-659.596 -1.96557 1209.4 233 223 214
-745.721 5.63059 1264.74 255 255 237
-383.284 57.6153 1559.5 22 21 15
-489.892 128.735 1211 254 254 238
-631.855 153.914 1397.45 143 114 95
102.953 116.769 1060.12 226 154 133
102.953 116.769 1060.12 226 154 133
107.707 133.479 1068.83 254 251 247
-476.116 233.61 1281.87 206 175 152
384.278 465.714 1317.48 78 108 121
366.929 490.926 1314.8 63 91 116
149.003 -128.236 1043.41 209 172 162
102.02 -131.88 1101.45 202 182 170
145.668 -106.117 1012.82 86 84 80
-780.552 -137.601 1532.82 166 174 170
195.582 -24.729 937.256 234 241 223
173.23 -4.03949 955.356 143 170 142
173.23 -4.03949 955.356 143 170 142
173.23 -4.03949 955.356 143 170 142
-412.337 1.05988 1386.6 157 137 119
-375.925 18.7335 1441.76 46 35 24
-399.975 42.7054 1411.36 52 41 34
165.525 114.163 1069.59 197 191 144
1.97451 153.51 1110.07 151 122 122
93.0369 183.402 1099.68 141 116 105
93.0369 183.402 1099.68 141 116 105
149.87 236.728 1135.14 195 187 181
-399.919 340.826 1368.91 145 92 59
-599.635 366.295 1426.61 112 115 100
-599.635 366.295 1426.61 112 115 100
-674.421 -216.017 1594.87 66 62 48
136.163 -81.1479 976.503 163 200 195
9.25479 -58.0146 990.231 46 41 38
-515.422 -28.4215 1260.75 63 48 35
-515.422 -28.4215 1260.75 63 48 35
-56.4344 24.1937 1053.41 103 88 88
-626.699 91.5923 1213.09 202 143 129
-569.473 118.02 1286.53 241 216 195
-425.383 267.319 1157.61 252 252 250
-597.456 341.001 1460.28 202 217 184
-543.48 46.5339 1278.69 214 177 141
-443.571 211.945 1254.46 241 240 228
7.96717 198.124 1133.14 118 106 100
-456.126 -67.8129 1274.9 46 41 31
-422.412 -29.5595 1463.33 61 56 51
-540.264 -8.98972 1194.02 234 211 185
-426.051 24.6037 1394.41 174 149 129
124.159 125.414 1064.32 245 247 245
124.159 125.414 1064.32 245 247 245
-380.285 200.299 1443.08 175 142 124
-380.285 200.299 1443.08 175 142 124
-380.285 200.299 1443.08 175 142 124
-442.778 -107.292 1417.13 42 37 32
108.036 170.328 1072.67 154 133 121
94.0932 226.392 1129.91 211 195 154
-385.344 323.547 1230.27 252 224 200
-504.122 -8.75891 1254.96 53 40 27
65.3368 311.856 1171.15 115 98 90
235.994 439.008 1307.21 228 253 248
339.603 403.452 1128.15 144 174 169
339.603 403.452 1128.15 144 174 169
232.395 -81.1637 971.078 134 122 109
-443.176 200.537 1129.46 255 251 253
-0.161616 -34.8209 942.038 131 121 113
-445.565 119.488 1461.09 58 38 29
163.125 168.333 979.079 252 255 251
368.609 265.39 1150.9 126 119 103
-333.166 387.008 1422.84 63 62 60
-333.166 387.008 1422.84 63 62 60
