-807.348 -564.595 1756.03 49 56 48
-130.999 -438.256 1790.38 107 112 107
356.827 -270.031 1431.8 73 72 53
356.827 -270.031 1431.8 73 72 53
514.675 -138.638 1339.56 39 18 12
514.398 -116.584 1324.53 91 63 64
495.527 -91.7131 1285.06 198 154 137
498.025 -69.686 1252.88 239 226 224
498.025 -69.686 1252.88 239 226 224
459.163 -51.5139 1149.98 78 73 71
546.203 -59.2721 1381.16 121 105 105
53.5991 -43.6931 1025.69 254 250 249
599.771 -39.1534 1330.27 255 240 234
543.91 8.52291 1326.92 130 122 100
623.976 13.377 1398.73 250 254 231
603.663 33.4897 1397.74 222 220 197
603.663 33.4897 1397.74 222 220 197
127.267 49.8169 1154.07 233 156 127
-162.097 69.2013 1093.71 86 48 29
571.396 107.202 1277.25 173 192 196
147.242 106.964 1178.89 250 224 196
243.251 93.8869 623.033 36 56 77
103.875 252.977 1178.25 255 252 239
79.4539 246.798 1140.42 114 96 85
64.511 261.395 1150.34 92 93 71
9.569 390.119 1179.17 252 254 248
19.1795 390.883 1176.15 29 36 37
-417.103 -607.823 2152.42 125 118 107
-33.1619 -130.681 466.543 65 57 51
-818.393 -486.913 2025.49 129 137 120
627.273 -214.749 1243.03 51 67 60
569.713 -196.236 1300.73 158 159 142
-878.052 -292.272 2047.58 126 140 132
579.983 -164.037 1290.55 249 231 205
641.416 -136.443 1262.04 166 168 148
-1053.69 -216.349 2068.96 110 111 99
451.215 -148.834 1395.64 94 96 70
-1043.89 -225.743 2350.11 142 134 115
521.696 -125.559 1307.36 77 63 68
118.139 -97.7362 1077.9 234 223 198
562.706 -114.81 1302.68 135 116 83
619.112 -68.921 1365.5 253 224 219
17.1148 -52.5509 1032.55 255 248 235
7.59857 3.71439 1064.64 205 114 87
767.21 12.815 1459.68 154 156 136
125.368 21.7013 1125.69 255 246 234
566.815 29.6922 1370.54 203 209 184
132.415 39.5151 1148.75 255 254 230
-37.0344 38.6744 1036.45 255 250 241
-37.0344 38.6744 1036.45 255 250 241
45.1636 41.0888 1098.93 255 250 243
133.553 55.6264 1143.49 255 247 236
-22.1446 66.2579 1047.21 255 225 219
140.549 88.1797 1170.61 255 248 231
614.775 110.34 1434.94 110 109 93
568.242 175.618 1606.46 38 64 63
599.647 162.96 1454.55 225 250 255
-88.2011 130.288 1087.27 76 41 29
65.6659 146.946 1133.32 126 88 91
88.542 149.51 1160.78 252 253 252
605.994 218.185 1617.64 145 187 176
78.1898 154.385 1159.62 254 254 251
591.898 225.103 1618.9 62 91 88
34.2728 193.336 1132.43 254 252 226
37.5859 252.084 1157.15 181 138 123
-106.823 353.168 1288.03 92 53 31
-33.8163 337.267 1147.02 255 245 230
-908.382 -573.967 1977.99 67 64 56
-63.9337 -358.792 1332.35 141 150 143
-63.9337 -358.792 1332.35 141 150 143
-407.06 -451.807 1987.6 151 148 144
41.9118 151.34 -726.41 151 122 86
-585.878 -442.618 2457.95 146 123 92
413.973 -237.366 1325.21 79 85 60
508.6 -184.768 1254.96 127 123 110
-897.193 -250.932 2132.26 71 53 30
699.202 -143.412 1345.97 241 254 240
503.451 -109.178 1239.76 251 245 242
36.3773 -92.4199 1105.52 143 138 142
58.3389 -73.6584 1055.49 250 243 208
544.434 -67.7224 1330.28 239 231 231
44.2786 -53.3396 1048.36 205 140 117
-1378.76 -41.6823 1808.63 47 53 45
516.13 -20.6602 1296.05 32 12 6
609.72 3.07217 1363.73 252 250 241
118.182 3.87652 1094.27 255 251 243
489 19.0942 1466.74 93 98 76
712.413 28.3569 1422.42 254 254 234
-56.6863 48.4657 1030.09 240 249 243
647.318 95.5682 1461.87 110 96 82
77.6271 107.264 1111.46 255 250 229
77.6271 107.264 1111.46 255 250 229
654.122 203.89 1470.55 236 255 255
687.996 231.42 1522.01 118 140 146
7.86701 214.309 1136.6 133 84 71
99.8627 237.224 1188.69 249 254 249
9.05711 308.218 1153.52 254 253 240
-38.494 310.969 1137.84 247 239 245
-149.999 -392.556 1293.8 158 155 140
-863.454 -516.629 1982.87 143 146 140
-408.644 -453.371 1991.5 139 137 135
-1395.34 -436.418 2105.08 60 77 68
-691.948 -376.711 2004.53 136 136 132
688.661 -210.637 1363.5 84 87 71
-888.827 -332.016 2184.5 120 128 117
685.7 -177.026 1350.47 121 128 107
538.427 -133.825 1260 110 111 107
663.23 -131.176 1384.24 254 254 249
663.23 -131.176 1384.24 254 254 249
567.763 -79.9553 1313.64 253 251 246
29.4934 -23.3585 1056.49 255 215 195
652.951 20.5502 1391.57 251 249 237
153.015 45.4452 1208.96 193 129 102
669.228 71.3164 1426.78 149 129 106
662.568 103.492 1453.63 248 251 245
603.983 135.636 1447.42 231 248 243
674.451 285.434 1565.68 218 241 238
14.1815 262.891 1172.29 125 85 84
14.066 366.114 1174.58 59 59 60
14.066 366.114 1174.58 59 59 60
-204.561 -280.135 989.058 109 113 100
-299.929 -402.958 1685.33 119 118 111
625.085 -293.24 1321.98 171 208 202
-577.824 -416.658 1920.88 84 87 79
608.36 -241.393 1299.37 87 66 62
521.356 -152.733 1255.13 251 253 254
501.136 -147.871 1266.27 38 24 16
71.5692 -96.6818 1090 65 90 99
532.979 -96.0079 1264.85 181 118 97
-19.2018 -54.0114 1033.09 93 70 53
496.998 -53.3241 1485.87 102 104 90
-98.1242 -4.63029 986.548 194 173 145
-33.4335 62.8247 1037.06 255 240 251
41.2659 149.722 1092.91 253 254 245
-42.4849 211.926 1100.78 159 75 62
-13.9517 218.509 1112.09 253 249 244
-13.9517 218.509 1112.09 253 249 244
-20.2091 240.214 1122.88 206 135 121
-20.2091 240.214 1122.88 206 135 121
-40.2118 268.821 1125 255 252 254
-54.0517 292.478 1135.76 92 62 53
-882.781 -529.862 1963.77 76 80 64
-765.224 -466.043 1959.43 105 100 87
-1128.04 -291.624 1834.63 86 79 74
-1470.62 -283.965 2089.52 76 72 61
581.501 -143.874 1318.58 117 101 86
739.309 16.3612 1426.24 146 160 128
698.761 47.6153 1426.95 139 125 103
698.761 47.6153 1426.95 139 125 103
58.5831 96.234 1121.14 164 114 99
103.784 133.993 1166.18 253 252 242
71.7172 134.317 1138.91 132 111 99
3.65836 204.419 1120.38 148 109 97
3.65836 204.419 1120.38 148 109 97
360.049 -446.444 1664.84 48 37 26
-756.641 -456.43 1786.02 134 146 141
651.453 -261.302 1255.64 160 184 158
-1219.71 -286.466 1736.06 128 147 137
-1073.36 -276.053 1838.91 119 133 128
-1657.22 -319.148 2361.5 77 73 60
707.773 -43.962 1359.3 179 187 181
-97.4836 141.56 1087.71 93 79 58
29.9053 222.86 1140.74 251 254 252
-16.9034 352.891 1150.91 249 241 227
601.413 -339.166 1586.51 215 185 166
-816.465 -418.952 2029.81 133 140 133
632.186 -256.356 1293.99 79 74 72
-775.497 -234.042 1235.86 128 145 136
-757.018 -373.343 2024.64 88 71 55
-757.018 -373.343 2024.64 88 71 55
-117.42 32.9495 1091.38 79 49 41
15.3429 33.4041 1068.7 238 253 241
15.3429 33.4041 1068.7 238 253 241
57.2642 298.068 1157.54 178 197 150
25.0185 344.111 1180.82 70 52 47
716.869 -111.161 1458.9 248 249 231
716.869 -111.161 1458.9 248 249 231
491.926 -70.8387 1334.49 52 43 35
491.981 115.011 1582.09 165 159 145
653.049 144.263 1482.2 233 253 248
-134.152 -460.584 1602.73 137 137 132
454.997 21.7904 1533.78 40 34 25
560.148 249.122 1656.39 76 68 60
467.834 299.402 1480 199 200 188
6.10531 -82.1379 1082.64 75 99 109
-1285.91 -182.126 2156.75 76 67 55
