-352.115 -39.3967 1395.05 135 123 97
-466.074 -31.5853 1344.06 38 33 16
-481.743 -2.76365 1323.36 162 124 77
-265.117 -1.46949 1415.64 54 57 57
-143.26 60.5311 967.387 61 64 67
90.0732 65.2433 922.583 102 92 80
43.4314 93.2535 973.209 215 212 200
35.1293 89.9413 916.981 220 218 206
-158.334 90.6574 868.767 194 228 218
-158.334 90.6574 868.767 194 228 218
20.5434 90.1045 856.943 236 239 232
-182.44 117.164 843.23 204 233 236
127.529 218.494 971.001 71 38 18
49.7361 199.774 880.549 134 87 62
49.7361 199.774 880.549 134 87 62
-221.845 249.726 1033.66 254 254 246
97.5446 245.43 937.557 158 130 115
-23.8879 276.256 879.784 246 241 237
-146.403 316.641 966.289 253 250 248
-14.8068 304.132 886.378 37 21 14
-17.5437 318.795 883.069 235 236 225
58.2086 347.381 945.935 41 56 56
-37.8305 330.026 882.077 56 45 38
143.463 428.839 1035.96 190 147 130
21.2755 456.559 955.947 175 109 100
121.973 519.28 1074.81 56 72 79
43.1096 471.805 944.986 213 220 211
-307.631 -100.28 1432.46 127 132 103
-296.693 -83.592 1403.04 38 33 18
-296.693 -83.592 1403.04 38 33 18
-371.301 -71.8806 1359.95 42 28 14
-283.345 -74.5412 1459.13 40 30 20
-431.643 -36.8771 1297.7 36 26 11
-420.506 2.37798 1345.15 61 38 21
-90.113 15.5851 1066.42 13 12 14
-38.9034 18.8685 1025.6 109 109 90
-453.314 54.6955 1490.19 47 37 38
-429.459 71.242 1382.01 112 107 92
-99.7321 56.376 960.242 253 230 223
52.0303 76.9345 905.804 220 211 197
-139.4 99.6409 868.942 112 125 136
-157.477 113.161 837 198 232 221
104.194 172.589 960.968 172 134 113
142.029 175.255 973.271 21 4 1
-105.814 182.571 798.643 27 28 24
-92.5265 189.085 821.805 39 44 53
46.8412 224.369 905.318 212 182 167
-12.0379 270.72 913.081 244 227 212
63.2214 281.295 942.303 37 55 70
63.2214 281.295 942.303 37 55 70
132.849 296.915 969.747 97 100 100
-160.825 307.984 997.787 255 255 249
37.4078 300.03 929.895 99 79 70
-9.89905 274.755 856.59 201 197 195
188.205 339.263 1034.77 48 38 35
133.174 329.466 1001.4 143 166 162
55.4339 422.846 945.284 165 128 119
97.3342 451.858 991.1 58 47 42
-50.8539 399.615 874.588 124 119 114
130.9 505.697 1087.3 68 94 95
-367.601 -135.822 1508.29 93 106 104
-512.045 -115.514 1525.57 131 132 128
-460.133 -80.0754 1403.74 100 126 124
-402.2 -46.8711 1330.74 194 163 144
-284.777 -33.6421 1412.97 141 189 178
-486.678 -28.0536 1315.9 126 107 79
-435.493 -28.1222 1347.75 209 182 155
-435.493 -28.1222 1347.75 209 182 155
-435.493 -28.1222 1347.75 209 182 155
-11.3596 6.74737 985.15 107 120 93
-95.2725 10.4866 1032.17 251 255 254
-427.865 45.0649 1437.52 138 139 135
-88.7049 58.3076 947.776 179 132 115
-88.7049 58.3076 947.776 179 132 115
-119.624 80.2019 900.128 159 188 187
67.4766 83.8301 906.098 149 115 86
-92.2098 155.453 796.135 34 44 46
-64.0553 166.149 839.316 30 40 39
-54.0112 180.587 844.297 143 145 148
-54.0112 180.587 844.297 143 145 148
-72.9501 219.451 815.498 46 37 41
17.0749 272.748 907.186 205 200 195
68.2159 295.612 952.598 122 171 169
74.9999 304.86 954.412 45 58 81
74.9999 304.86 954.412 45 58 81
159.57 383.921 1033.28 118 64 55
93.3951 511.72 1043.68 110 143 142
-312.361 -82.3181 1416.74 57 47 40
10.147 -0.244608 979.439 71 83 76
10.147 -0.244608 979.439 71 83 76
-213.041 109.566 885.993 91 80 68
-178.125 125.21 830.949 81 93 83
-178.125 125.21 830.949 81 93 83
-54.107 176.003 824.868 139 140 143
-26.7666 312.706 879.274 32 10 5
52.3232 88.6616 878.815 33 31 33
-457.718 171.739 1507.51 126 111 101
-16.2256 219.011 871.612 146 74 51
-10.2969 265.414 883.197 199 196 190
136.007 354.865 1010.47 107 58 60
136.007 354.865 1010.47 107 58 60
136.007 354.865 1010.47 107 58 60
-357.425 -74.9722 1401.64 76 52 38
-315.27 53.3133 1541.27 83 63 52
-67.0014 51.7708 991.84 206 196 187
191.544 304.566 1044.61 204 198 185
118.593 315.99 989.923 66 70 73
118.593 315.99 989.923 66 70 73
-377.882 -19.3909 1390 183 181 165
88.1178 258.871 941.099 66 50 46
164.641 357.153 1014.91 191 149 136
-304.368 -87.4706 1446.07 38 33 18
-344.694 32.3353 1498.26 204 180 163
43.9804 35.1787 905.763 133 202 198
-440.929 125.452 1319.42 243 233 227
150.46 248.138 997.839 61 49 49
29.2772 248.657 892.815 98 75 60
29.2772 248.657 892.815 98 75 60
16.9577 429.461 938.875 157 83 60
130.349 189.081 971.11 75 52 39
50.4174 201.815 914.871 199 151 122
79.2668 249.588 956.894 53 37 35
79.2668 249.588 956.894 53 37 35
-121.641 147.961 789.852 48 37 37
147.532 121.304 949.551 181 171 152
-20.6753 173.944 852.654 54 44 37
-80.7028 265.731 836.003 62 56 54
-283.376 37.6764 1029.59 61 45 46
-10.6066 172.261 822.462 62 56 47
