-162.682 -27.8761 229.074 141 147 142
320.197 -201.459 1672.83 96 97 93
335.72 -157.135 1662.55 132 121 108
375.15 -20.5932 1777.93 255 239 228
-251.329 23.951 1158.78 92 73 55
-32.3853 136.783 1069.85 117 73 63
86.5048 167.064 1279.94 245 239 222
31.6235 257.015 1208.81 254 254 241
-140.275 254.323 1183.23 73 16 3
-140.275 254.323 1183.23 73 16 3
-141.853 503.892 1361.46 26 19 13
93.6709 593.972 1386.13 48 44 39
50.3278 685.622 1374.86 132 183 170
-153.623 -34.0834 196.838 3 1 0
-527.017 -146.063 883.43 34 36 32
-543.711 -129.311 783.05 55 55 46
395.276 -240.34 1774.61 193 215 212
509.081 -277.776 2123.4 200 205 185
-367.371 -61.6672 542.283 146 156 148
-419.496 -73.8799 659.208 33 51 49
-618.683 -109.922 1018.5 105 118 117
480.8 -132.574 2038.02 159 151 129
331.311 -94.8703 1696.54 35 9 6
371.228 24.2762 1800.68 255 253 246
-163.936 75.6873 1120.41 49 7 0
-163.936 75.6873 1120.41 49 7 0
-152.438 168.366 1162.17 56 9 1
-12.2553 192.146 1101.45 86 71 64
1.36776 229.924 1182.94 255 249 232
1.36776 229.924 1182.94 255 249 232
-143.832 234.849 1187.97 52 14 1
65.1496 333.335 1268.08 255 251 231
-61.6532 362.383 1188.29 53 32 12
58.0996 458.062 1271.75 254 247 243
-356.358 -106.131 457.428 125 125 111
632.836 -310.858 1430.43 105 111 106
358.168 -104.59 1743.51 255 248 240
381.374 -88.5614 1790.37 144 134 126
14.7782 20.4962 554.237 251 239 218
120.807 94.4312 1353.84 255 243 226
-8.83224 162.387 1084.42 254 254 255
-34.1369 179.819 1117.12 216 179 172
-144.114 232.83 1126.43 160 99 71
50.011 315.654 1209.51 149 122 116
699.03 -342.367 1574.76 105 111 106
-538.986 -134.545 786.625 163 162 150
-123.456 50.2799 1155.7 64 33 22
57.1881 142.637 1229.97 252 246 227
65.3159 178.309 1243.64 249 241 226
101.231 189.838 1301.12 252 255 254
16.0523 325.308 1178.65 253 253 254
41.4791 377.895 1245.73 255 250 250
17.4235 380.54 1203.97 249 255 250
104.442 465.832 1344.9 85 74 72
104.442 465.832 1344.9 85 74 72
371.912 203.105 1871.01 67 56 46
64.2666 305.024 1289.44 253 252 255
9.48691 287.972 1141.31 255 251 255
-65.8556 324.426 1193.5 131 125 118
51.4428 397.309 1255.71 98 90 87
-962.267 -186.408 1669.03 61 67 64
-112.55 75.1567 1127.34 58 35 29
-36.4434 109.681 1110.46 200 152 123
26.4579 416.13 1200.81 252 254 254
-53.5467 118.775 1108.38 189 137 107
-116.114 272.858 1187.27 184 141 122
-116.114 272.858 1187.27 184 141 122
-107.735 337.011 1193.44 152 89 55
-140.135 5.40337 1179.85 172 147 115
-454.92 -145.256 692.678 28 24 16
124.356 -132.874 1727.72 74 59 49
-548.501 -129.146 851.119 121 135 125
297.627 -136.477 1727.71 52 40 37
311.899 -15.1054 1387.24 198 187 179
-217.318 111.012 1210.78 81 53 33
