-1242.18 -598.046 2214.25 142 162 154
382.648 -133.299 1187.82 102 87 86
426.819 -125.352 1241.52 164 161 166
-209.863 -117.696 1235.93 35 58 51
467.709 -70.1119 1275.68 241 225 195
467.709 -70.1119 1275.68 241 225 195
425.693 -54.8915 1282.34 174 156 134
-162.192 -27.8649 1027.88 117 81 64
435.823 20.7097 1293.53 147 123 114
634.542 65.0583 1470.75 255 255 234
-125.186 138.063 1093.93 250 232 219
-102.252 150.075 1070.48 255 250 237
500.402 267.964 1602.58 68 89 91
-191.754 195.105 1153.24 255 248 235
-258.317 235.727 1066.66 246 253 249
-129.638 296.16 1157.15 102 93 78
-129.638 296.16 1157.15 102 93 78
-10.1865 329.844 1251.78 227 149 92
-217.04 344.673 1135.99 244 229 212
-37.1086 385.625 1235.38 10 20 24
-181.651 373.627 1147.45 48 46 42
-32.4138 500.262 1255.5 159 189 176
-890.424 -557.363 2244.59 214 224 219
-332.943 -214.617 863.385 59 78 68
-561.711 -279.058 1217.57 47 54 55
-901.693 -365.021 1620.52 46 49 40
-357.539 -201.326 1062.45 54 56 52
-405.224 -167.906 1107.12 168 162 140
-405.224 -167.906 1107.12 168 162 140
454.822 -94.1239 1221.51 171 150 128
-139.391 -70.1124 1067.41 124 127 133
538.074 -34.8162 1364.18 251 238 228
-67.3862 45.8133 1114.18 182 110 87
-236.369 45.1873 1026.62 255 250 238
489.981 75.048 1349.01 201 194 170
623.778 134.576 1461.7 250 251 246
485.905 138.776 1349.16 145 138 121
480.713 160.238 1372.31 81 80 68
633.667 237.258 1505.39 180 192 189
-144.867 212.368 1114.82 255 246 232
532.186 364.376 1682.66 110 120 114
637.284 330.931 1502.31 251 254 253
-114.048 274.347 1143.66 252 254 235
-219.148 319.993 1105.81 255 252 249
-183.828 324.93 1119.16 251 245 234
-230.587 353.017 1115.87 253 249 236
-230.587 353.017 1115.87 253 249 236
-194.041 402.885 1122.69 254 251 236
-881.352 -431.93 1631.49 54 70 61
-645.657 -394.921 1634.17 50 61 59
-431.515 -178.424 788.434 119 127 120
-216.52 -72.8074 401.31 44 37 34
407.317 -163.383 1253.32 129 128 111
493.705 -136.11 1273.12 255 252 220
429.931 -122.088 1218.7 255 251 252
635.863 -100.344 1303.34 125 148 123
417.008 -82.6492 1266.25 254 252 245
578.116 -78.7496 1320.44 205 201 184
433.328 -31.8204 1300.06 236 232 232
690.32 -7.27237 1401.7 65 68 60
441.96 6.43357 1271.75 74 67 77
470.169 35.232 1331.94 164 165 138
-220.576 80.218 1041.7 180 89 68
463.628 158.592 1386.37 41 30 26
468.295 210.276 1560.5 60 70 70
618.017 230.094 1469.01 181 194 193
-137.638 197.514 1123.49 222 178 169
615.012 273.888 1545.95 222 248 250
-155.395 270.135 1108.37 211 148 148
-79.1141 339.717 1198.67 151 172 126
-236.256 331.018 1118.7 252 250 249
-112.572 -24.0334 1050.14 89 42 18
439.575 -2.9872 1299.29 248 248 246
532.943 13.5434 1313.75 255 252 240
-198.671 69.3225 1071.92 255 248 244
556.024 157.465 1424.23 239 253 247
-2.0196 171.094 1139.93 255 255 241
-236.035 204.392 1053.09 217 180 147
-236.035 204.392 1053.09 217 180 147
620.074 355.639 1620.55 215 241 236
600.594 330.553 1523.58 218 246 244
562.438 346.363 1545.4 115 153 158
11.3081 281.716 1187.08 223 198 179
-52.0074 351.563 1196.37 155 141 101
-215.909 400.028 1143.69 78 52 41
-294.219 -91.7634 464.769 57 63 53
393.687 -119.16 1240.14 35 19 11
610.895 -86.027 1330.95 252 254 253
-164.089 2.75712 1045.41 250 201 174
-158.774 46.961 1067.1 248 242 239
-167.767 188.943 1100.86 252 251 247
-237.943 227.485 1061.45 131 44 27
-206.875 235.379 1068.32 255 248 244
-206.875 235.379 1068.32 255 248 244
-181.041 384.454 1148.22 72 65 63
-262.643 -107.215 420.917 58 69 63
-262.643 -107.215 420.917 58 69 63
-378.826 -439.744 1893.41 107 119 113
-378.826 -439.744 1893.41 107 119 113
-349.528 -131.053 576.69 132 147 139
491.852 -114.787 1289.72 112 90 80
-203.556 33.4995 1034.1 213 137 107
-230.428 38.0451 1043.25 251 233 232
-138.864 87.8763 1063.13 125 88 69
-138.864 87.8763 1063.13 125 88 69
-138.864 87.8763 1063.13 125 88 69
-50.3163 94.7385 1130.56 248 217 201
-131.213 120.996 1086.21 133 73 55
-131.213 120.996 1086.21 133 73 55
-131.213 120.996 1086.21 133 73 55
-216.841 132.434 1051.56 223 182 145
-81.9414 150.976 1059.06 244 241 225
-190.978 227.257 1093.91 173 102 97
-190.978 227.257 1093.91 173 102 97
-404.37 -218.374 1276.68 159 140 113
422.729 -122.788 1244.21 255 255 252
-118.315 158.815 1096.78 135 107 86
-164.221 245.039 1105.67 253 245 240
-210.906 372.066 1131.2 241 228 217
619.727 -6.13196 1280.08 104 128 115
-134.599 326.436 1150.47 163 183 137
-515.783 -229.568 916.398 75 78 72
-176.247 -109.653 565.246 149 128 104
-176.247 -109.653 565.246 149 128 104
-509.528 -187.368 1193.86 72 57 40
-70.5115 -56.4737 1084.32 237 191 148
450.213 169.475 1681.03 143 137 122
566.057 194.438 1443 218 239 238
460.968 277.947 1596.43 83 72 61
-180.147 -75.3638 1138.27 59 87 89
-120.168 476.033 1231.87 55 53 55
-99.827 267.011 1238.92 212 216 201
478.271 70.2545 1618.54 84 65 51
-131.865 129.829 1044.7 149 111 95
