826.966 -271.221 1668.37 127 124 122
848.35 -267.257 1711.15 189 187 183
328.493 70.3643 1830.64 138 114 100
190.074 116.361 1844.27 47 27 11
190.074 116.361 1844.27 47 27 11
-260.935 127.329 1145.87 44 8 2
343.082 252.214 1892.12 245 238 226
154.106 320.833 1822.6 41 64 64
271.377 331.555 1862.34 232 253 255
-101.717 207.241 1074.02 252 247 246
-1.0195 256.763 1280.13 251 254 241
-231.562 278.546 1161.18 44 5 0
-150.498 306.996 1157.34 59 25 6
-153.405 336.507 1125.52 62 33 37
-186.957 407.666 1111.08 187 132 109
-172.018 466.215 1131.75 44 26 16
135.045 -175.374 1844.91 176 206 196
-862.236 -75.3623 1452.72 147 123 94
121.501 -53.7515 1610.51 76 78 55
-196.18 7.92176 1335.14 126 151 139
-81.0965 62.0603 1181.08 248 243 221
-81.0965 62.0603 1181.08 248 243 221
279.94 88.6703 1763.86 254 252 249
-127.463 80.0429 1050.75 133 99 67
-99.4209 111.966 1059.01 252 240 227
-158.321 145.412 1061.33 170 155 145
-158.321 145.412 1061.33 170 155 145
-249.059 168.806 1136.06 57 12 5
-113.827 220.314 1092.44 25 9 5
285.997 477.188 1929.67 167 190 191
-148.091 316.649 1122.06 36 17 14
-86.8716 381.284 1140.96 106 95 94
936.518 -305.366 1472.1 108 112 107
-26.4322 -265.535 1606.76 153 143 132
256.12 -181.579 1747.46 108 130 120
302.218 -179.017 1827.74 200 227 221
302.218 -179.017 1827.74 200 227 221
-275.029 -42.3357 444.277 134 146 139
-1402.13 -88.3699 2207.13 130 109 74
259.062 -40.9739 1672.95 255 252 249
226.477 -28.7787 1576.39 48 28 18
375.354 196.538 1928.91 168 156 135
375.354 196.538 1928.91 168 156 135
-78.7213 129.111 1105.59 254 249 249
-117.304 132.723 1072.75 121 35 14
170.728 245.996 1956.44 104 127 97
317.938 234.051 1819.99 146 131 107
-24.8057 214.577 1225.54 253 255 241
-11.5324 226.061 1252.07 162 139 124
292.332 416.801 1960.54 237 252 250
-104.544 227.459 1058.05 76 61 54
210.158 464.667 2161.32 141 164 160
304.297 455.019 1910.39 243 255 253
185.456 481.336 1929.28 72 83 83
-43.1887 361.036 1189.99 116 84 70
-176.975 388.934 1214.56 106 65 38
-205.464 392.529 1191.66 148 108 79
-77.4306 403.532 1124.54 251 254 250
-36.5687 489.673 1210.85 255 254 243
912.319 -336.284 1728.13 128 128 122
-329.9 -49.7577 540.983 123 136 128
-255.793 22.9293 1267.12 109 86 77
344.774 127.875 1782.01 254 253 251
-51.0642 306.639 1188.31 159 114 104
-78.8187 308.969 1128.12 166 85 62
-77.7815 362.421 1137.4 255 247 255
-54.0814 415.323 1200.54 252 250 248
14.4667 514.433 1331.26 81 82 78
131.129 -122.44 1679.06 179 173 170
158.533 102.569 1868.95 123 127 109
-45.1575 141.387 1199.8 250 249 255
27.4386 167.421 1331.8 255 244 220
-104.194 142.882 1062.8 255 251 250
-38.0991 191.293 1223.07 237 223 207
-62.5764 204.98 1159.25 255 218 195
7.76101 240.387 1290.33 254 254 253
-75.2845 249.942 1138.43 238 205 177
-34.4841 338.852 1221.3 251 252 253
-34.4841 338.852 1221.3 251 252 253
-84.3124 338.75 1153.48 253 250 255
196.129 -163.909 1913.45 209 188 179
353.657 21.779 1885.63 230 231 225
353.657 21.779 1885.63 230 231 225
-205.474 121.009 1107.1 52 33 25
261.32 247.424 1723.34 68 58 50
157.102 326.417 1801.58 72 93 99
157.102 326.417 1801.58 72 93 99
-150.111 217.119 1089.39 75 60 45
-65.5435 452.686 1158.07 255 253 253
315.885 -143.629 1790.04 114 105 92
-359.797 91.6717 1258.71 109 85 66
-99.7091 193.016 1090.18 255 253 254
-204.873 314.384 1161.67 156 113 95
-66.8943 405.436 1159.16 254 251 254
-541.871 -85.436 960.783 65 65 63
-237.705 57.4911 1189.64 168 141 107
-72.0814 21.431 1203.26 51 95 103
353.163 134.385 1914.59 213 211 195
-119.763 331.439 1104.25 91 46 31
-112.089 482.781 1236.38 47 34 35
53.0239 127.672 1168.9 47 31 20
36.7188 227.746 1405.97 236 201 171
127.143 398.051 1745.57 95 82 75
-12.9274 551.087 1261.93 94 93 92
210.771 -73.6259 1711.69 63 52 44
210.771 -73.6259 1711.69 63 52 44
338.629 46.1164 1816.62 255 252 250
-329.119 9.66589 1329.74 142 132 116
-233.626 207.276 1164.06 154 100 83
