133.602 -475.267 1452.71 168 166 162
127.424 -434.168 1353.88 34 41 38
109.687 -349.098 1105.4 99 116 112
-22.4742 -297.962 993.459 6 0 0
-25.0332 -109.469 369.469 101 95 91
-247.527 -377.049 1283.45 80 80 71
64.3933 181.048 -735.118 96 103 98
-64.9227 -41.8718 166.874 69 53 46
-377.227 -570.021 2674.97 76 63 40
567.891 -124.087 1213.25 171 156 142
482.757 -43.9081 1195.48 255 248 224
482.757 -43.9081 1195.48 255 248 224
414.994 14.9849 1206.69 41 19 15
525.47 16.9924 1246.61 87 73 66
-119.771 33.3197 1025.05 255 248 234
-207.518 54.6649 998.191 254 237 227
657.709 77.5233 1351.71 254 253 244
637.277 110.855 1400.7 250 255 238
-185.104 95.5631 1034.08 178 135 117
-159.445 101.811 1045.28 93 39 22
-160.192 133.128 1059.88 255 241 224
-133.015 135.785 1065.56 255 238 210
-133.015 135.785 1065.56 255 238 210
-48.0687 145.761 1056.01 252 221 181
542.145 194.343 1310.56 157 183 180
-40.8121 166 1092.67 255 229 211
-198.727 210.608 1237.43 56 20 11
-126.159 185.163 1036.53 253 248 240
490.16 273.709 1421.13 53 70 69
-195.006 248.896 1078.99 255 250 238
-116.241 255.041 1090.33 253 236 232
-262.048 254.081 1087.2 122 31 20
621.037 340.193 1414.57 224 246 249
-128.161 277.841 1110.67 186 177 164
-75.661 294.206 1143.88 254 255 243
-265.732 278.287 1069.75 255 248 255
-241.49 303.641 1066.2 102 79 78
-204.305 313.037 1088.17 231 201 194
-0.282805 338.426 1160.13 191 155 124
-36.6268 528.727 1299.19 29 38 34
-34.0649 541.186 1308.9 139 175 163
-55.9962 549.131 1290.56 162 179 171
-187.618 505.907 1163.55 22 20 16
-67.9825 497.223 1144.24 160 209 190
139.009 -339.215 990.95 159 162 159
550.025 -248.529 1152.91 195 226 231
591.377 -177.734 1182.45 45 48 45
597.142 -169.03 1197.74 161 162 155
492.718 -154.928 1157.1 160 141 129
412.729 -112.302 1166.36 98 76 65
-202.487 -122.324 1283.22 36 56 61
-181.026 -101.77 1079.73 42 55 60
-188.668 -101.046 1164.2 120 123 130
443.417 -69.6902 1185.23 77 60 61
494.055 -55.0439 1234.53 105 91 69
558.239 -46.6588 1218 251 247 240
492.901 -39.151 1250.03 137 65 46
686.208 -0.823901 1252.05 93 98 83
503.862 7.48057 1236.11 144 116 108
515.496 15.7869 1250.76 245 236 225
709.027 24.3603 1293.2 55 56 43
532.741 26.3804 1246.97 255 245 240
435.78 26.9424 1262.38 120 110 106
-172.692 38.7861 992.529 41 7 3
-247.89 53.5828 971.524 255 249 240
-78.6822 58.567 1073.07 186 115 73
554.026 75.6524 1307.06 252 252 250
-279.359 57.282 966.98 92 70 73
-243.95 62.9027 992.797 203 138 133
-293.915 62.5474 940.486 61 46 48
618.412 92.0246 1310 253 253 224
-31.756 80.851 1088.29 253 231 206
-144.312 107.679 1036.56 69 19 7
632.712 158.575 1371.92 99 98 85
632.712 158.575 1371.92 99 98 85
647.051 188.269 1375.79 242 255 254
466.765 184.556 1282.1 35 29 23
660.149 204.869 1417.77 144 158 157
-121.036 153.507 1061.6 251 242 224
489.415 187.937 1283.56 79 78 71
-101.393 154.743 1066.18 133 100 83
519.941 243.493 1553.17 38 50 48
686.233 233.218 1450.36 246 252 252
-113.83 186.277 1065.37 253 246 241
-266.753 257.192 1042.93 243 254 248
-35.3624 290.117 1139.61 46 20 12
-118.603 290.274 1102.66 102 87 76
-207.155 331.808 1115.61 80 60 50
-242.919 324.373 1044.44 251 253 254
-213.28 382.121 1154.91 24 20 17
-96.6862 381.319 1067.88 25 27 33
-182.753 -448.785 1613.58 151 151 146
-182.753 -448.785 1613.58 151 151 146
-725.887 -640.43 2381.67 37 49 47
-468.556 -521.964 2534.61 174 155 130
-581.58 -140.621 951.593 9 8 5
503.853 -109.767 1187.18 233 210 185
-267.189 -94.006 1212.18 79 57 48
404.247 -70.4514 1193.26 132 109 108
467.957 -65.3414 1221.21 169 158 135
550.949 -58.8955 1199.96 188 130 117
550.949 -58.8955 1199.96 188 130 117
-193.225 -43.5983 1016.22 123 112 112
509.776 -33.4664 1252.92 149 101 85
-150.983 -14.8019 941.844 158 107 76
547.566 -16.9036 1244.15 74 49 49
433.578 -4.84229 1194.67 218 219 220
433.578 -4.84229 1194.67 218 219 220
537.288 -3.70871 1241.47 235 204 197
-117.09 1.84195 1026.02 235 197 166
457.257 19.4246 1180.43 229 216 218
-287.81 27.9157 997.5 120 64 50
-50.8664 28.9008 1066.05 142 91 60
-50.8664 28.9008 1066.05 142 91 60
-102.216 42.1985 1098.8 77 31 18
-259.13 50.8097 982.505 157 112 95
-249.988 73.1617 988.088 220 231 219
-247.516 94.4155 994.229 255 254 242
528.796 176.158 1342.18 134 127 121
-36.9473 207.102 1116.81 200 129 100
659.261 266.028 1425.36 174 190 189
-286.695 201.039 1047.01 255 254 233
4.27408 281.689 1270.18 183 139 123
-106.906 260.684 1104.68 198 201 188
8.80675 285.816 1171.24 185 134 112
-101.598 274.051 1061.09 115 100 87
-241.138 284.804 1055.63 244 252 250
-241.138 284.804 1055.63 244 252 250
-203.412 438.423 1198.73 217 211 193
-237.608 470.675 1222.44 22 20 22
-528.774 -289.404 1128.21 63 65 58
437.779 -135.642 1139.3 111 102 94
494.056 -20.1105 1240.52 255 248 243
494.056 -20.1105 1240.52 255 248 243
545.804 11.5796 1247.08 91 73 67
545.804 11.5796 1247.08 91 73 67
519.88 28.7815 1256.43 114 94 81
400.38 37.9785 1130.98 44 30 30
596.249 50.1589 1284.33 189 192 176
-51.7041 41.612 1035.09 157 110 69
481.449 62.0078 1247.01 173 175 149
579.692 113.632 1296.58 136 123 99
-266.895 92.0962 1005.12 181 134 132
-266.895 92.0962 1005.12 181 134 132
-26.1461 154.202 1120.2 222 150 111
-10.044 189.149 1113.57 253 255 251
656.057 378.008 1518.62 213 240 242
-81.0029 436.32 1293.01 253 250 244
-80.6463 376.446 1105.59 254 254 251
-107.942 361.165 1024.97 254 253 254
-599.999 -280.618 1222.3 64 60 48
-580.855 -382.203 1686.74 42 39 35
-364.639 -231.893 1018.7 42 39 35
411.25 -94.3516 1183.06 42 21 15
591.637 -76.294 1197.4 152 154 123
591.637 -76.294 1197.4 152 154 123
-172.821 15.5431 974.156 229 175 152
460.926 25.2649 1250.47 247 250 251
460.926 25.2649 1250.47 247 250 251
-217.9 45.6259 995.617 208 130 98
-266.591 76.7834 1004.21 183 207 196
688.041 131.158 1379.53 125 116 95
688.041 131.158 1379.53 125 116 95
-249.099 98.5296 1001.45 254 252 241
-161.9 190.556 1058.97 253 253 234
-259.241 242.288 1059.13 139 61 41
-254.189 296.984 1076.43 238 231 230
-190.736 380.442 1086.36 31 25 23
287.122 -688.074 2140.32 78 83 85
51.0741 -222.945 711.318 74 69 66
51.0741 -222.945 711.318 74 69 66
-517.013 -338.908 1241.1 137 147 140
-700.884 -370.699 1463.11 140 151 143
625.032 -375.262 1867.43 69 51 40
499.388 -85.22 1188.98 101 74 67
648.656 -53.2541 1273.93 253 252 244
-237.614 47.7721 972.291 251 227 232
-303.662 88.3025 984.074 226 217 207
-150.811 101.366 1027.14 135 76 75
-150.811 101.366 1027.14 135 76 75
-193.027 129.147 1016.93 223 202 179
-143.94 132.765 1040.65 70 24 10
-143.94 132.765 1040.65 70 24 10
-143.94 132.765 1040.65 70 24 10
-209.567 241.385 1078.39 154 121 107
-330.084 -472.985 1408.38 143 143 138
-300.07 -189.284 689 135 145 138
436.193 -97.8434 1172.55 225 227 227
687.556 -109.236 1268.38 252 255 246
-132.449 173.513 1070.74 123 97 82
-113.358 -66.3511 1018.64 48 85 96
564.734 -4.53782 1251.68 143 116 107
699.125 96.314 1312.22 141 154 121
-211.957 89.342 962.71 196 106 82
-113.738 108.882 1063.32 231 180 140
-152.456 341.082 1119.77 147 173 128
-577.382 -354.009 1262.03 77 80 74
-577.382 -354.009 1262.03 77 80 74
-299.894 -336.705 1534.63 186 160 139
-299.894 -336.705 1534.63 186 160 139
499.825 -290.377 1336.86 115 98 109
650.397 -225.505 1199.29 132 156 125
-547.036 -303.334 1629.4 73 58 39
682.356 24.1174 1268.36 140 141 126
437.562 65.4023 1256.21 45 36 35
5.81984 164.337 1252.4 149 136 123
481.01 -209.689 1200.26 111 113 105
547.051 333.887 1678.27 84 80 71
37.1422 523.51 1355.31 181 181 171
-179.975 -67.5516 1090.42 62 85 94
-595.219 -274.879 1506.09 76 59 44
349.181 -120.581 1170.37 42 34 28
-102.502 284.191 1183.97 217 222 207
504.395 116.635 1534.83 79 68 60
-148.471 143.82 1031.76 125 104 92
