65.372 -275.131 875.034 154 156 153
-53.755 -234.46 825.221 141 137 124
-491.055 -360.549 1458.28 61 67 62
-819.744 -235.466 1151.94 91 99 92
604.074 -257.968 1294.46 41 67 70
240.185 276.404 -1475.44 60 50 28
444.521 -209.769 1296.55 175 176 153
622.428 -189.957 1308.27 37 47 39
688.74 -137.361 1353.81 239 247 230
457.826 -110.793 1307.58 153 155 153
682.613 -109.851 1364.11 184 195 173
533.458 -87.0884 1321.26 214 211 177
452.733 -77.5136 1301.1 83 69 73
477.782 -78.9541 1309.57 159 138 117
460.249 -69.8938 1297.79 190 180 152
-157.162 -51.7834 1127.77 135 143 145
-169.871 12.1962 1003.87 218 141 118
-190.667 52.5802 1071.94 255 237 223
489.723 95.6695 1351.54 93 96 79
-188.761 95.8916 1006.31 255 251 250
612.287 169.29 1445.48 237 239 232
-77.149 147.025 1167.9 35 0 0
-77.149 147.025 1167.9 35 0 0
509.808 225.558 1532.08 21 45 41
586.76 268.79 1558.35 38 77 80
-272.418 236.065 1038.21 210 207 201
-272.418 236.065 1038.21 210 207 201
-217.933 309.552 1125.08 243 229 219
-142.003 334.184 1196.57 80 66 52
-179.012 339.354 1188.35 221 230 205
-250.409 341.934 1156.1 113 95 84
-206.828 345.428 1165.5 252 230 222
-158.551 351.92 1161.41 133 152 117
-16.8493 404.964 1312.99 223 209 189
-249.668 361.138 1123.21 254 253 254
-36.0179 441.647 1332.48 19 20 21
-56.5003 555.367 1278.88 165 190 179
-333.369 -382.038 1204.76 69 69 54
-531.695 -343.605 1437.12 49 57 58
-577.296 -301.804 1338.51 43 57 50
597.74 -295.855 1371.53 29 58 67
-616.126 -342.216 1920.19 144 135 119
-411.977 -230.194 1307.23 164 151 128
-631.825 -353.635 2104.24 84 63 36
-631.825 -353.635 2104.24 84 63 36
502.997 -162.575 1301.75 85 79 61
502.997 -162.575 1301.75 85 79 61
387.538 -136.821 1218.42 34 24 11
510.447 -128.579 1289.71 108 73 58
-207.454 -102.855 1266.65 46 65 64
-209.804 -90.7604 1254.4 126 129 131
-265.199 -74.9519 1286.14 125 120 112
398.895 -72.8143 1279.26 144 124 116
695.27 -61.834 1413.39 148 159 144
-208.353 -34.8723 1119.24 140 129 126
553.481 -32.6868 1378.51 251 247 234
426.563 -26.6848 1295.92 87 62 43
529.075 -22.8589 1376 205 198 199
535.722 22.62 1347.22 253 244 231
490.602 33.5007 1382.14 61 54 69
-189.238 33.3425 1045.46 249 190 169
-213.367 43.5502 1096.77 248 186 160
-262.267 71.1851 1075.74 255 246 240
-286.999 72.4215 1029.66 109 79 70
-59.9947 93.6136 1130.06 255 248 231
-209.641 93.0173 1056.58 255 246 246
643.903 164.478 1470.9 235 237 230
-47.3043 155.941 1168.85 208 144 102
512.863 254.32 1659.55 45 54 50
570.345 256.532 1548.46 182 213 249
-140.968 257.72 1410.32 252 253 246
-130.829 219.38 1188.95 242 227 219
539.46 313.653 1669.23 70 92 92
726.957 332.168 1696.79 162 182 180
-283.687 298.189 1158.14 255 252 255
-8.78893 327.162 1239.89 209 133 97
-128.116 312.795 1179.31 251 254 238
-173.309 312.132 1161.09 173 129 121
-47.5116 429.045 1261.1 13 21 26
-201.311 384.904 1129.91 55 50 43
-110.43 418.743 1137.11 6 10 14
-207.325 -288.23 1155.05 152 155 147
-207.325 -288.23 1155.05 152 155 147
-690.507 -306.37 1377.34 119 126 117
-892.987 -381.14 1751.69 114 117 111
-892.987 -381.14 1751.69 114 117 111
568.171 -246.273 1160.52 63 87 93
554.952 -272.857 1309.6 37 42 42
646.67 -195.198 1358.32 36 50 42
503.773 -116.373 1283.15 249 245 213
439.513 -115.324 1281.49 251 252 251
659.925 -118.078 1328.05 252 255 244
423.443 -101.994 1314.51 34 17 11
-273.839 -91.4547 1336.59 29 33 35
449.516 -77.8512 1378.8 89 63 59
441.032 -61.6244 1318.81 235 232 225
517.39 -38.2904 1365.69 164 104 87
580.808 -22.8654 1426.06 84 64 59
698.565 -14.6397 1381.21 108 115 99
-220.794 -9.29242 1029.11 64 45 26
456.368 -7.25868 1344.27 216 223 220
439.287 39.3256 1330.41 37 26 17
-73.3135 56.1048 1145.54 219 214 196
556.566 73.3473 1407.72 248 245 233
-129.148 65.1785 1115.32 207 158 136
-270.148 67.0341 1065.82 158 105 116
-251.316 79.1388 1065.17 205 147 141
-250.562 109.68 1047.66 255 248 232
-250.562 109.68 1047.66 255 248 232
709.852 225.441 1626.63 165 186 183
-230.47 270.208 1170.38 91 46 37
-249.696 295.392 1090.89 153 107 94
-147.03 358.216 1287.66 98 84 75
-234.257 419.019 1225.52 255 251 243
8.44351 500.265 1371.48 84 70 60
-194.929 421.388 1104.12 239 235 220
1000.91 -517.526 1753.01 101 48 19
-694.404 -352.938 1350.36 60 73 70
516.408 -237.54 1294.86 21 21 16
516.408 -237.54 1294.86 21 21 16
357.787 -209.572 1327.81 17 15 11
309.299 -221.046 1506.57 39 35 26
-897.574 -136.736 1501.96 58 62 55
679.059 -94.6087 1378.57 223 243 228
-128.394 -1.5632 1077.96 69 25 17
567.892 7.05465 1391.71 112 81 71
591.5 42.549 1422.57 253 254 235
-290.322 74.3062 1096.7 222 221 223
-207.789 402.768 1110.61 254 251 245
-248.557 472.375 1259.44 60 45 40
-418.115 -491.678 1484.05 88 90 84
850.881 -443.077 1497.44 99 45 16
-94.542 -369.071 1316.41 43 34 18
-224.113 -325.742 1226.34 96 96 89
-573.154 -260.14 1207.73 80 77 68
575.111 -265.987 1310.99 157 203 199
-482.837 -165.97 850.358 57 56 45
-482.837 -165.97 850.358 57 56 45
398.999 -270.061 1405.28 58 58 56
614.836 -89.1478 1345.81 172 160 133
614.836 -89.1478 1345.81 172 160 133
-191.756 -23.1237 1089.86 36 23 29
466.405 22.8679 1354.04 240 238 237
-177.178 25.609 1041.54 240 182 153
-270.087 91.9552 1058.17 194 204 196
-251.762 113.347 1053.3 255 250 245
-270.784 125.303 1047.8 249 253 255
-270.784 125.303 1047.8 249 253 255
-162.548 210.656 1126.65 253 252 249
-262.137 267.551 1117.56 123 45 28
-258.905 326.766 1141.01 249 250 253
-159.521 396.436 1184.77 150 167 131
-96.1536 183.014 -551.843 67 57 49
45.2288 -252.256 853.451 73 79 73
23.9224 -288.652 1010.98 74 76 71
23.9224 -288.652 1010.98 74 76 71
-237.251 -299.591 1204.34 143 147 142
680.408 -118.937 1365.65 251 254 246
519.556 -95.5044 1336.27 107 87 72
519.556 -95.5044 1336.27 107 87 72
-206.959 32.9717 1062.3 240 174 147
-224.848 58.0545 1067.55 217 131 110
-241.151 60.3531 1022.28 248 238 234
619.525 117.668 1353.72 120 115 100
619.525 117.668 1353.72 120 115 100
-309.795 105.408 1037.21 245 229 220
-61.1631 122.144 1145.7 245 211 195
-147.322 151.308 1123.69 149 94 77
-147.322 151.308 1123.69 149 94 77
-147.322 151.308 1123.69 149 94 77
-234.813 161.343 1079.02 227 178 145
505.401 -450.193 1460.88 47 40 25
-397.107 -409.664 1343.16 138 145 141
-397.107 -409.664 1343.16 138 145 141
-833.156 -337.234 1534.16 131 145 137
-681.243 -316.845 1545.4 117 130 124
-573.133 -337.327 2020.12 156 135 104
443.266 -104.95 1286.97 228 233 231
-121.751 -60.013 1114.2 51 83 100
721.663 92.9591 1456.94 125 153 115
-134.982 194.041 1151.78 158 129 113
-228.071 412.282 1163.65 228 213 203
-228.071 412.282 1163.65 228 213 203
-229.05 108.95 1085.4 196 119 83
-293.517 148.963 1064.43 250 253 251
-182.045 395.23 1158.52 77 68 62
-831.527 -396.926 1606.72 75 78 72
-574.35 -223.118 1449.21 71 62 36
293.094 -186.063 1349.07 57 50 41
-84.051 -34.0249 1104.83 254 219 187
-163.382 12.5935 1071.19 215 160 132
450.86 68.2106 1387.76 45 38 33
425.809 92.7043 1704.92 64 58 51
7.38202 168.502 1263.9 148 136 117
622.807 29.4318 1367.08 250 249 249
622.807 29.4318 1367.08 250 249 249
531.265 344.233 1769.14 82 75 62
-190.108 -54.3704 1128.51 73 98 105
573.948 -203.876 1364.8 87 64 49
-643.254 -207.06 1406.68 68 56 43
672.458 -13.3155 1524.38 255 253 248
507.612 118.012 1676.6 70 58 44
