-236.033 -612.984 1732.3 44 53 46
98.7244 -923.193 2656.89 86 94 89
-51.9305 -387.4 1154.63 65 51 41
-32.7828 128.432 -457.165 68 53 30
-36.407 -755.413 2654.93 81 72 51
-214.013 -330.702 1207.93 63 59 53
-269.945 -643.301 2485.21 163 149 126
-220.494 -609.175 2362.98 91 83 64
451.188 -261.582 1131.22 79 57 47
451.188 -261.582 1131.22 79 57 47
-513.276 -116.666 707.278 141 151 144
458.455 -137.332 1063.92 161 166 148
-254.275 -137.761 1153.37 147 148 136
-254.275 -137.761 1153.37 147 148 136
592.825 -113.113 1032.75 160 169 159
494.268 -111.11 1066.8 230 202 182
631.936 -109.954 1065.98 107 130 106
425.606 -74.1343 1055.28 60 46 33
442.223 -69.1749 1096.13 147 138 115
505.265 -57.1392 1082.79 159 108 95
404.811 -18.2437 1121.71 68 39 27
-199.457 -2.22748 982.202 255 244 231
-393.484 54.055 1151.73 250 241 233
-284.459 65.9843 1020.86 255 248 238
432.439 79.1242 1158.96 151 149 137
-109.013 74.3098 1026.28 112 44 11
-117.477 63.3095 833.136 253 197 179
-204.123 81.6942 1031.7 134 67 54
-204.123 81.6942 1031.7 134 67 54
427.246 116.733 1353.77 44 39 26
-137.369 94.0172 1052.24 246 216 207
-210.105 146.685 1028.09 252 248 228
611.157 204.32 1349.99 234 249 240
552.514 274.027 1373.64 91 118 125
-136.698 260.153 1110.44 254 252 254
-82.255 287.169 1146.3 253 230 207
688.986 380.991 1367.35 233 240 238
-298.429 300.544 1045.43 248 246 242
-268.994 370.855 1176.53 254 252 243
-385.098 -408.304 1240.28 50 51 39
-229.531 -361.82 1356.37 224 229 222
430.316 -311.062 1274.13 41 37 24
430.316 -311.062 1274.13 41 37 24
421.136 -259.51 1189.7 44 20 10
518.13 -168.978 1037.14 74 69 54
580.674 -139.037 1062.91 71 64 59
648.617 -136.773 1055.21 187 199 176
609.383 -105.564 996.121 204 222 198
485.682 -103.04 1077.9 249 250 225
485.682 -103.04 1077.9 249 250 225
620.896 -100.094 1111.89 238 237 212
640.021 -90.39 1058.69 164 188 167
396.388 -74.7951 1044.64 243 238 241
638.982 -69.6493 1085.02 217 235 217
375.148 -70.6988 1099.31 139 118 113
469.928 -68.3763 1098.41 180 168 139
-240.948 -43.8533 920.109 117 98 86
463.488 -43.6406 1099.68 250 245 224
463.488 -43.6406 1099.68 250 245 224
-240.582 -36.3347 939.85 46 24 8
-253.629 -29.0975 960.866 227 215 201
493.886 21.8762 1119.31 84 66 56
420.174 28.5726 1190.35 123 113 104
-104.171 24.9712 1046.76 233 212 180
-174.778 28.5697 1030.94 255 238 214
-345.814 40.5619 958.433 123 103 114
-115.882 45.035 1004.71 116 53 35
-162.54 46.5587 1054.39 46 19 4
-162.54 46.5587 1054.39 46 19 4
-225.678 50.9467 999.656 254 251 243
-283.867 51.8708 957.468 225 153 123
-157.168 61.268 1055.17 64 17 9
-150.538 73.8907 1040.51 55 23 13
-150.538 73.8907 1040.51 55 23 13
536.665 89.3856 1184.27 135 135 133
662.276 86.6656 1147.87 180 213 183
603.499 99.4054 1189.9 249 249 213
722.669 106.717 1183.53 132 137 114
-206.922 93.4419 1014.14 82 26 9
-322.29 96.3716 963.843 245 254 254
416.512 140.977 1232.89 55 41 31
-134.793 116.713 1035.85 57 27 7
-134.793 116.713 1035.85 57 27 7
-210.334 116.287 1007.92 107 58 44
-107.953 129.547 1060.35 196 127 78
-198.984 129.143 1037.65 79 40 18
-205.238 159.757 1032.99 254 228 210
567.024 208.871 1281.22 131 178 172
659.399 211.253 1271.05 202 225 226
-172.949 169.654 1028.12 248 254 248
-350.256 180.885 1045.22 240 240 222
-108.073 184.123 1014.38 49 26 17
-102.722 195.06 1003.32 41 26 14
525.393 300.827 1333.35 22 47 59
664.202 335.974 1348.13 219 239 240
701.242 350.135 1379.17 211 234 225
-331.9 280.314 1091.28 150 147 143
-87.0246 290.717 1131.51 40 19 10
-115.575 -716.978 2552.45 167 148 120
540.93 -153.036 1001.28 144 147 143
442.399 -140.753 1018.12 62 66 36
488.637 -116.125 1081.39 84 54 35
391.543 -105.494 1038.83 253 254 252
-196.192 -87.0998 936.814 90 94 92
532.755 -81.4297 1075.46 98 94 78
497.421 -75.2985 1081.89 172 176 145
646.137 -52.1317 1090.85 238 245 234
617.495 -33.1712 1114.13 254 255 249
-229.695 -28.0724 978.605 161 117 89
-334.464 -9.73554 1022.4 207 183 152
413.794 -3.79247 1095.5 199 198 200
515.861 -0.872745 1128.97 223 201 196
-112.442 18.7673 1021.87 140 88 58
-112.442 18.7673 1021.87 140 88 58
-292.758 26.5031 980.045 185 94 76
-142.432 27.4111 1000.95 155 85 63
570.012 36.3855 1155.18 255 253 246
-167.756 30.9283 1050.21 53 11 7
495.494 45.2191 1284.69 55 57 64
516.691 46.935 1116.69 251 241 224
-190.063 40.0299 1005.22 199 133 114
438.022 87.5421 1150.42 91 79 61
-302.824 75.3413 998.035 159 95 60
-140.327 103.452 1044.75 50 10 3
-140.327 103.452 1044.75 50 10 3
-113.578 130.993 1049.76 198 126 74
486.925 174.116 1199.95 114 108 106
537.474 237.654 1282.2 175 205 211
537.474 237.654 1282.2 175 205 211
-25.0624 337.277 1177.59 214 205 188
-255.29 310.991 1078.77 253 249 238
-414.079 -474.719 1760.99 59 27 9
497.619 -72.4847 1081.25 166 173 140
-246.4 -49.2343 995.821 22 25 20
595.734 -46.6342 1069.48 253 255 249
459.293 -28.6174 1085.01 116 68 62
-266.247 25.846 982.392 189 105 68
-335.298 40.806 962.223 227 229 226
-377.435 45.2993 968.962 64 54 42
-266.19 230.337 1065.43 115 87 87
-137.802 341.013 1029.19 254 252 253
-485.726 -450.834 1477.66 83 81 68
586.348 -88.3552 1056.31 249 251 230
568.508 -60.4475 1119.62 250 255 253
430.658 6.15917 1104.6 98 79 90
421.6 27.1124 1125.57 236 230 234
421.6 27.1124 1125.57 236 230 234
421.6 27.1124 1125.57 236 230 234
-312.77 79.9687 981.382 255 250 242
-230.834 181.771 1079.25 254 255 246
-252.257 207.885 1063.72 83 47 36
-317.937 218.99 1046.67 144 69 58
-207.519 222.122 1056.42 251 249 241
-249.132 259.228 1044.46 98 76 63
-317.58 278.735 1091.87 243 238 248
-259.415 381.898 1155.42 69 64 62
-456.077 -464.556 1411.92 130 148 135
343.32 -236.893 1144.88 162 159 157
-385.328 8.36214 959.393 187 165 127
-314.141 34.0055 989.571 240 231 223
521.415 45.9594 1108.56 247 235 221
-366.382 69.0543 969.039 241 221 212
-218.467 89.9451 1031.06 114 81 68
-250.317 110.776 981.136 220 193 174
-295.986 125.995 1006 227 181 148
-116.001 141.731 1072.52 173 118 87
-264.719 190.589 1028.7 235 220 199
-267.188 294.868 1039.85 240 242 237
-325.768 -442.945 1418.55 131 137 134
-173.888 -82.9713 1027.21 52 80 90
-193.886 161.144 1055.7 93 71 69
686.619 -103.126 1147.87 246 251 241
409.636 59.9581 1151.14 52 44 40
-287.209 78.1165 996.025 200 107 89
-348.579 107.648 992.184 253 252 251
-348.579 107.648 992.184 253 252 251
-348.579 107.648 992.184 253 252 251
588.818 218.079 1316.49 144 189 188
-206.779 318.067 1102.96 149 168 123
-255.34 370.183 1179.6 75 63 63
-262.945 -353.484 1343.77 80 60 41
-151.649 -51.2465 1020.11 235 198 168
-214.888 -11.4901 917.007 226 173 145
543.287 1.16614 1129.13 160 138 131
691.003 33.3165 1163.22 88 94 86
625.633 27.5334 1169.19 253 255 251
625.633 27.5334 1169.19 253 255 251
-216.476 -91.7194 1052.91 93 105 104
370.733 -161.274 1151.09 63 57 52
-141.166 263.76 1113.98 207 204 208
517.97 148.551 1441.53 58 54 45
