-78.6021 -245.745 735.613 18 2 2
-224.489 -141.824 584.06 66 73 70
-377.771 -226.15 936.326 223 235 231
-156.341 -139.164 646.375 89 96 91
358.935 -277.025 1381.3 59 47 40
358.935 -277.025 1381.3 59 47 40
468.063 -135.113 1299.53 126 101 93
586.472 -92.6942 1269.74 254 255 229
557.588 -89.7912 1303.22 170 152 130
-268.824 -65.4387 1173.49 136 112 98
470.189 -56.9605 1273.6 255 254 228
527.758 -37.1834 1338.21 253 239 240
-176.134 -10.2604 1054.57 89 67 55
447.208 23.2706 1288.19 52 46 55
522.602 35.867 1213.9 248 248 238
447.543 40.6752 1277.97 79 70 59
-170.811 44.4473 1045.21 67 24 16
478.378 65.7036 1331.21 101 93 69
478.378 65.7036 1331.21 101 93 69
511.457 68.0372 1299.45 153 155 129
-155.606 77.4542 1078.85 150 116 110
-52.8209 108.09 1174.95 255 251 237
587.818 135.492 1378.4 104 94 81
575.59 141.247 1345.2 254 255 250
501.915 176.671 1382.86 70 75 65
462.032 225.308 1527.77 31 44 46
-292.917 178.215 1072.33 190 168 153
-292.917 178.215 1072.33 190 168 153
-49.3621 198.432 1177.39 254 223 198
-302.204 187.815 1085.37 114 102 99
-119.574 192.703 1080.38 251 254 249
561.786 308.743 1411.64 152 174 173
-112.706 267.535 1147.5 252 240 235
-223.466 367.669 1140.47 255 251 237
-236.939 352.263 1089.92 35 26 19
-75.0968 425.372 1224.01 15 20 29
-178.266 420.828 1188.78 31 14 12
-26.4536 -34.8218 102.824 139 141 137
-70.404 -22.6639 79.6616 65 85 79
-220.886 -108.672 477.8 55 69 64
469.999 -257.377 1302.76 83 55 41
-286.193 -167.582 899.588 69 62 62
-140.253 -40.2899 246.956 96 77 60
374.529 -180.474 1192.06 168 167 161
523.696 -164.115 1286.75 205 206 201
449.122 -111.492 1275 253 252 250
501.903 -66.1767 1286.3 138 113 93
-152.7 -55.4516 1117.05 128 142 135
-152.7 -55.4516 1117.05 128 142 135
540.278 -58.8643 1303.68 251 235 226
-178.219 -20.3629 1046.26 51 26 16
505.768 -15.9461 1283.67 255 245 239
670.206 9.20405 1352.2 73 68 59
-56.0562 32.9772 1359.97 149 108 82
645.412 37.3631 1304.31 100 104 87
-181.505 28.3125 1024.37 253 193 173
552.119 72.4742 1280.4 255 255 231
-240.028 61.4771 997.109 254 246 236
539.456 85.1759 1302.89 251 255 225
-206.338 103.381 1151.1 255 252 246
601.382 184.788 1412.67 146 164 159
486.305 186.897 1440.65 39 33 22
-123.948 216.073 1221.1 253 248 239
661.869 328.973 1609.66 73 86 105
659.297 360.761 1531.32 251 255 254
-69.6997 312.254 1219.56 253 255 247
-122.369 299.238 1158.97 251 254 232
-253.295 284.666 1074.32 233 232 234
-243.455 350.85 1113.32 253 255 255
-239.639 376.952 1125.37 252 247 233
-230.537 472.178 1201.09 16 19 17
-47.2184 529.762 1276.42 18 26 22
-144.557 -125.853 437.928 145 147 138
-687.526 -323.54 1232.17 141 161 151
-23.8268 -272.554 1058.37 145 115 85
-47.3326 -295.882 1171.02 149 120 93
-121.649 -42.0401 166.895 36 50 44
-77.953 -68.0824 279.42 148 152 146
-209.806 -71.8491 342.188 50 57 47
-426.044 -164.638 775.681 117 127 118
42.0458 24.429 -133.367 117 127 118
-301.079 -168.37 879.822 123 134 127
-271.232 -98.3866 544.533 29 33 30
617.793 -213.261 1270.12 121 141 116
400.76 -145.78 1242.14 130 124 118
564.415 -75.6125 1354.6 196 144 126
421.942 -67.3706 1281.43 252 246 239
461.409 -48.27 1288.27 151 92 71
472.009 -41.6782 1271.52 163 115 101
517.417 -28.7109 1292.82 79 61 58
638.403 -21.5986 1291.77 105 115 98
-156.664 -11.9851 1053.39 188 118 94
-113.964 5.26042 1071.91 255 203 178
394.583 17.7964 1253.78 133 112 106
-282.598 68.2624 1037.17 133 108 113
-255.651 72.7133 1038.05 172 111 110
-289.458 78.9946 997.412 152 82 70
-246.821 81.4801 1035.53 236 239 236
491.396 106.128 1345.98 124 128 100
-244.172 103.452 1043.1 252 250 239
-316.789 104.941 1033 167 140 121
-65.1281 154.432 1082.95 180 165 155
-274.925 207.494 1054.95 244 235 218
11.1741 287.684 1198.68 193 136 114
-233.201 312.853 1053.35 250 253 252
-229.171 374.121 1129.84 113 65 49
-210.564 444.281 1175.15 217 204 191
-136.473 -106.571 349.902 152 152 146
-580.709 -271.48 1033.23 138 158 148
-150.072 -89.285 405.6 147 148 141
-161.224 -61.6113 265.671 60 67 60
615.708 -224.599 1247.56 223 223 207
346.035 -208.968 1313.77 11 9 11
-302.593 -97.4248 620.553 58 28 18
-302.593 -97.4248 620.553 58 28 18
551.565 -76.6481 1287.55 253 253 252
551.565 -76.6481 1287.55 253 253 252
610.924 -69.3926 1324.76 252 253 243
439.43 -31.1661 1261.55 125 105 84
-224.039 -14.2518 1071.29 93 73 62
-123.336 -6.67664 1070.33 77 38 25
449.517 -4.75756 1294.02 123 108 108
522.869 -0.976276 1307.33 108 65 58
550.194 32.1353 1349.19 255 253 242
-270.281 67.4874 1036.69 235 225 227
617.988 84.9491 1336.31 239 239 232
-24.6557 154.782 1154.73 215 156 93
-24.6557 154.782 1154.73 215 156 93
-155.407 198.362 1100.72 255 254 242
578.725 335.806 1453.49 216 243 240
586.11 378.937 1590.1 150 186 193
-228.079 279.857 1092.92 134 88 91
-105.282 437.627 1254.26 255 253 241
-224.369 424.863 1152.11 65 44 37
-148.201 -136.182 422.951 85 86 80
-52.4174 -92.9377 339.445 47 36 26
-81.934 -76.7376 295.739 94 94 91
541.401 -259.012 1265.43 157 185 178
396.9 -104.646 1254.24 43 24 19
-185.673 -27.3448 1077.85 44 35 43
441.551 14.7178 1305.13 240 242 235
552.042 78.794 1328.57 250 252 234
-170.46 66.7759 1093.29 248 242 236
-267.527 87.6248 1066.31 197 217 209
-177.561 209.721 1103.67 251 247 248
-177.561 209.721 1103.67 251 247 248
442.141 310.845 1448.16 57 58 55
-252.553 255.006 1094.32 131 53 38
-223.677 268.42 1122.1 239 234 232
-223.677 268.42 1122.1 239 234 232
-58.7558 367.219 1171 159 142 101
10.4139 -165.031 562.848 80 72 71
-8.30774 -167.018 590.738 74 73 77
-8.30774 -167.018 590.738 74 73 77
-307.926 -109.72 512.322 126 142 137
-233.097 -46.591 359.292 77 70 66
-233.097 -46.591 359.292 77 70 66
499.294 -197.683 1220.69 82 67 65
480.564 -96.0771 1259.16 104 84 65
-196.714 27.0415 1033.77 235 192 162
-216.14 52.438 1052.23 222 139 110
-241.915 56.8886 1053.59 247 240 234
-322.078 77.4995 1055.31 103 63 56
-304.346 100.312 1038.17 241 223 214
-150.008 109.213 1090.27 112 67 52
-150.008 109.213 1090.27 112 67 52
-150.008 109.213 1090.27 112 67 52
-58.024 116.451 1154.22 255 230 213
-141.044 142.485 1104.68 137 73 60
-141.044 142.485 1104.68 137 73 60
-141.044 142.485 1104.68 137 73 60
-141.044 142.485 1104.68 137 73 60
-228.889 154.463 1073.08 221 184 147
-95.739 182.772 1135.47 230 227 212
-198.319 245.879 1086.8 160 100 93
158.961 -166.382 543.818 47 40 32
-139.128 -111.879 374.995 139 147 141
-139.128 -111.879 374.995 139 147 141
426.059 -108.498 1256.8 195 193 194
-119.854 -64.0988 1120.25 47 82 99
664.548 78.4062 1370.54 140 158 122
-127.836 181.404 1116.43 150 122 102
2.21256 -88.8221 261.32 122 124 119
-126.759 -79.0205 384.879 99 75 59
-80.021 -39.4302 1110.01 254 216 176
743.032 11.0662 1512.57 92 120 106
429.473 56.7116 1343.95 46 42 33
-216.758 98.8249 1041.89 194 108 83
-192.004 -74.9535 312.034 81 79 75
-118.914 -62.241 353.567 183 164 142
-118.914 -62.241 353.567 183 164 142
575.503 -225.362 1295.99 91 94 92
417.601 -201.001 1166.24 96 96 89
-231.268 -77.279 513.827 77 60 43
373.095 76.9986 1544.06 63 57 53
443.078 186.741 1639.59 143 134 120
564.387 211.572 1425.4 221 242 242
485.405 311.395 1655.42 81 73 68
-185.643 -56.6511 1116.83 60 82 94
-216.828 -61.1933 412.69 67 52 40
610.95 -21.8941 1414.71 254 249 246
-103.962 287.024 1221.52 194 203 186
