581.843 -277.607 1462.58 202 213 202
478.571 -277.325 1546.58 82 55 47
564.948 -258.231 1498.64 136 139 134
447.063 -219.065 1463.28 199 203 187
447.063 -219.065 1463.28 199 203 187
359.411 -214.823 1506.58 174 180 160
526.535 -205.017 1477.05 99 84 68
635.535 -215.24 1587.37 232 243 221
439.274 -111.533 1478.25 181 157 145
-179.02 -87.6415 1308.87 139 134 120
667.821 -62.3037 1630.52 161 164 152
446.486 -51.9494 1525.1 121 98 95
560.246 -52.4269 1585.05 253 239 231
-271.818 -25.285 1163.48 75 62 41
42.7161 -24.7418 1169.61 255 238 217
34.0505 -4.11826 1175.1 255 255 249
-101.44 38.6581 1016.49 246 245 241
87.0394 56.7943 1209.57 255 241 218
593.031 166.634 1699.1 181 195 197
53.1335 125.577 1152.44 153 127 126
105.831 141.481 1248.19 255 231 207
33.6915 170.406 1185.1 251 244 239
-108.296 161.004 1104.45 66 44 37
4.73531 193.031 1176.95 225 201 196
520.462 282.906 1703.52 175 195 240
586.913 376.944 2224.27 124 141 134
5.80367 285.58 1155.04 73 61 49
-150.146 436.887 1346.1 14 0 0
-150.146 436.887 1346.1 14 0 0
-46.4072 548.096 1210.96 59 80 70
-479.687 -366.994 1071.88 83 90 83
-516.783 -161.68 944.311 60 60 54
604.114 -223.336 1543.62 67 79 72
615.32 -199.801 1571.27 88 81 67
447.943 -173.863 1437.89 138 135 119
483.622 -147.139 1442.82 124 103 96
433.781 -104.431 1497.92 144 123 116
514.833 -105.019 1535.43 135 122 98
-8.57027 -76.5396 1203.06 138 151 155
537.298 10.7498 1613.42 196 182 154
-184.558 30.0772 1080.67 71 33 21
88.0584 40.286 1247.76 255 218 181
99.9287 63.9383 1227.24 208 149 115
-122.511 58.3547 1047.77 90 14 5
94.8671 74.9598 1254.72 255 250 226
115.434 129.14 1268.9 230 163 114
530.447 201.225 1670.1 228 253 255
-92.9774 140.1 1098.74 122 82 67
431.651 232.642 1575.33 80 103 102
476.649 268.447 1801.3 138 159 156
574.754 257.191 1674.41 240 254 254
583.982 258.309 1660.63 118 127 128
-223.069 225.426 1241.36 74 54 41
-69.7266 270.561 1155.01 153 119 122
-69.7266 270.561 1155.01 153 119 122
12.3143 302.277 1233.86 93 95 73
-52.1311 319.102 1152.95 249 251 252
-24.6285 332.67 1201.4 253 249 242
92.3471 362.221 1233.94 59 61 59
-156.503 465.462 1428.18 22 14 12
-156.503 465.462 1428.18 22 14 12
-58.7283 423.798 1224.5 70 36 29
94.0517 497.072 1338.48 55 58 52
-60.5969 562.183 1260.81 65 70 65
-485.674 -329.901 1415.81 141 134 122
-285.277 -337.738 1542.64 134 137 135
-554.211 -187.063 1218.6 146 151 145
494.558 -148.929 1424.56 228 211 196
655.888 -162.285 1615.93 255 255 236
-927.031 -108.022 1585.59 68 59 38
-4.22776 -64.4621 1183.09 67 84 95
523.817 -66.2801 1558.79 252 254 254
475.141 -52.1913 1503.62 217 212 210
475.141 -52.1913 1503.62 217 212 210
-286.434 -38.4568 1270.63 176 169 144
35.0926 -34.6585 1142.66 106 69 45
516.175 -19.0676 1513.45 100 82 75
427.613 33.2994 1567.48 110 81 66
648.993 51.201 1653.34 248 249 224
648.993 51.201 1653.34 248 249 224
-103.285 41.3094 1064.8 254 252 249
591.69 95.617 1610.31 155 137 108
-83.0048 64.1507 1093.27 241 249 236
589.397 135.139 1664.71 252 253 250
-112.337 141.525 1074.13 80 56 39
-96.8988 245.694 1118.21 45 23 13
-66.8629 292.531 1102.21 252 253 254
-73.4609 360.443 1218.44 62 39 26
-426.888 -288.288 1239.9 129 125 112
401.917 -279.606 1593.58 104 52 45
-746.899 -206.854 1478.16 132 141 134
604.872 -164.444 1539.36 141 140 109
433.572 -133.498 1424.37 36 14 4
593.358 -101.636 1522.48 255 255 243
507.675 -53.3581 1410.5 132 100 88
557.816 -10.8792 1679.78 117 106 101
2.89399 101.918 1163.01 238 218 198
473.703 135.435 1511.54 53 34 21
-71.9555 229.796 1126.08 159 77 66
-163.055 387.869 1322.34 77 54 40
-149.877 -291.72 1424.62 59 41 23
-790.392 -223.976 1335.4 132 142 131
471.391 -143.037 1468.31 249 255 255
646.335 -113.316 1595.9 231 237 230
-37.834 22.7637 1115.43 216 118 90
693.87 40.8321 1708.13 156 162 135
-57.6723 27.8706 1100.73 255 249 255
-57.6723 27.8706 1100.73 255 249 255
636.41 72.8248 1657.44 145 139 108
636.41 72.8248 1657.44 145 139 108
13.4484 82.2448 1176.93 141 101 85
-141.559 78.2661 1068.57 162 115 85
10.9268 136.284 1171.16 245 227 204
-12.3004 147.317 1160.83 255 240 233
82.1289 193.867 1255.18 254 253 255
-29.9266 221.824 1149.38 148 98 82
-78.0546 257.473 1152.05 245 242 242
-18.7381 273.723 1168.99 117 89 84
-69.9508 285.404 1141.22 252 254 254
-85.8749 322.351 1192.66 97 72 71
-35.8241 319.767 1162.63 252 251 252
-661.283 -272.752 1133.86 61 62 51
-802.805 -290.542 1279.42 61 64 52
-218.747 -219.21 1075.41 75 76 72
-719.086 -251.072 1287.88 86 88 78
514.354 -129.995 1513.75 100 80 70
514.354 -129.995 1513.75 100 80 70
61.6046 151.701 1216.04 250 254 254
31.8249 151.418 1175.46 151 121 92
118.349 165.649 1241.66 241 229 214
-678.287 -322.023 1064.54 116 133 126
-583.489 -245.069 907.49 44 46 44
-692.914 -283.816 1126.33 124 140 132
115.553 -345.139 1578.28 49 44 36
-41.7399 69.937 1121.05 221 140 114
98.4261 90.1162 1230.17 251 237 215
-98.7317 115.772 1075.71 252 254 255
-12.3816 373.309 1241.35 83 68 58
-12.3816 373.309 1241.35 83 68 58
-181.95 -277.983 1134.08 113 116 108
538.965 -240.608 1447.09 90 89 80
-616.306 -171.763 1066.46 124 137 131
68.7105 -67.7563 1195.77 224 182 148
603.469 -89.1797 1583.39 249 249 243
603.469 -89.1797 1583.39 249 249 243
-261.331 52.1969 1259.85 80 59 45
-15.1434 296.87 1198.95 132 95 78
-298.881 -373.018 1263.6 30 19 16
-302.344 -314.266 1316.34 138 138 131
281.121 -176.889 1494.63 67 55 42
-201 -38.7498 1165.61 152 124 94
363.365 54.9587 1731.02 42 32 24
409.943 375.008 1773.02 204 203 192
-189.184 61.0516 1133.91 93 68 54
-170.124 233.488 1262.64 123 88 71
-37.0734 560.755 1455.76 46 45 42
463.655 18.1854 1821.35 69 71 49
