279.643 -75.9685 900.289 185 209 208
332.782 -35.0747 850.601 239 240 226
-348.534 -4.69322 1073.49 36 15 5
302.842 45.3674 911.358 139 127 118
-475.18 58.5202 958.939 255 243 223
381.229 98.4977 1019.36 239 245 240
107.495 89.7624 931.077 100 85 72
218.897 93.0683 968.862 135 98 59
-482.146 94.6269 946.23 255 246 227
147.036 130.363 971.284 167 153 147
-386.608 158.599 998.645 247 213 192
-285.402 216.413 1220.73 152 125 105
211.203 249.246 1072.89 135 136 92
231.459 278.014 1068.6 186 172 155
255.929 321.391 1063.82 150 177 175
-479.929 352.174 1081.06 241 240 212
-491.827 369.437 1049.34 48 46 42
-278.556 443.633 1021.65 141 179 162
-300.415 474.919 1064.96 170 208 195
-609.925 818.169 1740.93 240 252 245
243.778 -86.468 918.321 55 65 62
243.778 -86.468 918.321 55 65 62
-445.079 -48.7645 1100 50 57 59
-344.838 -12.5852 1048.43 134 112 90
-344.838 -12.5852 1048.43 134 112 90
214.595 -1.31663 897.278 69 50 34
214.595 -1.31663 897.278 69 50 34
340.569 19.2272 927.553 125 135 103
-369.59 26.578 980.522 159 138 109
-476.754 37.466 936.294 80 60 44
-462.689 39.9141 926.82 255 250 227
357.315 45.6741 964.254 217 230 220
357.315 45.6741 964.254 217 230 220
-496.105 45.8962 958.68 198 181 167
189.09 46.7108 932.438 242 236 210
202.081 48.9382 931.054 102 61 46
-449.752 72.9418 872.366 253 214 197
405.02 91.1304 1002.33 140 139 125
233.983 88.5748 942.047 159 95 67
-358.61 94.1521 978.636 242 237 215
129.109 97.4861 982.107 105 63 37
174.193 102.577 989.177 254 252 223
-486.585 147.716 1022.24 187 154 148
-531.598 143.634 968.519 249 242 230
244.94 173.611 1007.09 238 210 205
-332.569 193.389 1011.48 254 237 209
-383.751 230.194 1100.71 242 226 201
-306.991 244.281 1146.64 44 13 1
230.544 231.991 1076.49 249 253 254
147.186 238.262 1025.45 62 62 56
342.75 247.117 1026.14 248 249 222
344.204 261.88 1028.54 250 249 231
-242.08 426.401 1299.02 45 42 29
-353.852 370.265 1094.41 249 254 226
-289.253 396.012 1105.18 254 250 239
213.935 338.06 841.229 208 237 231
261.822 -118.716 985.881 198 192 190
276.131 -99.9704 930.831 60 58 57
158.533 -99.3438 999.834 79 8 0
158.533 -99.3438 999.834 79 8 0
288.366 -48.9838 892.593 226 241 234
-405.271 -35.5048 1086.82 49 80 83
260.05 -13.3515 941.584 69 57 57
322.098 2.85848 907.534 100 111 96
215.116 9.14602 912.245 172 180 162
329.705 8.7092 901.497 250 247 250
336.796 19.8761 941.316 116 130 103
-367.606 22.4471 945.343 109 87 59
261.395 40.296 998.996 170 143 110
-471.126 40.5881 946.58 218 209 188
-328.361 54.2596 1132.28 203 177 159
-458.524 48.0404 932.484 195 146 117
-344.408 65.5844 1013.17 161 151 138
-344.408 65.5844 1013.17 161 151 138
-397.056 82.1655 920.422 134 78 55
230.491 141.232 1034.36 78 52 41
353.501 146.089 1004.75 85 94 91
-498.039 142.287 967.936 197 138 135
202.746 165.041 997.566 98 77 72
202.746 165.041 997.566 98 77 72
181.948 242.734 1042.13 218 218 184
181.948 242.734 1042.13 218 218 184
-373.402 243.46 1027.5 171 125 115
-373.402 243.46 1027.5 171 125 115
250.205 366.274 1170.37 93 118 136
-536.912 422.875 1122.42 123 113 104
274.613 -100.016 926.038 48 41 39
93.04 -90.7818 1012.62 165 155 152
318.275 -20.0636 895.686 108 142 108
-447.717 -5.28214 1017.02 52 101 108
110.758 36.4238 937.231 250 252 252
-420.974 56.659 921.966 105 50 32
209.921 77.6778 962.929 181 178 140
103.21 82.0262 948.244 255 252 250
191.482 92.6542 927.139 131 103 76
174.701 113.61 980.854 149 69 45
163.616 123.648 986.84 255 252 245
-487.69 138.66 945.042 197 133 122
281.982 192.739 1055.89 255 252 243
155.562 241.744 1131.88 89 69 61
-564.008 248.841 1052.73 230 212 194
-572.001 293.845 1083.6 255 254 255
-447.872 274.743 1025.66 255 254 255
-305.995 300.513 1090.87 83 64 53
-281.476 367.797 1133.81 165 156 143
211.37 -111.806 1002.46 212 179 166
84.9217 -69.9516 988.79 57 52 42
165.922 -56.644 911.136 33 27 24
-341.57 -35.0478 1127.94 62 49 38
-620.079 69.6306 977.525 214 201 178
308.902 67.0105 944.111 252 252 225
-579.75 120.716 951.225 253 254 253
-579.75 120.716 951.225 253 254 253
-463.835 157.635 1005.5 139 98 81
138.938 168.801 1042.23 239 235 233
228.546 162.549 1004.31 85 65 57
285.284 210.42 1051.44 176 166 151
-477.055 208.945 1038.78 250 235 215
-480.589 201.068 983.387 240 230 215
-315.821 268.105 1084.24 122 84 72
-558.13 265.638 1046.08 171 128 109
-541.276 308.818 1043.78 253 253 255
279.545 -86.306 906.317 149 199 189
279.545 -86.306 906.317 149 199 189
-1394.39 -143.142 2140.54 132 144 136
-335.703 47.0671 1088.48 70 60 59
-310.613 82.1333 1162.45 121 95 87
-369.194 171.862 998.001 254 250 239
-441.87 179.504 980.013 132 93 77
-279.283 364.027 1330.11 148 145 129
-546.927 408.194 1138.29 250 249 246
-278.95 478.459 1158.51 64 66 62
57.8857 -32.0562 901.563 172 166 149
-1658.53 -48.3216 2232.15 81 79 70
-342.424 26.7804 1062.03 147 142 126
-331.056 34.335 1139.77 73 65 60
188.371 66.8793 970.314 109 77 71
-498.051 136.906 934.108 204 134 109
253.148 199.978 1052.9 254 251 229
-492.061 289.961 1052.26 251 255 249
-371.473 349.561 1083.51 249 253 248
260.106 101.419 959.584 254 250 248
-496.839 120.68 974.722 255 253 248
-415.627 156.515 979.712 234 203 174
-293.761 192.041 1204.73 69 51 46
-280.748 275.709 1276.8 68 57 54
-335.615 254.598 1059.3 252 247 229
-350.512 -30.5345 1113.76 91 74 57
-383.926 35.7727 937.39 242 211 174
362.652 69.536 959.21 227 233 221
-372.679 84.8812 962.138 227 187 145
248.708 151.691 1006.01 120 95 78
345.236 -46.1445 922.59 150 161 118
317.716 383.824 1168.29 200 226 222
-837.664 -359.682 1761.75 26 25 22
313.461 177.989 1004.33 253 255 251
313.461 177.989 1004.33 253 255 251
-395.486 506.59 1190.35 76 78 74
240.466 -156.041 1021.77 79 80 75
-320.488 159.076 1115.14 74 57 45
-347.188 285.743 978.127 255 252 255
