156.046 -157.406 1712.29 86 87 75
-355.653 58.3231 1093.98 186 184 164
-183.951 94.4529 1038.2 188 166 158
-117.083 95.7579 1037.19 119 36 20
167.361 233.356 1903.41 138 124 103
184.431 244.712 1959.75 225 219 203
-132.782 137.621 1051.96 205 158 133
-169.653 144.079 1043.24 44 9 1
-251.792 177.343 1057.52 41 3 0
-263.813 250.68 1247.32 133 61 22
-73.7908 285.772 1168.99 255 246 234
-87.1566 313.131 1113.65 255 254 244
435.851 -291.965 1689.52 65 69 63
131.867 -170.165 1748.43 190 213 210
187.544 -56.6724 1925.19 143 135 113
-45.257 35.9962 1201.87 143 73 39
131.247 55.1897 1908.24 236 217 212
-81.7732 101.331 1103.11 247 254 254
114.982 212.849 1776.45 75 65 59
-132.017 130.151 1060.04 63 12 3
-91.8057 141.326 1095.38 166 149 151
-54.2025 152.802 1156.53 155 114 92
-51.8189 186.616 1252.78 159 121 104
-44.7271 159.336 953.904 144 112 93
-168.43 186.152 1075.76 34 11 5
-46.19 221.697 1266.9 138 103 73
-110.73 226.088 1063.28 54 45 48
-245.142 267.942 1092.36 52 7 2
-241.893 289.74 1094.25 48 2 0
-65.5727 491.444 1218.13 230 234 223
120.702 -133.861 1798.53 139 142 125
-184.497 1.93193 1316.83 133 134 135
-56.2657 146.736 1219.15 204 147 138
-58.0808 298.731 1174.7 253 251 245
-90.8863 302.659 1115.57 164 103 79
-65.6475 391.054 1174.92 105 93 72
-44.8074 463.775 1289.61 163 166 142
-93.5578 412.491 1148.19 252 248 245
-189.313 433.825 1205.05 113 108 85
-94.9593 444.86 1201.01 54 39 28
-70.401 471.728 1198.55 60 35 27
-115.866 162.583 1051.09 99 17 5
-63.4412 180.683 1170.67 243 220 200
-70.8966 297.555 1165.12 155 104 95
-96.4026 331.273 1136.66 249 254 255
-92.269 361.144 1146.11 243 243 241
-264.133 459.15 1171.21 117 70 46
-56.0455 481.291 1222.18 255 251 255
-160.01 484.381 1148.19 29 16 5
-105.439 134.21 1048.63 255 252 247
123.987 250.685 1783.38 48 42 37
-130.057 142.889 1036.68 184 132 105
-215.5 444.658 1101.97 58 34 22
-202.033 0.716378 1240.63 44 80 95
-44.4041 2.53537 1279.44 245 220 198
-208.304 112.938 1056.57 37 28 17
-149.746 154.37 1050.95 156 111 87
-88.0359 19.0055 1114.03 37 40 41
-234.985 45.6858 1068.55 149 128 100
-229.275 241.983 1108.53 155 89 58
-227.875 315.863 1147.81 160 119 106
-227.875 315.863 1147.81 160 119 106
-164.022 47.887 1060.73 155 128 105
222.87 48.316 2219.33 254 254 247
-159.754 239.85 1093.91 63 56 37
-295.915 394.908 1180.87 64 50 43
-6.07171 -234.33 1805.77 179 173 164
-68.2017 94.2341 1198.69 250 230 195
53.6922 153.684 1475.37 76 61 52
53.6922 153.684 1475.37 76 61 52
