537.963 -409.236 1211.26 23 20 16
-148.942 -192.231 1530.32 155 154 156
-44.5027 -180.814 1550.69 38 37 28
-158.06 -146.048 1414.72 52 29 13
-102.459 -127.853 1440.48 108 96 76
-220.111 -68.8467 1545.71 101 109 93
-20.6488 -51.4874 1503.37 208 166 153
67.0572 -34.225 1052.76 21 4 4
-77.6776 -43.9472 1498.46 119 95 88
103.284 -10.8798 969.295 69 71 69
201.742 30.6526 882.668 96 91 82
-42.9561 47.2556 912.041 212 232 226
222.314 83.7698 910.708 31 0 0
78.149 70.5043 776.729 206 213 199
266.927 141.298 942.202 22 4 1
-9.9611 145.636 838.564 15 15 5
189.324 184.818 930.388 43 6 2
152.007 180.012 896.238 110 68 42
152.007 180.012 896.238 110 68 42
122.309 215.651 905.029 149 97 80
81.6771 238.033 900.05 208 205 194
14.1523 261.383 861.797 107 103 101
323.05 411.883 1081.74 92 56 34
129.596 423.539 959.666 149 97 86
74.3952 469.433 975.889 12 11 8
74.3952 469.433 975.889 12 11 8
343.195 -267.676 815.521 135 135 134
-108.215 -146.096 1453.9 50 23 4
-169.938 -140.458 1457.2 181 157 139
-169.938 -140.458 1457.2 181 157 139
141.417 -68.644 1097.6 63 59 45
54.121 -23.2568 1010.27 149 53 34
84.7154 -12.8218 988.695 123 102 86
-2.84763 12.4321 995.251 82 73 75
-50.9623 17.212 1011.51 194 154 122
-50.9623 17.212 1011.51 194 154 122
-2.37416 135.243 830.059 72 79 72
5.07741 148.263 838.939 48 48 55
3.8809 172.488 875.692 180 162 149
140.772 257.907 929.369 168 171 152
140.772 257.907 929.369 168 171 152
186.486 261.492 931.153 10 33 43
87.3433 279.501 900.904 237 231 226
216.975 328.132 1004.32 249 180 180
277.046 356.187 993.205 179 148 124
337.839 376 1034.04 21 6 4
337.839 376 1034.04 21 6 4
248.52 469.222 1056.91 49 64 71
248.52 469.222 1056.91 49 64 71
149.511 483.944 1044.37 206 219 211
83.6846 458.909 951.165 243 237 235
272.501 -462.377 1298.09 76 68 62
-197.261 -120.386 1439.36 183 153 124
-197.261 -120.386 1439.36 183 153 124
-181.759 -92.0624 1444.74 61 44 25
-186.027 -71.3624 1445.83 179 172 157
-186.027 -71.3624 1445.83 179 172 157
92.0597 -14.5819 958.452 186 164 147
47.3736 -0.300003 966.756 226 211 199
43.5211 12.5992 961.221 154 112 91
-65.1676 50.7904 924.655 31 40 38
181.285 49.7234 884.132 129 111 87
4.26066 120.744 842.144 21 32 25
47.3571 139.98 847.482 133 134 133
27.2021 189.493 873.952 30 23 24
27.2021 189.493 873.952 30 23 24
133.096 221.025 908.413 48 21 12
127.759 234.11 915.299 185 182 176
174.196 243.168 929.58 43 71 86
174.196 243.168 929.58 43 71 86
13.5148 283.84 876.448 93 88 76
283.898 344.861 1008.74 106 50 42
216.172 463.869 1031.33 88 127 126
329.086 -382.72 1407.83 170 167 161
-231.043 -162.194 1197.28 71 72 58
-58.3557 -170.024 1470.48 54 42 36
-58.3557 -170.024 1470.48 54 42 36
-202.244 -155.054 1448.86 157 143 130
15.7627 10.0675 985.757 212 198 191
-31.3209 52.4449 913.435 79 105 100
38.6074 127.716 859.077 10 20 20
231.087 208.771 943.324 182 158 138
252.852 233.44 961.969 129 152 143
182.131 511.869 1047.11 54 80 113
290.995 -232.683 684.765 37 32 29
-126.47 -457.569 1829.93 87 87 81
-219.725 -120.186 1435.27 61 49 43
155.343 -42.0577 969.62 86 93 78
-49.1541 -31.4852 1433.75 55 38 35
-106.554 28.711 1019.32 185 171 151
184.679 36.2916 873.612 43 34 28
164.4 55.2292 865.684 42 42 43
230.925 125.407 918.242 48 33 23
96.4197 230.223 905.693 144 145 140
68.4739 253.275 896.784 52 33 29
260.41 318.855 999.416 95 63 65
29.2351 326.092 918.245 41 34 35
-105.553 -162.33 1447.29 54 42 39
65.8297 5.75284 940.259 207 181 163
65.8297 5.75284 940.259 207 181 163
-213.889 36.1731 1433.44 255 249 234
19.255 289.996 912.125 107 94 81
178.769 -149.896 442.596 48 40 36
-129.638 -108.759 1448.66 168 157 142
-25.9739 143.98 833.872 60 52 48
364.421 -339.121 1043.07 131 137 137
-41.5427 -166.379 1424.08 38 37 28
130.023 -58.0338 1067.71 91 105 114
168.713 -1.37838 899.991 117 185 181
273.793 209.984 963.764 48 41 42
143.45 216.977 916.297 63 39 31
49.9008 275.641 898.418 174 138 120
49.9008 275.641 898.418 174 138 120
289.703 320.438 992.439 174 140 121
125.312 390.255 948.391 139 71 46
255.094 154.709 950.841 61 43 45
163.157 165.135 906.074 183 135 106
163.157 165.135 906.074 183 135 106
163.157 165.135 906.074 183 135 106
-6.42812 190.975 863.673 53 47 48
32.9608 -74.8794 1173.06 184 182 161
132.061 0.111488 928.985 109 179 177
204.222 24.2405 874.986 44 35 30
204.222 24.2405 874.986 44 35 30
-35.3211 61.5701 869.255 178 201 195
-24.7945 110.905 846.247 45 39 32
-36.4397 -235.791 1237.3 75 68 57
251.469 82.7086 873.15 159 151 139
271.619 255.884 973.521 98 80 73
-115.366 -42.9807 1143.87 46 35 32
