-426.937 -404.66 1774.54 82 33 22
134.316 -154.898 1184.47 85 79 76
249.256 -102.6 1017.49 172 180 173
378.599 -21.2256 1044.64 175 177 168
306.756 -14.4506 1017.13 169 154 143
387.167 61.9132 1035.06 47 55 34
391.374 116.069 1040.1 50 70 59
-375.434 141.575 954.934 252 212 178
-432.066 139.536 921.222 164 156 154
-373.84 155.336 965.328 250 233 212
255.724 171.259 1060.12 239 219 192
283.436 280.586 1107.76 169 162 144
-325.662 251.116 981.54 255 226 215
-288.817 283.897 1037.78 220 181 147
-426.088 281.144 953.539 139 140 140
464.643 422.92 1292.24 121 134 139
-458.687 325.089 949.554 229 184 169
394.176 429.264 1238.96 135 162 159
389.234 438.795 1232.03 232 253 255
-330.502 408.339 1113.83 253 241 213
-51.4045 150.539 -521.397 113 121 115
140.04 -159.631 1218.01 67 74 71
341.918 -75.6859 956.06 240 251 244
399.322 -77.3466 993.204 137 165 125
181.843 -51.0374 996.27 32 22 27
283.096 -39.019 969.141 83 63 56
265.554 -25.1906 955.473 96 77 71
265.554 -25.1906 955.473 96 77 71
-344.337 3.47636 914.374 139 121 115
-328.897 8.08358 984.588 137 122 110
414.204 16.7369 1044.41 236 249 235
414.204 16.7369 1044.41 236 249 235
351.699 34.1663 1009.06 147 139 110
-341.211 41.7747 1205.11 63 56 48
218.411 58.4461 993.602 227 212 186
407.109 64.5001 1031 243 252 245
258.323 111.38 998.353 97 67 59
-558.965 113.207 939.907 255 251 247
-447.711 133.859 1001.39 207 168 153
-551.557 131.007 926.863 131 137 129
177.701 164.806 1014.58 149 123 108
-351.821 184.508 961.93 110 64 51
474.136 217.271 1109.37 211 213 197
-294.977 203.687 986.933 252 245 229
-299.842 213.01 984.825 207 145 107
-324.996 233.286 996.956 154 120 104
315.112 382.54 1233.85 14 54 81
-394.344 334.677 995.089 242 247 227
310.654 461.162 1361.34 74 104 115
-460.487 362.648 1040.8 221 231 204
-522.088 360.698 1011.55 244 247 247
374.54 461.738 1257.19 213 239 243
395.4 457.79 1232.7 240 254 254
-252.29 409.451 1069.75 255 255 243
455.214 488.891 1290.13 158 175 174
-481.086 378.616 971.206 114 99 83
-526.442 631.108 1309.87 224 229 219
299.55 -143.741 1071.23 222 212 202
234.436 -111.085 974.295 100 56 49
-345.237 -26.1212 1135.48 73 65 50
404.762 -20.8369 1019.83 240 248 241
273.076 -13.7465 989.041 187 182 166
-318.256 22.8617 967.333 80 62 50
404.715 27.2059 1040.25 150 164 133
186.88 28.8871 994.272 252 251 248
255.288 53.2189 998.979 213 206 174
174.845 60.9066 962.989 166 165 134
253.642 78.9353 1024.27 147 117 91
224.284 83.5744 1031.32 252 249 224
280.385 84.101 979.28 255 247 235
-447.387 105.762 899.756 254 235 222
-447.387 105.762 899.756 254 235 222
269.317 128.05 1049.19 255 236 229
-334.886 117.249 919.528 250 253 238
-584.036 119.531 923.205 90 81 72
256.063 152.943 1029.31 254 248 239
315.123 164.594 1058.51 255 251 246
-307.06 158.37 973.251 254 249 236
-318.143 176.143 887.349 255 246 235
-329.209 251.301 967.572 113 87 58
-329.209 251.301 967.572 113 87 58
-430.152 277.057 978.933 254 246 240
-264.58 305.531 1031.49 114 89 78
289.131 366.431 1242.69 71 94 126
-530.653 299.49 973.295 255 255 252
-477.041 306.439 976.454 253 254 254
-515.57 308.982 957.918 237 246 246
-291.853 -274.288 1191.12 92 43 33
431.188 37.002 1079.96 251 255 239
-463.646 105.68 905.943 201 121 100
209.812 238.456 1087.5 147 150 126
322.682 378.26 1342.37 208 226 213
-485.747 292.964 966.145 254 255 254
-323.622 286.783 874.5 248 255 249
-336.847 444.527 1082.04 250 248 243
-531.225 472.545 1111.11 126 123 112
26.1892 -309.683 955.488 120 118 112
238.014 -128.169 1042.66 213 182 175
313.732 -3.02988 970.362 113 92 80
-309.871 100.087 1152.11 116 92 81
-553.501 79.9472 853.849 200 193 168
276.343 144.48 1050.69 106 80 75
177.846 148.043 1037.21 253 254 254
480.054 178.433 1144.6 114 108 97
340.405 193.555 1124.41 192 193 179
340.405 193.555 1124.41 192 193 179
-279.6 265.337 1159.44 184 155 142
-279.6 265.337 1159.44 184 155 142
-520.798 282.647 968.582 142 102 78
-421.387 296.775 993.15 249 251 244
-519.251 304.794 987.357 254 251 253
-464.624 333.52 992.17 118 95 81
-518.526 337.301 994.437 254 253 255
-518.526 337.301 994.437 254 253 255
-454.472 479.339 1120.65 255 252 244
384.172 -117.43 965.475 69 108 136
-370.492 12.3026 931.267 51 93 103
309.756 72.4373 1006.62 253 251 250
-430.194 171.375 963.785 164 131 115
-418.57 198.72 963.567 115 82 68
316.324 228.412 1094.46 240 245 222
423.235 289.527 1207.15 116 107 97
-502.117 266.58 967.688 234 218 200
-502.117 266.58 967.688 234 218 200
-253.121 364.626 1233.91 147 147 133
279.946 -56.7136 998.844 95 73 75
237.726 46.8978 1021.93 117 85 77
-395.629 230.669 947.962 155 131 124
-395.629 230.669 947.962 155 131 124
413.655 319.578 1205.62 188 215 219
-255.077 367.86 1249.22 150 139 129
181.299 87.3492 994.045 195 141 118
-465.118 134.601 932.932 254 250 247
374.803 276.072 1147.47 126 114 107
-289.331 258.581 999.573 254 252 239
-254.389 -287.964 1292.17 94 72 53
-344.866 39.1141 904.285 207 178 139
-328.782 88.9985 906.222 216 181 144
293.851 130.144 1042.82 142 119 111
387.971 -78.8946 971.834 137 169 129
-268.672 299.61 1128.49 103 83 76
310.246 -181.175 1249.57 81 113 107
361.48 374.394 1239.16 208 232 229
170.358 -37.6921 893.174 153 128 120
-359.102 349.029 1070.82 250 249 253
