-727.264 -162.558 1314.62 39 41 37
399.636 -212.287 1789.98 114 115 101
199.835 -205.224 1848.68 197 220 216
-446.728 -172.493 1607.44 73 55 32
267.676 -194.579 1906.33 219 196 185
225.785 -92.9833 1964.98 64 75 41
354.72 -72.5986 1717.92 231 205 185
77.8843 -24.5926 1225.82 31 22 8
-207.049 -2.40756 1235.36 88 63 45
-207.049 -2.40756 1235.36 88 63 45
185.08 58.4827 1666.66 148 136 108
27.2223 55.9851 1202.26 224 190 172
307.836 185.188 1713.22 89 80 72
54.9916 228.349 1262.24 255 251 248
70.2143 235.13 1227 254 244 216
-52.4245 221.768 1111.31 213 174 150
312.743 450.691 1953.82 159 188 183
-89.7645 263.46 1089.84 49 18 2
-28.5629 318.57 1123.73 253 252 251
37.4715 365.395 1243.52 229 230 215
-160.081 393.82 1267.14 177 111 85
-98.9221 374.441 1161.8 43 17 12
-98.9221 374.441 1161.8 43 17 12
-56.6639 369.412 1145.15 166 121 99
-3.66857 479.2 1165.51 91 94 91
70.4339 575.022 1365.66 58 56 48
62.5068 586.945 1346.51 39 37 29
651.746 -208.527 1009.19 86 84 86
635.31 -274.786 1408.31 96 93 91
-605.205 -164.063 1038.24 130 142 135
-974.12 -179.569 1526.45 58 58 49
315.333 -59.3833 1728.23 59 36 33
311.515 -44.3064 1658.31 251 245 239
-75.1757 -20.403 1333.83 151 146 144
-75.1757 -20.403 1333.83 151 146 144
-26.6354 32.7774 963.085 242 225 200
288.482 71.3448 1673.03 189 176 165
288.482 71.3448 1673.03 189 176 165
-41.0631 87.6552 1068.4 254 252 244
376.657 207.188 1825.94 143 124 98
-102.627 162.973 1078.43 59 20 10
58.3469 215.165 1302.78 254 252 237
-49.7402 211.302 1102.18 95 67 57
-172.747 243.884 1130.76 59 20 5
-23.9994 391.916 1129.47 29 15 11
-729.406 -210.271 1031.92 78 81 76
376.612 22.828 1789.9 164 140 133
290.437 136.401 1971.21 145 109 79
414.617 162.178 1848.39 169 165 135
414.617 162.178 1848.39 169 165 135
-19.9941 104.143 1103.86 251 254 255
264.775 277.29 1804.32 113 135 139
-108.605 185.328 1189.72 55 24 12
-70.8064 196.402 1089.31 202 167 153
216.053 352.34 1781.83 138 156 154
332.684 372.106 1881.6 243 255 247
320.202 426.855 1839.05 171 194 191
12.3396 336.383 1194.62 119 102 93
-9.05521 352.07 1187.3 227 150 123
-22.3185 356.783 1132 250 253 254
-23.7599 386.693 1149.7 250 253 251
8.16943 452.302 1216.69 89 78 63
8.16943 452.302 1216.69 89 78 63
-10.3721 468.762 1153.5 255 246 235
562.882 -208.035 1051.35 122 120 118
-10.2101 77.8619 1133.16 246 255 255
335.98 274.249 1904.35 233 244 241
75.8583 257.297 1315.04 254 252 243
235.876 450.629 1930 74 84 81
5.51598 279.316 1178.99 169 119 97
5.51598 279.316 1178.99 169 119 97
-7.0717 293.149 1155.82 253 252 253
-99.7257 324.541 1119.53 139 127 122
-22.5019 333.205 1129.37 252 253 255
1.04217 386.156 1191.6 252 249 250
-885.532 310.498 -1324.25 152 155 145
264.718 -121.068 1533.94 35 25 20
-52.206 51.3542 1053.46 201 191 172
13.9149 112.643 1161.49 255 248 255
317.29 224.242 1727.98 67 51 41
19.1317 160.835 1185.92 251 240 226
66.6828 213.981 1292.02 255 252 255
348.559 310.688 1825.3 249 252 250
-17.0449 221.999 1131.36 250 217 185
-27.5594 307.963 1138.09 254 252 250
-38.1454 354.222 1087.71 83 47 49
11.6619 412.423 1220.59 103 86 95
64.8109 484.366 1315.25 83 77 80
265.707 -192.676 1921.67 198 173 161
374.272 -5.48283 1712.85 224 221 221
-12.759 440.151 1196.41 250 253 251
358.498 -162.054 1703.03 164 157 148
-98 -22.4678 1271.63 60 99 111
-98 -22.4678 1271.63 60 99 111
-88.3932 134.929 1083.03 181 130 103
-88.3932 134.929 1083.03 181 130 103
-41.7238 166.456 1081.93 251 255 253
-13.3898 377.562 1152.69 255 251 255
-524.714 -142.56 988.036 111 115 109
-168.922 27.7657 1191.07 167 143 116
-157.242 219.772 1146.34 167 101 66
-38.7644 -286.653 1758.41 181 174 163
-10.3421 -3.49939 1158.53 48 97 110
407.373 106.252 1884.72 208 208 190
-66.8662 313.347 1130.18 101 51 43
111.35 -100.41 1808.67 72 59 44
-127.436 353.427 1158.37 156 94 62
264.587 -97.0285 1658.66 68 54 50
-92.3839 86.674 1044.5 59 37 29
-246.5 125.787 1182.01 72 48 32
367.714 19.0857 1681.32 255 255 247
15.1589 87.5445 1196.68 253 255 255
