-403.919 -61.4026 680.47 143 156 148
262.224 9.46866 1558.28 232 213 202
-119.203 137.048 1054.26 110 23 13
-259.454 153.069 1169.82 49 12 6
348.285 255.268 1837.79 144 134 112
-112.954 162.751 1086.65 251 251 248
-1.22428 265.186 1284.08 238 236 225
-92.1497 234.289 1131.04 253 235 208
-236.677 286.242 1193.33 51 11 0
5.7361 361.988 1307.99 255 254 248
-236.316 372.29 1267.98 74 29 12
12.6935 412.709 1339.64 251 255 235
-286.223 513.62 1341.19 81 53 30
-16.0343 503.194 1244.07 34 48 56
-28.3614 492.798 1201.05 27 36 36
-183.77 487.524 1172.14 210 206 200
1.68846 677.836 1402.42 204 228 215
-539.709 -162.337 980.696 7 3 2
227.068 -153.291 1823.41 219 197 195
352.62 -82.9527 1797.91 188 178 159
287.057 -25.518 1754.77 31 12 1
279.428 48.5265 1675.13 94 80 65
354.994 55.7243 1789.46 132 112 105
-92.0069 110.883 1106.91 243 236 223
-5.20899 224.18 1276.89 255 254 232
-11.1885 232.106 1261.28 116 88 84
-110.735 238.347 1085.65 74 53 41
331.801 500.396 1991.1 169 192 191
-68.4605 294.476 1136.2 255 251 246
-165.013 370.914 1228.72 61 36 32
-173.727 378.546 1232.38 154 133 113
29.3515 482.027 1387.64 255 255 248
-69.0416 514.62 1189.84 236 229 219
12.7568 625.42 1360.57 59 58 56
294.894 -165.889 1808.87 170 186 180
157.938 -143.908 1696.04 141 121 118
-1338.69 -110.88 2247.8 122 103 85
283.893 -13.8704 1670.09 254 254 243
-149.778 24.8485 1657.29 72 110 126
308.902 97.3947 1757.89 254 253 251
333.709 106.425 1798.27 134 112 100
351.895 114.591 1796.68 253 247 228
-96.7275 74.9485 1117.05 244 226 205
28.8594 178.175 1375.2 255 252 242
362.738 251.776 1879.91 144 129 108
231.46 337.904 1879.55 167 195 189
-168.099 212.851 1143.82 51 27 12
-135.724 235.004 1133.51 211 187 174
322.263 417.13 1927.01 247 255 254
350.512 477.403 1964.8 245 255 254
-243.436 291.366 1178.69 142 97 73
-243.436 291.366 1178.69 142 97 73
-84.095 415.284 1147.85 254 247 248
-192.158 409.719 1101.97 60 35 27
-81.9267 431.427 1156.77 77 48 29
23.35 532.602 1398 81 82 77
-243.481 542.67 1335.85 24 16 8
-39.2928 493.089 1213.34 254 248 241
695.865 -232.541 1209.46 123 124 112
188.074 -108.132 1716.23 17 21 18
-249.879 24.5252 1285.8 90 83 83
-249.879 24.5252 1285.8 90 83 83
-76.4011 167.274 1165.14 248 251 251
-76.4011 167.274 1165.14 248 251 251
-25.5805 267.885 1247.64 254 252 247
-36.5848 327.528 1240.47 253 254 251
-84.7638 317.598 1142.46 167 75 58
-66.2336 327.996 1178.15 251 250 240
-58.454 426.881 1222.83 254 253 255
-77.8134 483.811 1143.49 22 16 15
1261.6 -451.189 1979.63 178 176 174
162.02 -118.442 1692.4 167 166 160
-33.7915 8.47005 1283.67 88 119 130
183.556 104.3 1773.45 116 120 104
-118.609 83.9723 1074.21 216 203 183
186.159 176.984 1804.88 131 131 105
-206.241 122.636 1102.72 51 32 26
-45.6636 146.347 1192.8 253 251 253
23.7521 305.153 1380.85 251 250 251
23.7521 305.153 1380.85 251 250 251
-54.0157 310.803 1183.14 170 116 114
31.2257 398.243 1387.06 255 254 254
-102.584 416.892 1191.61 57 31 30
-45.9794 437.967 1208.29 97 83 85
-706.118 -101.971 1268.31 57 65 63
41.4302 198.011 1479.14 234 222 206
334.423 343.703 1826.76 246 255 254
-154.731 222.788 1100.89 64 49 30
-106.055 318.107 1136.4 164 167 163
-195.94 375.806 1162.96 144 96 72
-71.386 464.562 1179.84 254 251 254
348.691 -135.757 1772.17 101 92 84
-340.924 88.5536 1221.34 110 87 65
-237.079 174.703 1199.8 155 103 66
-237.079 174.703 1199.8 155 103 66
-105.762 200.626 1114.42 255 253 255
-152.008 11.2338 1266.81 48 99 110
-235.739 60.9965 1199.65 165 143 115
390.625 143.14 1913.45 210 208 185
-112.829 469.385 1197.59 37 31 27
90.8169 154.907 1497.65 114 106 94
-11.2749 574.969 1316.4 90 91 93
236.165 -65.7533 1676.72 56 44 41
99.2362 -58.3493 2045.42 73 60 47
-157.223 119.549 1073.51 63 36 32
288.056 221.189 1861.37 60 50 46
358.645 53.5544 1743.17 252 253 253
-335.399 10.2847 1420.44 140 132 112
93.0574 82.5031 952.817 73 89 54
