-112.52 -337.199 954.619 26 39 35
33.8045 -400.558 1150.05 145 150 145
-123.277 -225.192 665.487 63 75 70
-205.36 -290.609 882.666 86 90 85
-100.8 -694.261 2578.78 175 157 131
628.949 -190.165 991.689 180 194 181
523.007 -165.21 993.215 32 30 32
382.682 -87.585 1076.41 59 37 31
-281.401 -36.9804 1001.72 78 59 43
-259.444 -36.6107 995.878 97 91 86
-249.414 -27.5178 966.014 25 12 7
-270.989 -23.2046 981.153 46 28 20
533.138 -17.6646 1142.55 233 216 203
528.058 -8.95677 1069.73 144 125 124
404.759 -2.43092 1091.74 234 225 222
404.759 -2.43092 1091.74 234 225 222
470.141 17.3788 1097.18 93 51 56
-221.882 31.7425 981.996 208 165 149
-271.694 39.7713 954.978 186 103 79
419.368 80.0682 1104.56 158 154 141
618.39 79.9598 1091.97 197 201 180
-287.886 75.8221 1034.89 255 245 237
-136.564 100.918 1042.91 255 229 213
454.055 115.138 1158.94 72 66 65
-325.744 104.845 982.964 248 255 254
593.792 173.068 1147.07 127 147 141
-198.703 162.954 1067.35 143 109 92
612.633 182.681 1160.41 214 246 240
-84.5967 197.102 1078.36 192 148 130
662.85 276.19 1253.57 206 230 226
-136.341 269.926 1139.88 252 247 248
-81.8702 293.451 1121.35 67 28 25
-92.209 309.633 1175.05 244 254 234
487.895 323.811 1204.9 101 114 110
-284.42 332.769 1084.41 43 32 13
-78.7149 493.94 1236.78 19 28 24
-205.467 -357.712 1075.65 56 68 61
-107.011 -600.769 2034.58 56 48 33
-103.69 -348.058 1202.55 55 46 40
651.345 -120.821 1074.65 210 231 214
600.666 -99.603 1064.6 127 124 103
381.216 -94.5308 1037.47 89 70 58
-335.083 -49.4256 1057.93 78 66 55
381.053 -48.6608 1038.9 254 249 250
381.053 -48.6608 1038.9 254 249 250
627.35 -50.9509 1112.1 248 248 222
434.059 -45.9607 1029.44 83 66 45
481.506 -41.931 1078.75 250 219 193
631.04 -37.1748 1082.47 165 174 169
487.565 -20.0502 1078.36 120 97 86
-179.798 -1.58861 950.301 254 235 206
-292.385 10.7757 958.001 144 71 49
391.532 14.1753 1064.57 60 34 31
391.532 14.1753 1064.57 60 34 31
-91.1652 18.3314 804.431 234 205 175
405.25 29.9979 1127.61 122 114 106
-240.495 33.6719 977.287 60 20 16
-240.495 33.6719 977.287 60 20 16
-251.753 34.0673 974.905 254 229 214
513.799 48.6318 1082.32 251 245 230
-169.156 44.7792 1062.64 67 15 4
-213.908 48.2713 987.883 198 133 115
-213.908 48.2713 987.883 198 133 115
-346.559 50.1159 963.029 127 108 110
-346.559 50.1159 963.029 127 108 110
-219.848 55.694 983.479 255 251 243
-193.737 60.3875 937.254 207 168 159
-157.912 71.2095 1056.94 66 23 12
-157.912 71.2095 1056.94 66 23 12
-118.803 75.9904 1010.12 253 240 210
-302.499 82.5386 992.896 184 95 91
463.115 140.54 1413.09 146 143 129
-134.132 120.916 1026.57 50 18 9
-134.132 120.916 1026.57 50 18 9
-317.822 234.824 1027.49 247 253 247
-296.186 290.013 1054.36 253 253 254
-84.6366 305.376 1108.79 242 254 236
-19.7525 321.327 1107.56 241 238 217
-102.894 -703.444 2602.17 175 157 131
486.603 -149.595 987.185 71 60 53
467.97 -151.495 1032.04 145 131 118
620.681 -134.118 1023.23 226 249 237
401.613 -105.276 1047.92 255 252 248
641.602 -100.449 1048.91 247 254 241
634.295 -86.1186 1025.3 162 185 156
531.368 -78.3422 1052.55 135 100 83
422.13 -56.6681 1065.97 149 154 124
546.25 -41.1193 1086.05 251 241 222
502.461 -18.0226 1082.51 223 203 190
577.494 -15.2794 1098.65 249 242 239
465.3 -10.7914 1062.36 189 192 196
465.3 -10.7914 1062.36 189 192 196
512.35 -9.79403 1083.38 68 48 48
-308.46 -6.08951 975.886 216 196 169
-160.712 9.15653 911.761 94 34 18
-160.712 9.15653 911.761 94 34 18
-254.505 17.0153 972.636 250 193 167
-111.925 24.6634 990.577 142 81 54
-111.925 24.6634 990.577 142 81 54
575.331 38.8377 1135.24 255 252 245
-145.71 36.1933 1007.48 162 82 65
410.718 37.9221 1043.01 51 51 56
-189.508 47.974 990.281 197 132 120
-189.508 47.974 990.281 197 132 120
-189.508 47.974 990.281 197 132 120
-139.92 53.5021 1011.02 183 103 65
-139.92 53.5021 1011.02 183 103 65
527.323 62.8322 1126.78 158 138 102
534.082 90.233 1146.25 131 133 123
424.079 86.9397 1090.84 60 54 49
-145.615 97.4654 1045.4 64 17 11
-77.4714 144.269 1042.5 198 120 76
-77.4714 144.269 1042.5 198 120 76
-190.367 167.23 1007.64 89 62 52
-241.975 403.509 1134.58 55 53 49
-378.916 -384.64 1282.91 74 74 63
-378.916 -384.64 1282.91 74 74 63
404.052 -132.68 1012.48 104 103 90
639.599 -99.7001 1045.47 247 254 241
380.093 -60.9381 1065.2 77 54 52
529.924 -53.1798 1060.34 197 120 103
529.924 -53.1798 1060.34 197 120 103
632.045 -47.1749 1102.51 254 255 249
-243.225 -39.8571 972.164 25 12 20
458.162 -25.6261 1062.17 119 66 50
454.129 68.423 1118.74 138 142 110
633.77 82.0805 1154.78 253 253 248
633.77 82.0805 1154.78 253 253 248
-358.997 132.804 1016 255 254 255
-358.997 132.804 1016 255 254 255
539.728 175.086 1129.02 230 254 244
609.9 195.394 1198.09 205 232 233
611.727 303.746 1227.59 49 76 123
-141.151 321.977 1109.56 138 161 112
-252.462 427.099 1198.71 65 63 59
-252.462 427.099 1198.71 65 63 59
-252.462 427.099 1198.71 65 63 59
-14.0677 523.309 1277.37 108 147 137
-328.369 -364.376 1124.14 135 147 140
593.838 -87.829 1041.83 250 251 235
666.368 -60.4025 1072.09 109 141 116
571.631 -57.1607 1097.85 252 251 254
665.608 3.8232 1066.6 98 110 94
521.724 19.6963 1102.78 81 64 52
738.601 36.942 1179.99 64 65 59
557.918 55.2131 1092.95 179 183 175
-234.631 52.5739 988.711 249 234 232
-215.552 172.852 1004.11 251 251 238
-312.143 220.42 1037.82 152 70 60
-206.757 228.041 1071.07 244 251 241
-305.25 274.024 1063.18 247 243 250
-305.25 274.024 1063.18 247 243 250
585.946 -71.456 1065.95 146 138 108
585.946 -71.456 1065.95 146 138 108
-313.984 41.3247 985.582 247 237 227
656.819 138.459 1180.68 109 105 89
-203.498 122.478 1008.47 108 61 48
-203.498 122.478 1008.47 108 61 48
-156.505 161.456 1027.1 247 247 234
-264.834 196.53 1038.68 230 223 206
-259.821 217.079 1029.14 163 125 107
-265.373 299.665 1049.41 245 244 241
-133.981 -216.474 720.155 68 64 51
-66.5653 -253.81 926.666 149 126 98
380.134 -96.5774 1089.63 64 51 49
470.081 -77.7753 1048.87 107 85 79
-173.487 -73.2771 1008.71 53 83 102
-202.394 63.3866 984.089 207 168 159
-188.131 160.028 1018.46 132 102 87
537.902 246.061 1342.45 125 155 150
641.667 -94.0214 1045.05 207 222 203
-116.717 -24.5286 1101.8 171 155 135
-135.134 8.81454 1015.44 197 162 115
424.362 63.2585 1160.06 53 40 42
-285.818 85.4648 992.114 204 118 98
-72.7031 186.818 1103.51 249 230 208
-237.16 239.655 1060.34 255 252 244
-201.776 318.777 1098.73 152 176 127
-241.839 360.017 1139.44 58 50 48
-252.64 -414.89 1596.8 86 63 42
543.368 3.92217 1101.66 132 114 111
553.217 -191.029 995.098 63 60 62
-706.215 -142.679 1043.42 125 142 135
-809.622 -208.389 1321.72 19 18 17
584.437 29.5696 1067.24 253 254 251
584.437 29.5696 1067.24 253 254 251
610.93 234.832 1260.16 189 219 215
574.56 -353.824 1330.93 108 148 142
-222.892 30.2169 981.298 206 195 173
-262.221 -314.813 1222.82 65 32 21
375.2 -160.831 1129.76 58 53 50
-135.41 262.185 1105.01 253 253 251
524.335 156.322 1398.3 68 57 47
