-370.622 -358.173 1155.23 108 104 100
-441.826 -420.211 1651.4 173 166 157
591.439 -305.326 1604.48 185 218 230
194.198 119.28 -820.276 159 137 110
606.49 -240.605 1732.3 110 98 82
525.467 -196.318 1499.83 212 204 187
324.33 -164.067 1431.75 69 70 48
478.767 -146.843 1495.33 255 251 250
593.278 -150.884 1567.99 251 252 227
498.823 -120.834 1449.59 205 189 158
486.532 -102.367 1500.08 130 125 98
534.78 -78.5872 1554.84 249 236 232
-0.992846 -32.7482 1125.93 255 250 235
449.872 -41.2991 1524.38 125 111 111
-2.37739 8.91441 1149.83 255 244 233
676.416 41.5871 1733.95 141 145 113
508.376 63.9411 1551.89 151 139 116
82.7105 54.3115 1232.89 255 248 220
473.189 98.0236 1589.25 93 86 82
509.46 130.016 1624.56 158 149 132
95.3972 123.48 1252.32 255 243 221
443.128 208.337 1749.26 28 42 47
-111.852 154.874 1089.57 65 47 38
447.739 280.212 1815.85 58 63 59
501.518 278.052 1703.96 189 218 239
7.72894 278.301 1168.57 66 73 49
-104.093 353.655 1064.72 176 177 162
-31.0295 402.978 1170.97 11 15 17
-40.0105 411.97 1177.7 7 8 11
-531.118 -376.738 1100.45 70 80 73
-821.582 -425.964 1310.49 134 144 136
-340.641 -217.395 910.46 138 134 124
-340.641 -217.395 910.46 138 134 124
-624.123 -183.707 1120.21 68 72 67
448.9 -151.692 1446.78 255 247 253
594.078 -135.821 1599.62 176 173 136
623.387 -84.2401 1603.14 191 200 190
478.628 -54.5097 1554.6 238 233 236
-286.394 -29.1697 1202.97 82 68 49
486.38 12.427 1522.55 191 188 160
80.8949 36.7583 1244 255 234 219
-99.0477 139.996 1126.26 127 86 75
485.925 265.038 1830.38 95 121 117
602.659 271.097 1764.18 151 162 162
-118.488 171.92 1094.88 186 143 120
-43.0948 214.391 1144.35 110 71 64
141.652 265.461 1361.99 207 148 129
50.3951 253.362 1237.64 253 252 249
-49.4246 344.046 1145.97 255 251 238
-171.469 478.453 1483.32 18 12 6
-1.81825 393.188 1182.04 17 24 25
-72.6756 600.743 1400.55 118 129 122
-70.4915 554.056 1240.44 57 64 58
547.522 -284.769 1509.38 163 204 208
-487.639 -287.197 1726.67 132 99 71
-734.229 -241.819 1573.85 135 147 140
423.111 -170.886 1399.47 133 130 114
433.243 -137.882 1463.88 40 20 15
619.305 -108.237 1625.77 251 255 247
460.138 -66.7236 1467.59 137 118 94
504.2 -67.9178 1546.09 251 237 237
30.3624 -38.013 1154.87 124 74 56
-78.7021 -16.0633 1110.19 254 232 205
463.413 28.0006 1755.04 119 98 77
88.8906 28.7442 1249.28 192 123 95
-192.485 28.2693 1104.17 52 33 18
-106.2 38.4004 1061.9 244 248 244
559.019 89.8558 1567.65 159 141 114
534.036 115.133 1594.37 121 107 93
565.732 131.86 1652.97 253 255 249
471.218 134.812 1544.6 40 25 16
-93.1107 168.243 1025.82 254 254 238
12.8228 240.802 1198.56 212 183 183
-102.272 244.852 1135.12 74 50 48
-73.0932 292.422 1120.2 253 254 255
-73.0703 311.545 1109.41 250 253 253
-49.8368 391.791 1126.03 233 230 211
511.773 -577.207 1925.66 179 173 160
375.148 -234.791 1540.72 14 10 6
447.352 -125.778 1464.08 247 243 241
481.584 -127.779 1497.26 113 99 97
29.7049 -99.2334 1393.04 63 78 79
-293.029 -42.3452 1276.46 166 158 136
-9.40227 -11.6677 1146.32 249 220 207
609.239 67.9798 1631.77 147 127 107
609.239 67.9798 1631.77 147 127 107
457.684 130.598 1503.99 40 25 16
-121.348 91.937 1061.59 109 42 31
-105.703 125.839 1068.51 251 253 253
-105.703 125.839 1068.51 251 253 253
-74.8854 197.183 1107.08 226 189 165
480.914 345.469 1894.01 84 88 83
-179.765 406.782 1401.12 83 54 40
-27.5439 375.35 1183.42 82 69 75
-27.5439 375.35 1183.42 82 69 75
-746.261 -257.116 1179.87 138 149 142
-136.677 -223.186 1085.6 52 31 17
-906.369 -252.258 1487.61 138 145 137
-595.166 -159.27 1121.53 127 134 128
571.949 -66.0222 1624.87 143 114 100
380.894 -30.5484 1610.67 107 104 80
-41.7815 19.019 1091.12 217 128 105
658.287 37.1436 1670.78 157 162 131
-62.175 24.6377 1099.9 253 255 248
-62.175 24.6377 1099.9 253 255 248
-145.199 75.0628 1063.42 162 117 92
-145.199 75.0628 1063.42 162 117 92
-86.0944 90.4072 1095.97 246 250 253
-86.0944 90.4072 1095.97 246 250 253
-2.37919 98.4724 1170.4 245 235 216
-18.0427 142.163 1149.76 254 233 222
-182.688 222.869 1242.23 137 98 83
-182.688 222.869 1242.23 137 98 83
-35.6029 217.777 1151.12 152 99 90
-35.6029 217.777 1151.12 152 99 90
-76.5234 224.03 1123.35 166 76 61
-24.3945 268.705 1172.39 117 87 78
-24.3945 268.705 1172.39 117 87 78
-75.2318 279.343 1137.14 255 251 253
-90.3301 312.07 1169.98 95 70 66
-41.666 316.871 1168.82 253 251 253
-791.991 -319.802 1324.31 70 71 66
-395.964 -321.503 1656.66 71 74 73
584.208 -263.309 1498.56 152 179 152
-268.148 -16.1493 1159.32 98 71 60
371.811 96.3326 1690.72 41 33 33
-53.4132 121.429 1122.09 255 204 181
53.884 146.275 1205.26 253 254 255
26.1333 148.675 1188.32 150 119 109
109.351 162.24 1240.61 250 254 242
-38.8868 193.077 1145.89 253 250 228
-779.809 -364.242 1190.94 119 133 124
-755.74 -312.681 1150.67 30 37 32
103.476 -369.309 1693.54 50 41 29
-908.146 -264.475 1454.22 80 89 79
-602.023 -186.064 1214.7 125 140 133
361.491 -95.3362 1527.87 91 87 64
361.491 -95.3362 1527.87 91 87 64
96.3424 90.3027 1279.63 240 220 201
-102.689 111.743 1073.14 255 255 254
-18.8836 363.534 1225.58 95 75 68
-866.875 -237.079 1472.06 127 141 133
62.5496 -71.0898 1193.27 218 187 154
599.276 -93.2244 1615.19 254 252 251
599.276 -93.2244 1615.19 254 252 251
535.976 165.471 1627.38 240 255 251
-21.3054 289.766 1190.33 133 101 90
-21.3054 289.766 1190.33 133 101 90
-59.3677 321.026 1181.1 248 252 251
401.779 -55.8733 1492.53 59 46 43
7.25973 -20.1367 1179.9 255 230 212
-151.324 40.6062 1087.12 63 40 32
438.048 294.626 1841.79 80 66 62
-340.622 -335.395 1403.2 136 135 132
287.463 -188.882 1588.24 75 64 55
336.706 50.7697 1685.15 33 30 24
543.432 -63.3454 1511.65 212 212 200
-164.354 205.499 1147.61 151 115 100
-51.8135 596.926 1567.65 52 51 48
447.731 11.5563 1832.34 68 78 50
