-270.459 -463.148 1359.43 24 35 28
-236.39 -417.075 1221.24 40 51 42
-336.772 -432.583 1325.5 40 54 45
-457.685 -536.029 1657.79 45 62 53
-457.685 -536.029 1657.79 45 62 53
-500.803 -568.322 1783.98 138 150 143
-387.425 -398.071 1385.96 161 163 158
-161.659 -680.832 2506.43 86 77 55
-486.419 -526.925 2052.38 53 39 24
-384.907 -437.736 1727.21 222 221 217
-415.253 -627.314 2553.33 177 163 135
373.501 -247.255 1203.25 231 204 206
-500.089 -226.756 1134.35 65 68 56
410.524 -163.814 1056.47 103 91 90
384.229 -150.922 1056.43 118 114 104
534.433 -144.295 1102.53 135 134 135
445.545 -132.242 1076.4 142 143 129
623.469 -113.923 1113.33 237 254 240
381.696 -93.2316 1087.22 67 49 42
567.626 -87.6822 1151.16 224 221 184
489.033 -66.1784 1126.39 103 99 70
643.887 -57.3979 1150.27 85 125 99
441.242 -49.6282 1146.91 84 87 71
375.771 -33.3994 1131.79 163 128 107
-172.074 22.675 966.533 255 240 228
482.851 24.3957 1144.36 70 43 38
-208.025 47.6475 948.943 255 249 242
420.96 81.1121 1181.63 163 162 138
-197.513 105.84 1013.93 106 52 38
-127.217 110.503 1054.84 255 238 221
-114.716 114.419 1026.26 197 157 114
-129.003 162.51 1043.15 246 255 245
652.307 243.954 1361.02 214 236 231
-173.02 236.75 1066.41 255 231 226
-318.299 228.723 1006.45 234 231 219
699.718 405.179 1580.13 198 230 235
-252.977 324.19 1034.64 26 24 17
-94.1108 360.851 1137.8 31 40 41
-97.3181 479.399 1203.84 11 24 16
-338.252 -518.85 1514.84 209 215 210
-268.342 -397.606 1188.98 57 66 62
-407.574 -516.535 2148.84 174 160 139
347.134 -213.813 1217.58 136 136 130
452.824 -140.914 1079.34 75 73 55
-205.936 -76.2857 1058.69 106 118 119
427.619 -68.5161 1147.75 66 53 53
554.246 -68.2555 1144.13 155 133 112
546.289 -40.1012 1168.33 247 238 224
443.5 -34.1936 1149.21 111 53 45
-256.9 10.435 1021.09 254 188 171
-180.306 10.6825 968.257 255 250 229
-247.1 20.0984 965.026 181 95 69
-247.1 20.0984 965.026 181 95 69
393.018 28.7573 1166.74 127 117 108
543.446 29.9391 1201.39 248 226 222
500.707 32.7973 1168.54 255 240 231
545.38 38.6327 1165.53 255 250 227
-299.213 37.2553 930.561 255 246 233
-265.666 39.8364 975.625 255 243 228
-356.8 53.3019 964.326 87 56 60
-153.897 57.3598 1072.27 52 12 3
-227.803 68.8695 998.961 255 251 250
463.724 108.249 1188.2 192 191 170
463.724 108.249 1188.2 192 191 170
-192.646 127.284 1022.81 76 30 16
494.303 217.227 1446.56 145 153 153
-114.755 171.823 1050.7 30 9 3
-112.163 236.881 1182.26 56 43 28
-105.181 249.265 1156.1 26 18 3
-102.335 156.18 637.238 166 149 138
632.531 338.486 1379.42 231 250 250
-188.694 274.006 1111.55 233 238 211
-93.4224 286.142 1156.85 62 35 21
-67.6666 289.738 1138.7 195 96 50
-266.152 294.54 1087.68 243 219 200
-259.988 314.562 1086.16 231 222 210
-314.252 317.166 1092.71 251 255 251
-286.543 338.064 1115.97 49 43 39
-302.073 343.773 1117.7 36 33 18
-302.073 343.773 1117.7 36 33 18
-259.715 349.674 1093.57 253 253 245
-259.715 349.674 1093.57 253 253 245
-37.4166 -465.259 1366.68 145 149 145
-37.4166 -465.259 1366.68 145 149 145
-335.544 -679.073 2330.74 119 128 124
-512.51 -449.348 1741.31 53 21 10
404.607 -192.952 1087.1 115 118 88
533.191 -131.268 842.39 58 49 45
609.609 -149.252 1079.63 234 250 233
-733.483 -118.693 940.107 7 7 2
638.694 -135.251 1133.93 216 236 225
398.244 -104.457 1087.76 255 251 250
398.244 -104.457 1087.76 255 251 250
642.146 -98.4387 1139.77 247 255 242
642.146 -98.4387 1139.77 247 255 242
401.657 -63.3953 1089.45 95 67 63
671.032 -62.214 1184.75 104 139 109
488.528 -46.3925 1130.75 125 96 73
-320.494 -13.939 1038.29 215 190 159
-320.494 -13.939 1038.29 215 190 159
-339.103 -8.29576 1028.03 206 182 153
-339.103 -8.29576 1028.03 206 182 153
-174.606 -9.41761 996.2 252 229 202
-258.001 26.5703 976.806 191 98 71
-241.438 26.3089 968.063 253 208 187
561.482 39.1484 1195.7 255 249 229
-343.455 40.1913 925.168 236 245 234
-202.736 50.6987 1026.44 250 242 232
-305.443 56.3832 957.942 210 229 213
-305.443 56.3832 957.942 210 229 213
-113.783 70.1559 1021.07 228 214 202
614.234 84.0882 1221.27 254 254 240
-108.254 86.5786 1031.96 248 240 221
-108.254 86.5786 1031.96 248 240 221
-136.242 105.923 1056.38 51 13 5
-136.242 105.923 1056.38 51 13 5
-339.716 119.679 951.805 248 251 253
-109.976 132.602 1051.9 198 110 55
400.7 176.197 1134.56 36 28 23
530.932 228.842 1383.35 180 202 196
482.632 227.731 1269.24 24 63 89
482.632 227.731 1269.24 24 63 89
523.905 318.439 1422.25 29 61 75
-233.99 267.422 1083.52 203 135 141
698.073 402.959 1477.83 222 228 227
-103.685 354.462 1131.39 250 252 241
-163.687 -335.596 983.262 106 101 91
-359.654 -304.918 944.925 62 59 53
-318.447 -136.442 690.035 66 70 57
410.113 -132.097 1070.72 106 104 98
-218.772 -28.7403 993.075 195 124 91
467.621 -26.1973 1150.13 152 89 86
-331.957 64.9488 956.742 189 213 208
-64.7575 179.193 1097.29 254 254 236
563.368 385.684 1633.12 90 92 83
-175.507 438.086 1313.88 251 253 249
634.794 -258.235 1114.48 45 91 97
544.774 -54.3317 1125.02 254 252 251
381.878 -7.42096 1281.23 86 85 71
381.878 -7.42096 1281.23 86 85 71
-234.278 2.45887 977.131 250 192 164
420.783 29.6148 1166.45 235 241 239
543.705 52.3069 1210.79 246 239 223
-366.299 45.492 950.619 61 53 33
-366.299 45.492 950.619 61 53 33
-307.945 81.0041 981.616 255 241 245
-239.103 180.787 1034.34 234 235 224
-239.103 180.787 1034.34 234 235 224
-315.971 218.458 1037.89 134 62 49
-305.064 265.401 1034.2 250 248 244
-239.263 309.261 1017.47 64 69 64
-250.977 361.45 1085.36 62 62 62
-491.859 -404.624 1264.94 133 146 139
568.925 -68.4358 1118.37 157 156 121
-314.643 6.88161 991.184 179 122 94
-295.189 32.0474 950.532 243 216 218
-211.826 89.3283 1024.14 125 70 62
-211.826 89.3283 1024.14 125 70 62
658.965 143.697 1297.56 112 108 87
658.965 143.697 1297.56 112 108 87
-203.355 120.876 1036.27 118 73 59
-294.233 127.061 1015.03 225 182 146
-155.942 157.151 1032.86 249 246 228
-263.869 216.68 1039.44 188 143 132
-288.188 321.645 1127.69 237 235 235
-288.188 321.645 1127.69 237 235 235
-419.816 -475.472 1650.02 69 66 50
646.078 -94.9939 1142.08 247 254 244
-196.119 56.5817 992.492 224 191 178
-191.995 160.879 1060.98 107 92 87
-165.873 -388.541 1215.9 97 71 56
-167.347 -84.2796 1024.36 42 82 95
404.742 -94.0765 1103.27 188 189 192
-277.716 75.4173 975.543 190 90 75
-241.833 340.488 1083.05 70 61 55
-336.544 -329.914 1318.79 80 60 40
575.512 -129.991 1079.69 109 105 94
-247.521 55.2073 983.04 248 226 220
683.198 106.238 1237.36 112 139 110
582.217 -200.865 1121.49 69 66 65
6.15366 519.112 1382.87 181 182 170
-83.4044 -36.8153 113.312 65 79 73
-229.369 -98.8956 1150 79 91 94
-320.789 -252.153 1015.2 71 52 37
-156.586 276.908 1181.9 254 254 249
477.212 134.005 1434.24 60 54 43
