92.3578 493.45 -1528.27 67 73 70
-421.532 -467.718 1943.12 147 125 104
-186.2 -189.313 832.127 130 108 91
-172.949 -418.306 1856.02 210 205 183
182.111 -163.965 1198.71 94 69 55
1217.91 -143.393 1766.67 50 48 46
1146.29 -123.808 1666.25 208 203 198
190.953 -69.6228 1009.18 173 173 147
391.373 -16.2207 1085.51 188 178 172
267.643 18.728 1035.15 117 73 59
-482.179 67.7359 961.753 241 210 193
405.798 73.0156 1049.81 156 177 157
-408.943 100.125 1004.08 255 224 210
-403.233 112.279 968.855 253 228 213
198.944 128.876 1106.5 120 99 102
167.427 131.88 1124.11 255 246 239
201.75 130.435 1081.78 187 170 169
-388.904 148.699 1007.41 248 219 212
323.806 172.815 1147.23 215 196 182
323.806 172.815 1147.23 215 196 182
303.151 172.101 1108.12 226 208 195
266.455 190.53 1126.33 233 207 187
-375.023 185.242 1016.08 255 233 226
-372.386 199.959 1022.21 255 240 229
484.617 232.001 1124.63 194 197 173
271.371 257.3 1181.38 134 130 90
277.378 289.943 1160.23 83 57 41
277.378 289.943 1160.23 83 57 41
-348.089 261.198 1027.6 255 230 214
-585.781 287.528 1069.93 161 153 124
-331.45 287.749 1065.35 189 162 152
-574.782 289.218 1062.08 243 217 197
-304.645 302.005 1096.96 254 242 223
227.116 341.279 1186.88 42 38 26
-576.402 316.556 1058.62 248 253 248
-550.378 325.809 1080.17 118 112 115
-550.378 325.809 1080.17 118 112 115
-454.513 351.844 1103.66 255 242 239
-491.774 356.922 1101.98 177 159 151
294.21 441.883 1291.28 100 127 127
-561.685 409.816 1111.47 102 92 88
-439.858 441.768 1041.08 47 42 35
-278.667 556.177 1232.06 113 147 137
-346.614 631.639 1340.67 42 59 49
-333.363 593.461 1249.49 35 51 42
-331.235 596.086 1236.4 156 178 168
1201.97 -144.14 1596.23 199 200 188
268.538 -29.6778 993.469 189 170 153
213.183 -1.24917 1013.4 164 160 131
-369.911 9.49913 1091.34 124 102 80
-351.472 26.7652 1014.1 153 139 120
-345.251 40.1523 1229.52 59 56 47
254.708 35.4625 1071.64 251 254 240
258.243 34.6376 1022.74 82 77 65
359.192 42.7305 1033.94 151 142 111
172.164 56.0308 1056.16 253 253 254
-509.092 60.1372 996.027 245 245 231
-461.324 57.4973 919.377 102 86 72
197.892 67.3171 1063.44 160 150 126
151.283 79.2523 1076.16 253 254 246
265.117 77.0471 1060.48 213 208 175
-503.706 73.6808 984.807 185 120 93
199.306 84.3366 1082.26 103 90 67
-416.45 80.6184 961.332 255 220 193
177.706 91.7635 1080.74 97 49 33
177.706 91.7635 1080.74 97 49 33
154.945 96.1547 1084.52 228 197 195
327.694 120.234 1075.18 205 188 178
-517.829 116.551 986.022 188 117 90
462.756 170.469 1146.03 222 242 222
259.323 165.05 1102.63 48 25 20
259.323 165.05 1102.63 48 25 20
-552.437 170.879 1010.54 255 240 227
214.237 189.006 1109.43 87 67 54
188.28 190.393 1076.15 73 51 46
-302.552 244.529 1266.51 59 28 13
217.664 228.008 1146.29 93 85 57
-333.607 221.636 1083.65 255 247 221
281.618 229.406 1119.17 150 142 130
-328.212 239.533 1091.68 243 229 219
439.121 262.222 1165.53 239 242 220
347.674 279.243 1169.77 222 212 190
347.674 279.243 1169.77 222 212 190
269.433 281.727 1160 143 129 107
-589.106 257.04 1037.25 255 251 237
-431.53 278.437 1070.06 150 122 120
-431.53 278.437 1070.06 150 122 120
233.605 303.475 1154.98 93 77 72
437.676 329.363 1244.31 240 251 248
-343.27 272.246 1028.3 255 233 208
476.473 395.518 1398 211 240 234
319.702 399.57 1291.77 174 213 234
-524.854 331.222 1029.8 251 255 249
416.023 406.798 1260.62 145 155 155
-375.372 385.971 1096.35 184 192 178
-515.422 406.151 1114.24 255 251 240
418.222 483.378 1275.9 235 248 246
173.84 -115.689 1112.7 231 233 234
390.182 -34.2272 996.325 253 254 246
-359.805 -29.0673 1182.76 64 53 41
320.214 -26.345 1054.74 192 195 183
276.494 -20.1866 1019.71 108 89 74
-376.813 -7.54674 1131.84 63 53 41
415.922 7.98353 1059.08 200 202 182
189.452 36.393 1060.37 255 253 250
-477.433 62.4473 983.228 183 138 105
331.179 71.3294 1089.31 168 141 107
256.478 70.3917 1064.89 124 112 82
419.279 75.6214 1060.67 231 242 229
-359.669 76.4173 1065.39 82 65 50
224.281 95.0966 1076.16 228 205 171
432.593 96.0013 1079.21 243 255 253
432.593 96.0013 1079.21 243 255 253
432.593 96.0013 1079.21 243 255 253
-360.664 108.814 1146.92 137 135 130
218.65 120.785 1093.72 253 253 253
458.434 120.611 1085.94 228 236 211
-512.544 113.019 995.521 198 125 105
240.676 126.994 1094.18 201 194 191
240.676 126.994 1094.18 201 194 191
-352.796 124.769 1035.47 253 242 213
-624.889 124.507 1013.66 245 253 251
-398.708 127.709 1037.3 167 114 100
276.44 141.925 1096.44 249 240 226
-561.115 139.345 985.471 241 248 243
273.676 174.956 1119.61 255 244 231
-361.323 165.519 1017.43 255 247 232
366.393 212.437 1147.39 251 249 249
-593.149 199.65 997.094 254 254 252
285.633 232.195 1132.29 150 142 130
-333.811 245.158 1082.96 187 139 99
432.384 282.949 1139.71 137 141 103
-276.498 388.241 1323.67 163 160 142
291.721 376.46 1250.47 47 82 101
291.721 376.46 1250.47 47 82 101
-522.636 329.671 1024.65 251 255 249
-440.673 364.638 1108.94 252 254 232
-307.265 385.231 1158.16 182 141 128
-290.844 416.871 1211.96 138 88 56
322.538 471.945 1302.75 73 107 124
322.538 471.945 1302.75 73 107 124
-280.828 438.793 1160.09 249 249 240
40.6425 107.48 -299.646 167 181 173
-351.247 -458.985 1863.83 87 43 29
249.762 -117.18 1051.04 108 74 58
-409.169 17.4585 1009.88 59 80 94
160.212 25.8645 1034.3 252 254 252
-450.216 73.683 1017.5 91 65 55
-626.415 87.3981 967.583 205 198 170
227.524 107.973 1070.07 156 88 77
-550.837 136.803 964.563 224 232 225
-551.292 137.929 926.547 213 234 219
-548.032 159.156 975.616 249 255 248
193.299 224.548 1118.34 78 67 49
-503.984 294.96 1069.82 168 119 110
-503.984 294.96 1069.82 168 119 110
-277.927 391.103 1335.4 159 160 146
-540.553 317.421 1078.55 254 252 250
-291.271 352.952 1142.53 121 85 80
-269.502 433.744 1170.68 47 46 44
-401.527 423.356 1137.89 162 185 147
326.376 529.314 1383.41 143 161 158
451.411 545.477 1323.81 252 254 252
-460.439 396.902 958.187 124 123 114
-391.849 -523.725 1538.3 69 77 70
-391.849 -523.725 1538.3 69 77 70
-398.226 -471.773 1532.7 158 168 159
248.384 -134.295 1094.88 205 174 169
271.225 -92.2517 1090.92 36 34 30
229.061 -82.0164 1063.05 19 14 9
414.044 -50.7253 1027.91 123 139 111
379.305 54.0168 1066.21 255 255 233
-402.188 114.228 961.325 234 215 203
283.347 159.315 1096.94 109 89 81
-304.958 267.845 1172.3 89 66 49
-569.168 301.505 1062.65 132 84 60
-464.717 318.612 1087.06 255 254 250
-566.959 358.384 1093.74 255 250 252
-566.959 358.384 1093.74 255 250 252
-566.959 358.384 1093.74 255 250 252
-501.537 348.811 1071.27 108 82 76
410.321 541.089 1362.92 204 230 228
-502.81 457.591 1124.71 98 89 87
-577.879 606.628 1413.63 64 67 65
-311.578 -508.249 1558.74 161 167 162
356.051 -784.269 2483 124 132 128
-364.184 -628.054 2181.28 144 153 149
377.914 -112.056 952.828 52 101 118
365.319 -123.647 1093.4 145 197 188
-565.113 119.724 1009.2 255 255 252
-433.567 166.162 954.077 137 87 80
-473.805 220.086 1082.32 113 80 62
325.873 246.647 1134.43 226 229 212
-522.234 281.52 1064.94 249 243 234
471.665 -678.671 2202.62 175 153 120
-347.494 48.0504 1195.03 74 69 58
238.672 54.5839 1059.42 106 81 68
-334.843 206.315 1054.86 255 211 161
-289.394 305.189 1333.82 78 68 62
-429.212 242.238 1016.83 151 131 123
-429.212 242.238 1016.83 151 131 123
431.212 340.339 1237.52 200 226 222
-30.527 -330.24 1085.26 120 95 77
419.396 50.9788 1042.97 239 247 234
179.35 98.2481 1042.93 166 140 116
179.35 98.2481 1042.93 166 140 116
370.589 283.026 1133.36 130 120 104
-327.651 283.478 1105.76 255 252 240
-482.155 430.507 1169.99 170 195 153
-369.77 -20.6874 1168.63 92 82 67
-584.541 -5.92688 1157 151 136 114
-471.136 77.3161 978.526 236 193 172
-388.005 103.198 1049.84 220 212 180
308.987 146.679 1108.5 127 110 101
347.404 0.232981 989.164 106 94 91
370.958 394.511 1268.08 204 231 229
269.817 -160.357 1092.67 184 210 204
-345.373 190.738 1254.07 81 59 45
371.246 173.866 1097.52 252 255 252
371.246 173.866 1097.52 252 255 252
257.445 320.843 1241.69 103 86 82
-307.54 -384.417 1609.25 99 62 47
-403.799 379.002 1191.29 251 254 255
272.464 -49.022 1322.79 71 50 41
