-522.444 -230.317 1231.01 73 73 66
-615.549 -157.294 1220.41 44 39 26
174.466 -134.456 1037.24 40 36 31
-62.5668 -14.3356 78.9455 117 131 123
74.2245 -131.086 1123.52 198 182 168
213.326 -108.795 970.775 131 170 164
132.414 -98.6452 1003.59 132 87 76
132.414 -98.6452 1003.59 132 87 76
136.174 -92.7929 984.165 241 207 195
-802.905 -100.657 1408.14 193 194 183
174.351 -49.7153 868.181 226 249 247
174.804 -32.0282 843.494 72 80 64
-685.102 -42.174 1180.65 174 176 158
-820.842 -45.2701 1531.27 106 111 105
199.029 4.47263 830.801 109 146 115
84.816 33.6516 900.826 221 206 186
-390.173 54.6294 1216.37 44 38 33
-393.138 66.5337 1319.63 45 26 19
-435.259 75.2271 1173.91 149 124 107
-426.36 87.7596 1188.54 26 24 16
-411.553 99.4448 1225.33 42 36 21
-433.218 94.8118 1148.24 255 255 240
-449.386 132.493 1097.77 254 240 220
-422.243 163.404 1092.64 151 122 97
-527.467 386.272 1255.79 145 140 132
123.496 -143.888 1097.34 79 64 64
6379.61 962.757 -11593.4 96 90 71
148.462 -65.5544 895.337 34 37 32
156.565 -60.0925 886.947 243 244 233
156.565 -60.0925 886.947 243 244 233
-458.786 -84.771 1381.59 69 73 68
126.143 -45.7278 871.854 51 83 75
116.3 -43.1747 864.705 229 201 188
-362.169 -43.0215 1290.95 102 89 72
86.8449 -24.9164 877.742 253 254 254
177.354 -20.331 849.99 249 254 248
-396.155 -26.5043 1234.53 123 109 91
-351.428 -9.6826 1265.67 56 58 52
-405.741 -6.37144 1165.96 169 146 118
-391.971 -6.49238 1282.17 98 78 59
207.04 4.79534 856.626 105 142 110
-422.782 25.1764 1005.64 248 234 207
-381.219 31.2565 1251.6 37 34 34
249.261 34.8502 838.519 255 252 231
-425.052 65.4368 1107.03 129 76 41
111.118 62.3439 944.781 245 213 180
237.869 85.1987 855.228 252 252 255
288.863 123.203 908.629 234 236 211
-327.709 217.869 1288.74 162 136 125
-373.665 240.207 1278.31 142 136 125
-373.665 240.207 1278.31 142 136 125
330.496 210.598 973.16 203 199 180
330.496 210.598 973.16 203 199 180
-490.195 308.445 1193.23 251 254 239
-749.1 -146.765 1233.77 89 90 85
-715.838 -127.033 1198.93 94 92 71
74.5519 -89.6497 1005.62 237 236 235
87.9156 -90.0785 1025.48 43 34 33
-342.775 8.78739 1345.21 25 24 23
-425.831 14.7943 1175.35 150 131 98
-425.831 14.7943 1175.35 150 131 98
-500.282 53.3675 1104.09 130 53 40
-399.541 62.6084 1155.92 181 168 153
-399.541 62.6084 1155.92 181 168 153
-393.931 69.0023 1181.88 47 27 20
326.853 59.1824 998.184 163 159 136
5.09753 60.1303 956.917 128 106 100
-564.625 86.9787 1147.16 209 140 117
-531.264 90.4002 1119.64 194 164 173
-531.264 90.4002 1119.64 194 164 173
116.666 107.932 941.203 202 205 166
-408.026 171.451 1176.56 255 248 236
292.104 196.661 939.818 231 241 214
-589.284 306.554 1285.83 254 252 253
71.6234 -72.568 1001.67 151 61 44
-421.588 -1.63172 1165.77 47 46 36
-352.65 42.4615 1294.5 159 131 111
18.6872 56.1806 951.459 253 255 255
-399.392 88.3846 1210.67 117 106 88
75.0048 86.1612 944.574 125 104 87
151.665 94.8605 937.172 161 143 122
113.167 119.934 972.554 158 125 96
113.167 119.934 972.554 158 125 96
-501.005 227.973 1224.63 113 105 88
213.316 -121.928 992.958 53 95 95
188.593 -103.335 959.696 228 202 191
140.178 -100.854 985.336 210 184 176
182.987 -81.2457 900.002 76 79 74
-776.098 -54.2445 1418.2 178 182 176
235.467 3.94428 861.311 121 151 115
216.15 7.8701 863.263 127 159 129
216.15 7.8701 863.263 127 159 129
216.15 7.8701 863.263 127 159 129
-429.685 14.5635 1135.54 46 36 26
-429.685 14.5635 1135.54 46 36 26
-320.965 97.0745 1346.76 152 153 140
208.864 92.0115 897.193 242 246 223
149.95 129.587 928.068 228 220 218
-429.351 285.945 1272.47 217 173 158
-417.936 381.355 1312.2 251 254 249
-514.215 395.983 1293.96 85 84 76
-401.513 -91.2465 1284.35 143 133 112
175.616 -60.404 867.446 160 195 190
81.8441 79.579 889.725 136 115 100
81.8441 79.579 889.725 136 115 100
-580.07 305.597 1352.73 254 251 253
-458.197 332.672 1187.43 194 214 181
-686.552 -198.017 1320.72 58 53 44
-385.91 15.898 1217.61 147 138 114
-389.193 255.953 1220.31 252 253 250
-403.68 330.974 1202.28 254 254 254
-450.066 32.2653 1066 245 214 196
170.551 126.605 941.961 253 250 244
170.551 126.605 941.961 253 250 244
145.462 187.515 615.664 129 122 110
151.73 -15.5995 843.877 95 89 82
151.73 -15.5995 843.877 95 89 82
264.586 96.7434 903.294 233 249 228
-418.261 32.2479 1124.38 49 33 25
339.893 -100.976 1171.38 102 103 101
-683.687 -135.061 1295.8 113 105 85
-488.019 88.3285 1078.46 240 229 222
57.5096 -14.5488 873.373 26 18 9
-354.948 145.902 1268.92 57 49 43
