-301.552 -583.981 2152.33 108 106 98
-147.833 -407.058 1586.41 70 66 58
-120.593 -291.708 1160.6 156 154 150
-117.622 -344.284 1502.7 38 36 29
-303.269 -369.482 1747.99 53 39 19
-107.363 -340.737 1608.57 34 27 15
-368.217 -82.5782 1289.68 187 171 165
-365.944 -53.5364 1472.84 113 106 96
-517.823 11.3999 1370.04 185 168 144
-337.417 45.9522 1427.62 34 4 2
-38.0065 29.7752 936.83 108 106 100
-580.936 45.9971 1317.07 185 150 134
-580.936 45.9971 1317.07 185 150 134
-352.764 62.2132 1430.88 198 187 178
-366.08 71.9959 1411.14 120 96 89
-353.929 76.4964 1437.38 18 5 5
-61.0579 48.1402 917.351 255 246 240
230.744 64.4138 1023.04 56 14 5
-446.91 84.3597 1345.56 22 17 13
-471.981 82.0091 1273.74 120 99 83
-471.981 82.0091 1273.74 120 99 83
-452.126 82.5916 1278.71 16 7 4
-93.6174 61.4134 938.411 57 51 42
169.864 68.8686 970.513 137 91 75
-438.255 95.2547 1257.36 6 2 1
-601.283 140.029 1413.17 183 174 154
55.5505 90.6922 847.353 188 180 164
-495.095 177.327 1555.74 125 126 111
42.5311 113.357 857.913 34 27 26
-17.9896 123.605 893.249 120 113 108
-352.797 215.715 1421.5 22 0 0
-95.132 156.731 1002.13 147 133 109
-67.0961 159.208 951.483 128 109 93
-67.0961 159.208 951.483 128 109 93
-319.612 251.135 1471.31 15 17 12
92.6307 158.842 920.075 163 156 145
-334.133 264.46 1444.93 193 167 153
-14.6052 200.775 984.802 245 246 222
-83.0582 210.524 1007.98 161 136 123
-320.243 347.24 1448.48 254 251 243
-450.975 438.302 1625.64 245 246 238
56.3658 270.141 934.569 250 255 247
-75.8811 353.928 1067.01 250 245 236
252.042 367.233 1082.4 49 36 19
-21.2913 158.076 410.636 246 246 239
104.76 362.262 958.681 252 252 243
104.76 362.262 958.681 252 252 243
191.967 547.286 1169.58 131 163 157
207.588 562.107 1146.92 237 253 255
-266.521 -377.896 1512.62 169 175 169
-497.244 -324.458 1947.77 114 120 113
-351.127 -62.1314 1397.54 32 25 21
-351.127 -62.1314 1397.54 32 25 21
-371.516 -50.5231 1337.85 119 94 72
-415.904 -47.4498 1379.31 29 27 20
-1182.13 -46.5309 1667.27 200 203 201
-400.309 -34.9895 1342.28 149 131 112
-393.391 -13.7155 1384.72 113 99 82
-601.818 29.1263 1423.04 191 146 118
-423.478 39.9565 1335.74 181 175 168
-42.4122 34.5833 920.218 62 113 111
-434.981 56.2823 1352.13 49 32 28
-487.019 53.0873 1278.03 144 94 48
122.675 54.6254 934.116 20 19 20
-97.248 74.7555 1022.47 152 138 128
-536.321 99.3288 1331.09 255 248 237
-6.78349 63.5591 865.919 61 72 66
-145.624 129.22 1032.34 254 253 253
-66.8614 118.423 950.765 138 126 114
-66.8614 118.423 950.765 138 126 114
-452.133 172.12 1257.44 188 176 167
-561.25 204.362 1409.48 186 166 162
39.95 124.875 853.744 251 254 243
-116.516 175.227 1022.03 205 204 180
-89.2168 176.837 974.63 229 213 195
-310.337 205.205 1065.81 186 174 168
-310.337 205.205 1065.81 186 174 168
243.768 203.486 1059.92 99 135 134
179.223 204.853 1014.32 81 53 45
-50.6753 205.762 990.286 190 124 103
232.864 259.743 1040.59 191 144 133
272.015 283.583 1096.38 180 132 110
113.088 254.893 913.457 191 165 150
83.8984 302.087 937.766 254 253 248
-0.508087 345.973 1056.25 253 252 246
-0.508087 345.973 1056.25 253 252 246
252.708 360.969 1074.89 48 35 23
246.221 398.769 1098.66 149 160 150
174.138 381.742 951.391 58 55 46
89.9414 421.313 1023.96 248 246 228
168.925 416.146 992.5 57 56 49
-380.091 -303.644 1413.79 107 104 91
42.1186 -62.7515 1069.57 104 96 95
-34.8225 -5.94797 1049 0 8 10
182.576 -1.72503 983.048 48 45 44
-458.829 3.01668 1308.58 168 149 125
-4.39682 9.61815 956.322 160 118 89
-507.383 44.8228 1198.39 253 251 239
-52.4114 46.2171 902.27 34 44 32
-52.4114 46.2171 902.27 34 44 32
-622.739 83.8363 1378.3 253 253 255
236.711 67.6548 1047 46 12 5
-22.5164 62.9953 861.301 54 55 54
-22.5164 62.9953 861.301 54 55 54
96.1019 88.032 907.94 25 30 25
96.1019 88.032 907.94 25 30 25
-66.7493 134.696 1003.02 222 220 209
-400.63 224.838 1412.33 54 34 33
28.0606 152.989 878.35 255 255 249
28.0606 152.989 878.35 255 255 249
-243.881 271.079 1488.26 91 51 33
-253.961 277.915 1475.61 98 57 38
-265.099 316.905 1597.81 229 230 216
-267.073 319.766 1548.65 21 22 16
-124.152 242.895 1146.87 250 252 250
-90.0074 227.721 1048.54 254 253 249
164.605 217.876 981.718 185 182 178
129.456 214.915 936.506 59 40 32
-46.3694 260.062 1024.66 255 253 242
94.228 289.942 938.279 251 254 239
103.657 337.736 941.668 113 113 104
103.657 337.736 941.668 113 113 104
110.128 351.044 939.109 124 114 108
259.947 505.483 1127.54 88 121 120
-397.509 -238.633 1733.47 183 185 184
133.909 -61.715 1047.76 72 101 94
133.909 -61.715 1047.76 72 101 94
-321.216 -54.8076 1249.27 35 29 23
-366.55 -59.6033 1417.26 35 29 23
-965.426 -55.2958 1384.76 207 216 209
72.425 -12.3804 984.965 35 84 81
-16.4205 1.28306 1010.68 255 252 236
31.0431 2.90019 954.036 203 203 188
-563.356 126.281 1359.65 253 248 236
-413.523 156.273 1353.38 45 38 32
-6.73571 156.185 917.916 139 127 121
-438.399 276.36 1305.91 255 254 249
14.4336 204.267 930.651 254 253 251
136.227 769.802 1902.17 135 133 111
18.4299 -63.2144 1159.18 50 54 46
-317.638 87.9172 1473.82 157 157 156
30.5596 105.778 853.602 227 228 225
245.406 215.716 1035.77 59 48 54
-388.054 350.14 1409.59 179 118 88
81.8594 214.822 862.11 46 39 37
216.491 482.137 1101.43 57 84 143
-319.77 -470.467 1934.63 176 176 170
-309.168 -387.08 1623.88 70 57 47
-104.904 -365.326 1657.47 67 56 44
-399.264 -49.8342 1375.02 70 55 50
-341.515 75.1963 1432.28 44 37 26
-81.109 54.8073 917.259 64 61 56
-81.109 54.8073 917.259 64 61 56
266.323 149.79 1072.94 61 51 49
75.538 395.962 1021.12 250 249 250
75.538 395.962 1021.12 250 249 250
268.101 491.354 1155.62 126 153 152
-163.243 -220.973 1173.12 158 156 148
-419.735 -27.8253 1335.72 67 51 48
-419.735 -27.8253 1335.72 67 51 48
40.2795 -3.71652 962.553 255 205 195
-407.94 7.25918 1356.78 169 160 148
-407.94 7.25918 1356.78 169 160 148
79.3662 91.82 877.677 163 168 162
-15.7786 227.283 973.782 249 255 255
118.104 240.075 932.508 187 141 123
103.632 508.67 1152.62 245 255 251
-359.679 -65.8665 1418.97 58 55 47
-370.748 59.7072 1409.32 194 167 153
-370.748 59.7072 1409.32 194 167 153
241.698 97.4331 1038.99 84 64 54
191.059 112.531 999.379 178 120 92
-493.68 171.415 1384.98 226 215 202
-336.379 223.736 1454.54 202 163 139
-336.379 223.736 1454.54 202 163 139
-355.279 283.201 1452.54 82 56 58
61.2309 216.972 897.31 255 254 250
-32.0482 312.618 1040.26 213 205 187
34.3874 -289.439 940.687 164 170 165
45.4433 73.9156 845.381 52 44 40
-42.4117 395.277 1130.74 139 131 117
-42.4117 395.277 1130.74 139 131 117
130.734 89.4256 926.839 47 43 35
94.7279 196.967 913.479 56 51 49
-202.376 -362.332 1646.81 158 157 154
-101.988 47.7556 993.799 86 84 78
262.561 180.23 1125.72 88 96 87
-142.824 456.664 1329.47 229 229 222
-316.568 423.076 1576.99 54 58 59
154.564 315.475 937.849 68 58 52
-716.33 -324.603 2054.33 172 180 174
-444.259 148.009 1659.56 93 78 68
135.409 89.7323 939.428 44 40 32
