-699.71 -396.998 1669.5 89 95 90
-425.111 -259.306 1160.87 73 71 64
-878.686 -524.383 2656.83 43 43 34
204.738 -186.016 1122.38 167 206 197
-846.057 -242.208 1586.09 108 104 87
-1393.67 -396.49 2668.63 95 86 67
-740.704 -4.71982 1241.07 128 126 103
-574.012 61.6226 1239.22 255 251 240
-520.338 65.9691 1187.01 176 147 122
-346.167 89.4742 1464.69 8 11 4
-468.124 120.48 1295.67 95 82 72
77.0748 97.9773 974.625 246 233 212
-401.892 112.822 1073.28 182 137 129
-404.007 115.453 1100.8 44 11 4
-521.275 137.403 1239.1 159 143 121
-385.089 121.154 1041.12 173 134 106
-540.892 159.006 1308.78 202 188 165
-272.094 172.148 1352.53 208 212 200
-381.38 187.221 1336.68 17 0 0
-379.763 197.471 1349.17 224 190 174
-471.94 187.237 1247.3 255 244 204
-377.893 208.928 1357.38 76 34 18
-377.893 208.928 1357.38 76 34 18
20.61 200.883 1073.62 188 176 164
-342.611 318.338 1424.6 233 234 216
-387.962 340.822 1383.5 204 189 185
153.066 311.032 1085.74 194 185 166
-612.546 -368.422 1693.82 154 155 143
-696.77 -282.806 1544.17 55 51 32
-696.77 -282.806 1544.17 55 51 32
-1786.88 -397.404 3445.01 101 105 94
-777.123 -134.736 1483.04 166 167 153
-39.4564 -95.1479 1036.73 166 159 153
95.0403 -77.521 919.118 61 79 74
80.9238 -77.2083 936.966 59 54 48
-420.723 -83.2665 1256.27 120 97 77
-486.682 -70.5057 1206.96 149 150 144
-486.682 -70.5057 1206.96 149 150 144
-432.264 -47.3016 1278.51 108 91 70
-518.157 -15.321 1214.96 141 127 101
-658.116 1.2819 1201.16 255 254 235
-658.116 1.2819 1201.16 255 254 235
44.5436 12.4601 927.537 111 95 79
-391.17 21.2953 1406.43 167 127 118
280.204 48.136 1045.84 73 61 45
-33.7102 47.6551 968.103 253 245 241
-354.973 73.3231 1470.93 21 17 10
-30.8505 58.2731 1110.96 251 248 248
-40.5907 67.8074 999.449 255 248 250
-495.286 84.0334 1188.85 165 130 102
45.1641 100.463 995.88 222 224 192
-41.0079 107.96 1036.98 193 189 159
83.4622 112.657 973.915 223 159 133
45.624 119.859 1016.12 254 236 214
-495.337 147.366 1167.02 255 237 217
-366.831 225.361 1356.15 22 3 0
-299.357 277.893 1373.59 21 19 13
-605.241 292.12 1386.72 240 238 224
-368 311.456 1263.7 109 67 46
-622.138 356.367 1426.76 255 252 251
-524.501 430.816 1400.26 252 252 245
226.37 363.452 1163.09 186 194 190
-254.177 -314.896 1227.18 145 142 137
180.072 -179.501 1064.8 63 105 90
55.2635 -108.297 1033.85 230 215 200
-778.22 -139.848 1520.43 97 99 93
-451.25 -64.019 1351.25 144 122 102
-495.922 -25.9272 1243.09 168 149 127
-495.922 -25.9272 1243.09 168 149 127
139.166 -0.836404 903.297 121 152 127
-582.639 23.9664 1182.2 255 250 243
-454.96 28.9541 1231.96 48 36 30
145.603 26.0648 886.846 122 122 113
-510.142 53.1692 1158.77 255 249 230
-68.1185 45.6118 1001.23 137 120 117
155.297 44.9144 916.041 123 139 113
-761.787 71.6578 1351.49 250 251 249
9.63632 112.459 1040.62 254 253 239
-311.844 184.518 1488.17 64 30 27
-328.245 183.329 1390.23 156 102 82
-328.245 183.329 1390.23 156 102 82
25.6507 143.371 1045.17 235 229 226
63.3647 151.084 1045.56 122 98 91
59.274 186.882 1050.61 255 248 237
-5.68411 218.276 1066.26 112 105 92
2.01815 243.814 1077.17 109 108 106
-384.316 352.238 1284.27 255 254 243
373.897 496.958 1265 103 114 121
288.64 -12.6364 1085.1 156 120 89
-400.301 1.34251 1320.56 155 131 111
-45.7386 12.5825 967.99 139 139 124
-583.149 24.3274 1182.87 255 252 242
-369.678 56.6202 1478.71 31 30 24
-54.6367 40.7874 989.15 246 244 246
-702.549 112.176 1294.86 247 252 253
-612.438 144.709 1333.22 122 92 75
-582.419 138.287 1266.93 122 92 75
-492.688 130.385 1204.43 246 239 221
39.2498 109.121 999.634 166 132 105
67.2261 98.4696 861.88 216 146 125
6.17246 138.207 1092.74 253 252 255
82.6248 125.36 989.812 247 249 244
-453.828 220.695 1203.51 213 173 135
81.4526 -119.712 1034.49 212 191 175
119.713 -95.704 941.366 100 98 96
-879.992 -164.426 1783.87 170 176 171
102.414 -66.578 887.377 153 187 177
102.414 -66.578 887.377 153 187 177
196.547 -33.5391 902.821 170 167 159
161.755 -18.7466 862.304 254 254 239
158.733 -2.45541 877.484 132 151 114
137.936 87.6059 935.149 254 254 240
225.921 99.2945 951.626 49 39 31
133.646 108.101 975.489 191 186 139
133.646 108.101 975.489 191 186 139
-10.7201 147.585 1037.11 118 102 106
-521.869 181.762 1251.21 253 250 254
-521.869 181.762 1251.21 253 250 254
-390.072 325.376 1311.39 137 81 48
-371.007 356.407 1314.06 59 59 52
405.468 477.575 1307.65 102 99 85
-67.7338 26.051 975.418 106 90 84
-391.54 42.1996 1358.62 51 37 32
16.0892 73.8132 993.107 136 116 100
16.0892 73.8132 993.107 136 116 100
-547.739 112.434 1218.99 249 222 198
-429.723 265.622 1155.43 249 254 255
249.776 351.464 1120.07 187 212 209
-715.664 -339.562 1642.52 145 153 149
-443.757 -24.2015 1264.34 147 144 126
-516.277 -5.57203 1118.95 247 225 209
-530.381 46.0266 1223.09 245 214 189
-442.073 209.161 1231.45 254 254 235
-6.3606 191.077 1066.15 231 225 213
-415.677 24.7892 1335.2 168 145 128
304.326 25.6328 1109.18 91 70 49
97.7569 119.408 978.11 234 237 235
-357.383 240.034 1293.4 74 54 47
292.954 469.479 1201.73 192 224 221
-263.524 -319.223 1136.36 154 162 158
-433.945 -102.462 1367.84 46 41 31
197.279 95.1639 952.156 251 254 240
-321.405 219.047 1461.4 55 50 44
-321.405 219.047 1461.4 55 50 44
83.2957 159.694 986.46 159 134 121
83.2957 159.694 986.46 159 134 121
-491.01 -4.62255 1199.18 53 39 32
343.681 425.557 1172 165 191 186
343.681 425.557 1172 165 191 186
-693.636 -332.974 1807.47 143 151 145
-693.636 -332.974 1807.47 143 151 145
242.082 26.3108 982.255 113 84 71
-572.871 48.3086 1183.87 234 223 206
-418.415 183.627 1044.47 254 253 241
253.902 -361.016 1835.96 154 149 138
-427.843 111.967 1374.19 80 63 50
316.068 236.064 1026.98 137 125 112
-329.871 375.625 1392.78 65 69 64
-329.871 375.625 1392.78 65 69 64
