476.198 -249.451 1957.81 198 194 174
409.783 -217.673 1816.77 105 103 102
-413.311 -185.372 1677.46 39 16 8
102.887 -136.437 1702.99 27 26 10
317.626 -65.52 1673.43 42 16 9
754.649 30.4357 -1107.29 77 72 50
-172.027 -14.4244 1265.68 67 43 36
-172.027 -14.4244 1265.68 67 43 36
392.306 36.5719 1852.52 255 252 246
275.061 45.0577 1759.4 173 141 121
275.061 45.0577 1759.4 173 141 121
428.101 193.223 1876.16 252 251 237
-137.561 127.202 1138.84 172 114 84
-143.412 127.699 1126.75 56 0 0
99.9103 174.927 1276.3 248 241 225
99.9103 174.927 1276.3 248 241 225
28.7211 185.274 1097.31 161 112 91
-131.92 250.235 1211.66 52 14 2
51.372 316.158 1165.55 255 246 246
-49.2211 360.863 1160.82 19 4 0
56.6897 390.658 1213.42 72 60 63
-157.89 497.455 1347.13 3 3 1
56.559 478.589 1221.57 38 46 48
121.556 557.372 1380.91 77 76 72
29.4858 571.438 1207.81 25 38 27
49.3227 603.891 1274.14 165 196 181
-826.524 -272.575 1535.93 52 58 53
-826.524 -272.575 1535.93 52 58 53
-643.901 -96.1676 1053.41 52 50 41
230.746 -148.642 1708.01 170 175 161
93.6258 34.7053 1227.91 255 255 240
-151.154 86.1076 1132.69 35 2 0
-23.3521 102.839 1120.17 89 18 1
94.5534 182.976 1256.88 141 109 97
5.59761 170.293 1088.01 253 252 252
-8.334 187.839 1138.77 24 1 0
122.791 233.129 1309.71 255 248 232
-52.3618 301.761 1143.74 59 42 39
31.2028 310.039 1155.44 182 150 150
-58.0733 330.081 1212.32 162 140 131
-208.855 355.308 1296.68 20 19 14
30.9681 354.07 1165.29 253 251 248
-56.2265 363.193 1136.68 151 124 106
-41.0415 436.863 1218.24 51 31 20
85.5859 593.961 1303.15 218 241 227
-1146.62 -351.232 1564.91 115 113 105
-644.589 -189.919 1033.21 3 1 1
328.261 -209.867 1694.75 179 200 195
353.014 -182.725 1753.71 147 138 124
250.085 -166.666 1716.72 15 10 6
386.69 -75.4143 1778.04 142 130 119
354.73 -71.2921 1716.68 237 232 232
116.216 -43.4286 1280.99 255 249 230
-29.6854 -36.7848 1301.31 155 144 143
460.454 138.127 1926.37 171 163 138
31.1494 90.5855 1127.84 254 253 254
-20.709 188.292 1117.86 203 165 148
83.4187 219.054 1245.45 252 251 250
-24.3393 406.758 1199.73 32 28 18
60.2161 441.792 1230.3 90 83 66
60.2161 441.792 1230.3 90 83 66
40.878 64.1838 1190.53 248 255 255
63.7758 101.798 1198.67 254 254 254
63.7758 101.798 1198.67 254 254 254
-42.2882 103.253 1084.27 47 15 8
69.6204 150.812 1223.4 246 242 221
77.659 184.408 1229.86 247 240 227
114.373 197.109 1297.89 254 254 250
53.6323 378.694 1218.54 252 249 250
64.5447 401.809 1244.73 94 84 84
77.7391 469.387 1289.95 254 254 246
29.931 448.598 1167.26 38 19 24
4.2601 106.978 1095.05 253 255 255
42.8218 245.232 1162.24 247 244 226
42.8218 245.232 1162.24 247 244 226
-69.8689 278.831 1140.19 65 44 34
23.5925 291.53 1129.88 254 253 254
20.9106 395.664 1178.45 72 38 23
20.9106 395.664 1178.45 72 38 23
-807.356 -191.004 1731.72 40 31 18
-750.912 -133.473 1278.97 56 62 61
429.309 48.9626 1834.57 253 251 253
-178.018 59.0714 1072.14 159 114 81
-39.301 123.017 1084.24 186 132 114
3.18089 146.157 981.775 254 249 251
-641.566 -173.437 1166.91 108 115 108
-458.513 -223.064 1784.05 48 42 30
-763.281 -159.985 1349.88 60 68 64
-66.741 -357.153 2048.68 181 177 158
34.5742 -15.8361 1123.02 54 96 99
-50.1503 15.3823 1047.59 169 131 109
-16.8098 301.68 1138.33 95 48 39
135.401 -123.159 1753.76 51 40 26
-868.347 -196.89 1364.07 119 132 123
408.903 -12.1065 1759.41 253 252 254
-166.937 371.809 1275.98 64 53 42
65.72 65.7373 1228.09 255 253 240
234.761 105.576 1439.88 104 71 58
260.742 -74.9496 1717.64 21 7 2
-120.205 153.947 1026.27 148 97 82
