-110.08 -46.1404 277.181 79 69 59
299.606 -217.011 1676.39 98 82 64
538.518 -64.1684 1629.63 143 120 91
-787.38 -20.5381 1141.73 77 65 46
-787.38 -20.5381 1141.73 77 65 46
560.17 -22.1163 1634.69 154 132 130
34.5862 -9.88321 1145.02 255 249 236
565.631 -13.6099 1963.34 112 97 89
565.631 -13.6099 1963.34 112 97 89
-510.77 -4.93753 705.693 149 153 132
524.535 -6.81289 1616.73 140 123 125
-606.99 -0.510032 852.437 62 62 43
526.719 2.22075 1626.4 153 130 133
552.864 21.1451 1597.9 250 241 230
25.0531 50.3439 1144.76 205 133 110
391.133 92.286 1660.24 39 30 18
408.79 117.597 1727.37 36 35 17
514.021 155.919 1520.5 124 110 87
0.990416 146.294 1120.95 255 225 191
-93.1791 265.598 1221.18 127 105 83
592.825 421.563 1864.44 249 253 253
89.5514 276.237 1166.25 254 254 248
-116.322 416.255 1364.91 154 108 86
-112.986 521.028 1493.12 149 143 129
-94.0006 -37.8601 129.225 137 146 140
-94.0006 -37.8601 129.225 137 146 140
-308.793 -117.252 421.12 139 149 141
-244.225 -103.561 549.197 132 122 110
592.318 -239.41 1544.67 196 202 186
-657.156 -185.096 1553.71 66 83 79
340.158 -156.721 1437.59 177 189 172
-428.367 -57.3998 568.047 41 60 50
485.16 -138.135 1466.04 152 158 134
588.085 -134.037 1596.12 174 157 132
531.258 -115.191 1553.91 238 219 195
-401.967 -38.361 505.624 47 66 56
-380.15 -35.1356 500.631 66 85 76
-325.641 -23.5317 412.074 113 135 124
-399.929 -27.2982 542.873 113 125 118
-375.634 -25.6488 513.768 52 63 55
-343.006 -16.8677 436.856 53 65 60
543.508 -55.6372 1618.08 249 237 208
-413.213 -17.6786 606.095 161 146 122
-389.164 -13.6522 553.529 147 139 114
449.066 -22.6239 1451.26 121 99 85
-415.039 -8.73583 560.16 56 59 50
59.1652 -10.278 1178.07 186 146 129
504.606 -10.9142 1594.51 231 233 230
504.606 -10.9142 1594.51 231 233 230
404.312 12.5814 1694.91 109 110 94
502.319 87.0842 1836.92 127 94 75
129.726 74.1965 1262.53 251 231 218
-13.3268 83.8591 1095.95 255 247 254
453.612 257.662 1748.61 31 57 63
-71.6689 175.586 1105.76 182 148 136
465.751 315.868 1799.23 133 157 153
-146.168 208.326 1103.39 155 103 81
-146.168 208.326 1103.39 155 103 81
-158.813 239.076 1256.31 157 99 78
26.062 264.478 1179.95 104 58 42
128.982 373.625 1267.39 169 161 126
146.638 409.736 1359.03 253 255 239
-2.18307 384.098 1170.34 83 49 22
-129.365 543.223 1547.14 9 9 4
15.3 435.017 1195.5 167 135 122
60.1502 428.982 1184.59 22 32 39
-186.023 -95.421 320.028 74 80 75
-186.023 -95.421 320.028 74 80 75
-194.144 -95.8504 324.122 72 77 72
207.383 -281.278 1032.29 182 174 152
113.688 -158.92 625.004 195 185 167
-268.825 -92.1899 363.711 41 45 40
-114.57 -61.0256 250.641 80 79 68
242.445 -236.821 976.842 154 147 139
-135.201 -37.5843 170.203 133 146 137
-298.485 -70.8586 447.144 141 149 142
-325.083 -74.988 485.448 56 56 51
356.802 165.773 -1319.02 136 109 81
355.093 -184.924 1587.55 81 89 73
-220.162 -36.981 320.75 67 70 61
549.375 -68.3296 1523.57 255 253 243
34.173 -44.1751 1231.56 166 157 159
-351.654 -16.1747 472.558 56 67 61
-333.495 -15.26 464.013 57 50 40
537.001 -23.4188 1617.31 255 249 241
-494.168 -6.99076 666.119 243 249 243
81.189 -4.31108 1174.14 80 24 10
-317.74 3.74403 428.778 135 141 109
514.335 19.6699 1609.66 255 251 245
604.328 88.6373 1681 254 254 247
603.891 140.473 1675.5 161 141 113
426.437 146.636 1738.76 90 108 88
568.489 176.691 1645.99 254 254 245
-47.867 160.714 1079.98 254 250 255
452.604 291.835 1679.51 94 121 120
556.344 354.131 1690.94 240 255 253
485.792 395.848 1857.51 81 93 90
563.858 386.044 1782.72 153 180 183
-43.4752 283.201 1147.77 52 22 22
112.215 324.906 1299.68 255 255 245
26.4912 372.844 1230.6 255 250 243
26.4912 372.844 1230.6 255 250 243
-15.2897 366.231 1174.49 249 253 248
5.08291 448.206 1177.32 251 250 234
-113.408 -32.2989 117.548 133 142 135
77.8598 -117.438 467.125 205 195 176
546.322 -241.262 1577.08 190 214 209
389.551 -184.586 1561.87 16 10 8
-273.408 -50.7749 486.937 140 150 143
-151.436 -23.7656 227.206 133 140 133
458.014 -98.0583 1508.08 50 24 19
-130.88 -41.5895 1316.5 84 73 62
-549.835 -13.1387 813.47 78 58 42
-591.052 -0.907951 776.283 239 250 248
-591.052 -0.907951 776.283 239 250 248
-709.082 5.09928 976.85 20 29 25
132.898 118.685 1276.36 246 243 239
-88.9309 166.57 1098.24 78 49 25
59.1798 209.331 1220.72 248 253 249
249.391 184.256 850.136 217 238 236
-17.6672 263.951 1149.1 170 84 72
32.6813 313.713 1198.47 126 92 86
32.6813 313.713 1198.47 126 92 86
32.6813 313.713 1198.47 126 92 86
31.5986 423.364 1215.68 81 63 55
45.9342 410.83 1153.58 255 248 240
-168.027 -58.4933 204.776 37 48 41
-254.291 -66.7244 326.726 142 150 146
488.983 252.554 -1341.88 110 105 90
-90.5036 -66.2506 421.526 58 44 24
-108.152 -18.9058 131.7 132 139 130
412.443 20.7613 1683.66 107 112 92
-4.62931 58.6746 1120.74 255 255 254
-4.62931 58.6746 1120.74 255 255 254
-139.95 71.0474 1155.93 52 26 15
637.156 118.158 1706.69 156 141 117
60.4186 112.592 1180.45 154 105 82
68.2167 146.169 1191.92 162 112 87
68.2167 146.169 1191.92 162 112 87
537.438 216.025 1714.95 240 252 249
167.218 210.071 1330.66 247 255 247
-15.1455 205.418 1141.56 244 201 167
22.2633 255.213 1166.43 179 133 121
-15.708 320.213 1162.39 251 254 255
-30.8875 345.477 1155.56 80 55 46
-6.3311 431.502 1169.97 45 44 50
-6.41157 -186.574 763.053 38 32 24
-221.534 -60.5734 306.402 64 64 52
-111.23 -52.1728 343.218 77 73 73
-161.557 -46.0497 338.112 27 18 2
605.296 -12.6475 1706.32 144 119 96
10.159 101.115 1137.32 223 138 116
88.9501 121.695 1230.41 254 213 185
-124.707 257.058 1205.79 144 101 75
-124.707 257.058 1205.79 144 101 75
-127.603 437.433 1284.52 129 126 110
-208.514 -56.7182 269.836 127 140 133
-4.20674 -128.996 745.464 54 43 32
-294.077 -52.1098 503.986 128 137 131
35.1161 82.2807 1167.18 255 251 255
35.1161 82.2807 1167.18 255 251 255
-45.2404 148.355 1099.88 255 255 253
-66.3197 -36.6548 190.528 118 121 113
-166.705 -36.9992 215.255 122 141 131
561.412 -47.2317 1529.35 232 230 224
561.412 -47.2317 1529.35 232 230 224
-98.5361 320.314 1189.95 151 95 57
418.167 -11.7107 1514.74 55 44 32
-141.584 3.80826 1152.07 156 134 102
-82.3863 196.203 1134.61 80 61 37
437.494 441.781 1879.61 212 208 198
-129.992 -71.729 373.636 134 138 133
278.704 -123.339 1504.46 65 63 53
-142.877 -27.207 263.953 121 110 84
-142.877 -27.207 263.953 121 110 84
425.433 437.899 1845.77 213 211 202
337.484 -264.277 1286.88 181 181 173
337.484 -264.277 1286.88 181 181 173
580.314 -20.0206 1605.33 149 134 122
375.976 53.1267 1523.91 77 83 54
375.976 53.1267 1523.91 77 83 54
