-296.38 -731.822 2457.25 159 152 137
737.461 -343.802 1532.04 181 220 229
665.494 -302.172 1373.81 54 73 72
-629.017 -233.551 1723.14 108 89 66
-938.442 -337.503 2552.79 106 85 61
-938.442 -337.503 2552.79 106 85 61
-1034.99 -288.325 2231.4 70 70 67
514.771 -142.152 1372.76 45 22 6
545.731 -126.552 1440.82 77 39 35
-123.412 -115.731 1307.82 133 116 112
560.789 -104.98 1481.2 173 141 121
624.225 -42.9867 1416.87 248 233 224
114.082 -1.14474 1189.45 154 112 93
91.5454 4.93003 1191.86 255 229 219
782.775 76.9385 1626.49 227 212 196
613.693 117.063 1481.05 109 110 87
670.22 184.062 1614.19 87 116 124
57.0827 146.827 1183.64 251 241 235
644.312 224.979 1607.91 169 196 190
645.549 261.469 1659.53 202 240 253
645.549 261.469 1659.53 202 240 253
193.806 208.871 1265.97 247 219 203
-48.3806 226.937 1118.77 251 251 247
-133.24 268.061 1235.45 83 50 34
17.5773 411.58 1245.54 15 17 17
104.821 616.085 1405.32 125 160 153
-1204.53 -895.719 2708.91 49 52 47
-449.965 -597.894 2151.25 140 127 117
-190.612 -549.099 2280.71 96 108 103
601.757 -271.069 1362.85 178 171 160
692.902 -244.67 1405.52 34 47 44
-1067.92 -349.296 2589.11 65 62 60
621.452 -141.708 1296.85 175 176 145
757.582 -160.747 1491.43 240 255 243
757.052 -146.431 1477.25 141 160 149
595.758 -125.05 1414.4 110 97 69
-1222.73 -234.483 2654.55 152 149 126
543.497 -120.805 1368.18 254 250 244
691.235 -122.036 1452.34 203 202 189
691.235 -122.036 1452.34 203 202 189
-199.625 -45.3496 1131.05 163 141 120
2.77313 4.60903 1084.92 219 126 102
648.177 50.1423 1528.77 122 119 94
130.865 41.855 1191.77 255 248 240
-42.9341 40.5873 1055.41 255 250 243
560.754 75.1201 1442.11 77 67 61
138.045 60.1111 1222.82 255 249 245
588.319 185.057 1698 41 56 61
-94.788 136.001 1118.79 68 29 23
58.8105 144.954 1118.23 112 91 81
67.7838 146.117 1101.18 254 253 249
790.416 274.838 1749.11 233 239 239
31.3206 203.588 1187.33 255 246 229
-34.8317 234.22 1165.26 253 254 241
93.6966 237.062 1187.74 251 254 252
183.147 268.728 1296.26 221 154 116
110.777 271.559 1265.21 255 253 238
31.8918 279.015 1192.95 240 246 220
8.38319 316.202 1195.03 254 254 245
-36.5629 351.318 1201.65 254 251 235
6.8713 584.509 1364.47 76 95 86
-373.33 -804.165 2298.04 92 82 71
136.443 362.063 -1688.86 144 113 78
-1013.65 -541.96 2482.41 144 143 133
504.959 -321.148 1561.26 98 77 68
-819.428 -519.326 2674.85 141 152 139
-529.74 -495.714 2618.57 149 130 100
717.706 -255.699 1425.14 209 221 211
-641.666 -450.607 2557.92 140 120 99
-1584.52 -447.94 2733.38 61 79 73
539.907 -200.392 1367.62 140 136 116
632.913 -184.22 1441.66 230 218 198
-1105.7 -283.014 2552.28 74 52 33
547.672 -136.372 1407.23 84 66 66
41.4149 -55.5638 1126.84 203 139 102
583.943 -61.8818 1421.71 133 129 123
-173.978 -33.0091 1155.25 167 147 127
-73.3605 -27.0409 1007.87 143 108 85
539.869 -24.2168 1386.97 35 16 9
-68.1575 -16.8167 1006.11 217 196 173
-68.1575 -16.8167 1006.11 217 196 173
662.251 2.91059 1508.32 254 254 242
137.675 43.7993 1154.88 175 126 87
753.285 79.0939 1628.05 143 126 104
612.444 107.456 1510.21 113 107 90
603.86 121.458 1519.69 33 28 10
78.9496 116.594 1197.05 255 251 232
78.9496 116.594 1197.05 255 251 232
524.884 201.695 1476.07 73 98 101
748.662 230.58 1702.32 234 254 254
-75.436 184.183 1180.51 254 253 239
7.691 242.423 1088.07 96 59 59
-18.0402 393.5 1178.97 230 220 212
-1146.98 -724.19 2487.79 145 151 136
-1050.45 -594.375 2334.06 148 151 142
-1530.58 -346.657 2253.76 101 113 106
738.645 -194.751 1487.24 116 125 105
533.178 -160.41 1378.62 46 17 16
-1200.07 -255.125 2479.55 218 228 224
-1395.35 -232.517 2378.73 61 35 20
587.944 -84.6736 1390.95 250 255 251
24.9494 -22.6255 1108.01 250 209 196
693.88 21.2448 1508.55 251 252 235
662.904 96.6882 1524.46 111 97 87
726.293 165.321 1777.06 240 254 252
-47.3875 217.428 1129.28 156 77 54
11.4261 363.069 1180.87 64 57 60
11.4261 363.069 1180.87 64 57 60
-240.167 -593.206 1994.77 162 158 147
-118.67 -570.539 2151.18 134 137 135
628.182 -303.181 1371.67 192 213 210
611.742 -250.465 1344.51 94 70 70
556.087 -166.505 1370.9 252 253 253
75.3772 -108.54 1251.18 53 86 97
-44.2631 -110.38 1351.76 58 93 101
481.96 -53.8018 1485.19 94 101 85
-168.444 -8.30877 1145.56 71 45 28
-34.6899 16.1863 1104.03 255 251 255
768.308 50.6898 1593.45 135 128 102
-38.5625 66.3418 1068.02 253 249 247
-59.4824 79.5999 1068.49 255 254 248
-59.4824 79.5999 1068.49 255 254 248
35.3835 89.4378 1146.45 237 202 169
44.4517 122.514 1157.8 249 224 208
-17.692 226.891 1158.5 252 252 243
11.7831 259.93 1158.3 120 84 77
11.7831 259.93 1158.3 120 84 77
11.7831 259.93 1158.3 120 84 77
-57.1957 289.608 1129.38 93 68 63
-152.839 -593.685 2406.34 81 76 74
-229.027 -562.84 2376.67 75 75 65
-892.349 -513.451 2203.63 101 95 85
564.357 -286.593 1413.33 110 109 112
-1591.17 -345.058 2222.27 128 148 137
-1892.44 -331.954 2626.61 76 75 66
-1667.8 -291.186 2311.84 76 75 66
605.163 -153.903 1406.11 128 109 98
-230.848 -32.8303 1209.69 76 54 35
-106.252 -2.46282 1022.9 201 180 150
797.962 15.9219 1568.58 155 165 137
-206.445 22.4537 1167.67 97 71 53
100.381 137.696 1193.05 253 254 247
68.1647 138.617 1170.19 168 139 121
120.555 180.04 1210.9 251 255 255
-44.3275 -572.134 1971.69 123 120 118
448.305 -582.314 2186.76 45 35 25
-1034.2 -591.391 2372.74 134 145 140
-1034.2 -591.391 2372.74 134 145 140
-1210.82 -341.932 1894.92 131 148 139
-1210.82 -341.932 1894.92 131 148 139
-1466.63 -318.958 2041.88 123 144 132
-1298.24 -307.789 2168.07 113 127 121
-1746.94 -304.559 2424.61 76 75 66
-1746.94 -304.559 2424.61 76 75 66
26.5689 229.872 1173.11 252 254 252
26.5689 229.872 1173.11 252 254 252
-19.6214 357.797 1181.87 252 249 238
-942.848 -453.073 2261.63 133 145 138
676.23 -281.349 1422.3 92 87 85
-1009.92 -465.528 2616.41 95 77 61
-1009.92 -465.528 2616.41 95 77 61
-126.774 37.656 1136.53 70 51 36
10.983 36.2266 1106.05 251 253 249
10.983 36.2266 1106.05 251 253 249
-106.046 150.206 1137.65 102 80 62
56.6677 307.467 1199.55 175 194 148
22.6462 356 1234.9 95 75 75
-1174.36 -192.703 2195.3 67 62 42
766.442 -123.51 1595.11 249 247 236
766.442 -123.51 1595.11 249 247 236
551.005 -81.5794 1527.78 56 42 44
537.57 129.073 1767.3 167 156 143
748.106 164.691 1727.45 234 251 248
-195.746 -584.629 2065.71 138 138 131
-0.425664 -81.973 1110.13 91 123 129
503.211 28.0667 1737.61 76 64 57
503.211 28.0667 1737.61 76 64 57
599.568 271.112 1809.29 78 68 58
42.7019 -2.34253 1125.8 220 174 159
57.0022 107.044 1150.4 155 79 61
57.0022 107.044 1150.4 155 79 61
