249.027 -175.916 1926.58 111 101 94
197.944 98.3403 1807.12 155 137 105
-32.1591 196.143 1225.27 255 246 228
298.847 405.036 1989.61 180 209 196
-239.115 292.288 1199.65 65 22 8
-159.502 338.194 1182.21 54 27 28
-206.271 488.937 1181.76 18 13 3
-169.936 455.186 1087.87 205 201 187
20.0719 612.497 1365.02 33 28 25
224.391 -177.712 1820.52 191 200 200
-16.6027 46.1705 1207.33 102 47 23
-104.494 115.615 1057.02 255 251 244
-257.609 129.51 1118.47 45 2 0
-8.34999 220.456 1276.94 255 253 251
-8.34999 220.456 1276.94 255 253 251
-47.5404 394.942 1173.9 111 85 70
-34.8237 498.46 1207.98 23 28 24
299.844 -45.722 1869.61 252 251 245
311.357 100.622 1726.4 245 233 211
-355.862 82.496 1218.37 88 67 48
423.095 168.765 2001.84 163 164 141
-214.562 102.757 1075.68 106 41 35
-87.627 152.136 1117.98 175 163 152
205.662 323.581 1847.86 154 183 178
-14.0676 227.74 1248.27 177 145 125
-107.271 214.878 1111.06 254 251 255
-10.6679 243.054 1235.27 144 127 125
-10.6679 243.054 1235.27 144 127 125
50.259 296.266 1406.75 255 242 228
186.103 392.316 1832.43 136 156 148
201.525 483.494 1945.44 67 82 81
-80.6832 418.026 1157.35 252 252 251
-46.1232 481.539 1215.86 76 54 40
-63.7549 517.358 1202.81 254 251 240
299.081 -66.4229 1802.88 123 103 90
304.694 -25.2152 1793.98 146 130 115
304.694 -25.2152 1793.98 146 130 115
284.052 294.706 1862.34 221 233 233
259.57 390.128 1886.15 194 220 216
-63.8814 325.044 1177.27 251 251 241
17.2918 516.191 1340.11 83 81 75
-75.3909 496.208 1177.82 71 52 46
27.9439 174.493 1363.92 249 252 245
259.516 236.813 1655.55 75 57 52
-41.0963 193.626 1220.62 251 226 207
-65.6522 208.048 1163.42 255 223 191
349.557 375.551 2043.45 250 255 251
6.78008 241.659 1286.12 253 251 253
-78.5587 252.76 1137.95 248 212 187
-86.2143 333.602 1127.06 254 253 253
-94.0528 389.432 1114.54 85 47 47
200.486 -162.058 1890.69 210 191 182
-205.533 123.016 1088.51 43 39 33
46.6579 169.772 1322.74 53 40 32
-155.506 223.842 1106.47 69 57 39
-42.6083 437.897 1205.14 98 89 84
-338.282 90.661 1181.55 111 86 72
-104.518 197.247 1096 252 250 250
-68.929 405.79 1154.28 255 252 255
207.494 57.9459 1702.41 63 46 43
361.838 131.206 1908.42 213 210 188
-106.288 454.759 1156.49 50 45 43
61.231 132.834 1280.65 109 98 89
-154.167 253.077 1134.31 75 61 48
-141.044 106.573 956.575 58 39 32
-102.209 177.772 1078.81 255 248 241
310.728 352.392 1936.83 166 187 184
372.026 47.4442 1940.3 252 253 253
