-85.7469 -183.927 784.118 104 85 62
-8.47446 49.7211 -225.105 200 192 172
379.239 -172.082 1085.46 129 89 72
222.347 -170.668 1226.14 176 163 147
221.775 -133.745 1139.75 169 168 164
-311.663 -51.4587 1060.57 49 68 53
457.507 -16.2775 1057.1 179 176 153
404.99 -13.5098 1165.39 254 251 235
392.369 30.8734 1104.53 210 199 166
474.102 33.2155 1123.71 185 186 163
279.633 50.6103 1103.47 255 248 235
557.596 76.6747 1134.14 157 189 152
280.228 87.8405 1150.91 74 57 53
616.848 112.693 1217.62 234 248 235
584.583 131.976 1160.5 118 137 130
584.583 131.976 1160.5 118 137 130
485.151 140.957 1159.94 255 252 249
457.801 147.097 1093.93 254 254 243
-206.237 138.448 1013.88 144 119 95
-277.608 159.595 1022.29 242 230 207
-254.634 158.779 997.287 252 210 203
411.077 183.929 1159.08 160 163 162
545.687 199.233 1187.88 252 252 228
-257.587 177.768 1035.54 253 230 216
508.266 274.75 1204.79 152 169 162
-323.544 268.322 1148.2 90 83 73
-222.312 244.497 1009.31 255 233 218
580.252 373.826 1334.1 231 250 250
580.252 373.826 1334.1 231 250 250
-371.753 320.4 1136.43 107 105 100
578.623 395.678 1321.23 235 255 252
-275.856 337.346 1125.22 209 211 208
568.702 419.84 1361.32 133 159 159
-331.133 350.938 1131.31 255 244 240
440.644 426.091 1344.77 97 123 137
-413.566 376.95 1141.21 241 197 174
-396.671 384.484 1126.08 245 230 212
504.716 499.177 1396.95 101 141 146
-184.881 588.422 1291.08 54 68 67
-179.066 576.185 1244.6 166 196 190
-11.6057 39.7 -173.155 76 72 69
-27.1075 39.3404 -163.396 200 192 172
405.61 -216.117 1491.17 135 78 65
980.254 -169.859 1420.3 51 53 49
406.98 -73.4662 1008.96 209 207 188
401.904 -73.6731 1038.38 211 202 187
403.076 -65.5035 1026.07 105 105 100
-306.953 -67.3538 1186.42 51 64 59
-331.286 -43.1924 1120.36 121 130 128
-337.615 -21.4145 1128.58 120 140 140
-337.615 -21.4145 1128.58 120 140 140
379.648 -11.0893 1067.63 94 80 66
287.762 12.5587 1066.16 244 237 238
-278.768 37.6169 1014.43 251 233 207
-411.02 62.8891 986.497 142 119 103
287.502 85.1687 1114.65 250 241 235
287.502 85.1687 1114.65 250 241 235
-235.28 91.8056 1030.6 255 246 224
-226.063 109.161 1210.84 171 164 156
-383.609 108.021 1008.31 255 245 220
-491.74 131.259 986.182 22 28 23
-218.97 155.791 1063.69 255 247 213
567.949 204.577 1208.07 201 199 182
-199.235 220.827 1089.64 255 250 247
373.544 235.244 1103.67 144 133 119
-308.218 336.232 1126.93 255 253 251
564.348 429.591 1352.39 215 241 250
488.5 403.371 1223.44 215 242 247
575.376 455.79 1364.73 236 255 255
-394.814 414.971 1147.2 255 251 239
-211.359 473.207 1216.03 50 59 60
-251.802 -321.328 959.375 101 107 103
-22.7938 183.13 -757.808 186 170 150
114.323 -72.5516 493.912 224 196 178
357.383 -162.056 1080.16 104 53 46
455.742 -123.878 1006.86 213 217 210
498.106 -97.6827 1032.1 110 139 111
501.532 -66.2727 1021.65 246 254 250
537.409 -46.6198 1041.38 199 218 185
476.262 -9.81792 1067.47 144 140 111
434.04 8.81228 1107.32 144 122 100
432.879 17.969 1066.9 166 143 127
293.182 22.1578 1075.83 83 62 57
267.943 26.8856 1103.79 124 101 98
307.449 48.6818 1118.18 121 62 49
340.812 48.7607 1082.04 255 247 221
340.812 48.7607 1082.04 255 247 221
403.1 94.2449 1128.83 255 240 240
-241.512 91.1777 1006.26 183 131 94
-222.467 119.022 1234.67 87 76 71
-239.334 102.18 1025.47 165 111 83
388.333 121.186 1192.12 226 217 212
-270.374 110.893 1019.87 165 98 85
401.544 126.721 1145.71 255 244 233
455.078 131.061 1141.62 255 249 245
-447.072 137.397 1000.75 253 254 248
-250.117 157.574 1061.54 227 229 208
337.379 189.992 1197.15 103 93 75
-204.103 174.983 1078.75 129 110 90
-192.732 230.087 1209.43 75 46 34
-203.819 226.692 1071.71 215 140 94
-474.191 258.984 1050.07 252 254 232
441.526 347.369 1335.98 48 88 103
432.902 408.478 1337.18 65 102 107
-366.305 361.609 1128.22 165 138 128
474.429 443.335 1381.41 71 111 126
474.429 443.335 1381.41 71 111 126
-190.999 381.61 1152.03 233 145 112
295.226 -50.3844 1054.09 125 121 109
278.991 -18.1364 1053.91 248 255 252
553.365 -11.5516 1111.95 253 255 245
497.795 -1.44514 1090.6 254 254 236
423.283 36.0983 1093.12 207 140 111
423.283 36.0983 1093.12 207 140 111
380.988 41.8726 1098.48 144 114 87
356.261 62.9916 1116.67 146 80 68
-495.573 67.6016 982.063 103 85 65
290.259 89.3095 1106.25 211 203 206
-400.904 108.214 1015.85 209 130 104
589.655 141.4 1136.58 90 90 85
375.195 273.218 1194.75 130 127 124
506.999 499.434 1411.39 119 159 167
-381.392 524.336 1235.32 71 68 66
-124.776 -113.382 355.588 84 86 81
354.537 -177.848 1131.76 209 184 174
584.124 95.6923 1129.27 118 130 112
584.124 95.6923 1129.27 118 130 112
415.621 112.6 1141.83 108 84 81
455.779 149.653 1133.06 184 181 178
-356.624 262.34 1073.58 253 252 251
-347.882 322.132 1126.46 254 254 254
-387.9 356.722 1109.24 118 94 86
-446.382 364.509 1111.66 244 246 253
-203.884 -183.515 636.988 153 168 160
-125.521 -142.279 524.569 152 160 154
450.248 -167.257 1053.99 158 210 206
545.001 -126.857 1068.36 166 169 150
267.554 -6.97832 1131.45 88 69 64
486.413 19.5298 1108.45 167 158 121
486.413 19.5298 1108.45 167 158 121
-549.597 93.1958 1047.96 208 192 168
309.613 121.731 1135.25 253 255 252
-337.819 167.646 1013.5 136 87 67
549.482 241.635 1219.07 118 113 99
406.771 333.893 1302.95 152 185 183
-395.561 275.143 1062.77 252 246 229
-420.34 411.952 1155 253 252 255
-414.383 449.366 1143.8 255 253 249
-78.5312 -210.251 905.562 170 148 119
-271.938 -35.0653 1207.92 101 78 61
361.868 8.88635 1086.77 121 97 88
-247.004 277.318 1058.36 252 255 251
-377.009 329.029 1106.96 247 252 248
549.238 -5.16925 1096.6 248 255 248
-371.267 129.489 965.895 255 254 248
-444.411 171.15 1089.46 205 125 111
-333.179 407.815 1125.41 165 195 152
-174.666 -182.034 579.237 99 102 94
-174.666 -182.034 579.237 99 102 94
-37.8956 -128.437 508.857 189 167 144
-37.8956 -128.437 508.857 189 167 144
-176.606 -216.745 972.737 101 73 52
-278.412 31.7931 1025.79 252 221 186
-351.98 69.0362 982.007 237 197 182
430.074 95.4136 1124.81 142 122 114
-171.296 312.87 1266.13 123 93 84
512.191 -129.952 1035.02 134 168 127
-260.845 63.7025 1234.18 172 162 158
599.338 132.635 1179.03 107 119 114
519.923 351.101 1331.2 203 228 229
506.204 122.373 1146.94 252 255 250
-119.569 -99.5943 450.484 92 55 47
-276.256 376.511 1214.4 252 254 255
