748.703 -594.101 1760.21 133 131 117
-276.566 -638.502 1883.5 148 147 134
115.802 -653.063 2009.67 111 109 105
-99.2264 -100.902 310.526 120 132 125
-111.181 -593.654 1857.89 55 50 45
-351.733 -461.235 1459.83 195 209 201
-394.746 -476.609 1533.66 204 219 212
-390.584 -532.666 1727.66 37 45 41
-217.976 -776.518 2717.19 135 142 138
-617.458 -455.588 1884.57 95 73 54
-427.597 -428.388 1808.81 45 47 45
409.361 -280.459 1308.99 79 73 71
390.913 -258.72 1245.21 179 153 153
502.712 -157.056 1078.26 61 34 34
435.294 -90.4764 1146.92 152 146 149
467.825 -33.0517 1141.64 255 248 221
654.258 -26.9729 1174.96 196 221 180
400.875 -24.5193 1182.99 165 123 110
480.122 21.568 1171.38 91 62 58
-275.048 19.5528 1022.49 106 30 10
412.348 27.4498 1196.04 33 17 15
522.163 33.1047 1222.61 102 87 78
471.684 34.6854 1211 255 247 246
451.916 70.8695 1210.92 68 61 60
-202.757 76.4019 1013.05 112 89 86
695.431 107.35 1264.05 118 145 117
620.865 142.713 1328.98 187 173 148
552.478 143.898 1268.1 136 125 99
-46.8364 150.243 1112.21 246 222 202
506.388 232.952 1513.32 61 73 68
-104.053 176.945 1068.56 254 255 247
-179.258 176.325 1053.01 255 247 243
557.777 259.352 1335.77 206 231 231
-317.961 219.837 1058.5 146 128 104
-125.435 279.596 1119.2 251 254 250
-274.113 309.35 1094.95 240 206 186
-278.619 320.795 1047.42 251 253 249
-84.7002 429.116 1277.33 9 14 19
-84.6979 388.113 1145.24 13 20 26
-75.7634 563.628 1346.19 162 190 179
-76.4211 501.833 1189.83 176 212 201
-88.2323 512.844 1197.82 169 198 182
-567.155 -512.51 1521.99 65 73 67
-366.417 -521.925 1681.41 60 64 59
-269.816 -489.48 1789.14 139 139 133
-634.305 -508.531 2005.09 56 52 50
-634.305 -508.531 2005.09 56 52 50
-377.326 -429.984 1779.61 151 141 122
338.921 -257.373 1267.61 50 49 49
584.223 -160.135 1127.16 44 54 55
647.243 -138.348 1171.29 108 136 118
-213.285 -110.387 1188.74 119 125 121
434.41 -89.1885 1147.17 159 157 159
456.642 -75.8099 1122.68 141 135 123
407.479 -60.3756 1213.19 140 118 107
466.713 -39.5902 1157.88 92 73 57
513.236 -39.5727 1177.63 134 98 80
-264.837 -31.8793 1025.46 144 123 107
-219.478 -16.7832 975.463 247 225 211
541.952 -1.43499 1220.35 68 49 48
528.895 10.3631 1203.83 255 247 247
580.957 66.3873 1191.05 254 254 250
580.957 66.3873 1191.05 254 254 250
-279.808 51.9321 953.952 255 243 242
-242.659 54.1352 990.401 255 243 224
-320.616 56.5945 981.094 118 95 98
-88.9097 61.6582 1059.72 143 81 61
-329.788 67.0227 960.515 110 98 99
464.588 114.327 1262.46 187 167 149
-107.53 132.343 1065.79 36 1 0
-107.53 132.343 1065.79 36 1 0
-167.136 141.683 1038.91 61 19 0
486.759 238.368 1441.94 60 71 68
-154.948 190.29 1059.64 252 254 239
523.103 248.302 1283.49 14 39 67
-228.322 245.864 1073.64 255 248 240
-18.1701 275.561 1151.23 222 191 174
-145.377 278.196 1050.8 94 79 60
714.808 411.417 1506.57 249 248 249
-246.669 371.746 1128.11 34 26 26
-246.669 371.746 1128.11 34 26 26
-239.553 413.533 1160.56 20 8 10
-88.3243 507.443 1206.46 22 21 23
-304.332 -627.982 1838.05 65 60 52
-93.2971 -513.943 1659.46 148 151 143
-93.2971 -513.943 1659.46 148 151 143
-394.081 -420.777 1376.54 162 176 171
-490.408 -451.219 1718.81 48 48 42
-416.673 -601.667 2316.33 125 133 129
-410.044 -489.643 2134.27 93 72 50
-716.766 -192.312 1031 2 4 2
408.547 -179.442 1090.19 126 120 100
443.166 -86.5587 1137.92 254 250 249
441.834 -48.517 1156.72 155 157 131
417.503 -43.2089 1162.66 254 250 244
455.161 -24.2238 1154.12 109 62 46
-204.048 -14.6419 944.641 78 43 27
-187.424 -13.9432 937.641 181 113 88
576.772 46.5124 1225.7 253 248 236
-99.8209 45.5441 998.929 249 243 238
695.156 70.914 1234.41 62 76 57
-182.395 66.0838 1043.99 255 240 233
-157.61 68.3842 1038.84 247 202 181
-284.801 93.2898 995.311 251 239 234
-231.752 94.3713 1001.54 174 98 78
-271.799 101.054 1000.29 227 190 184
-325.171 140.415 990.63 247 252 254
639.116 202.666 1323.43 222 242 240
516.101 223.13 1413.28 44 34 28
543.914 258.959 1405.22 30 59 80
-326.327 197.337 1051.33 255 255 236
659.759 357.873 1435.66 227 246 242
-287.526 272.66 1055.66 146 108 110
-204.097 277.735 1063.46 186 126 122
-43.9297 306.385 1150.83 195 106 59
-243.221 346.386 1133.59 253 248 238
-715.033 -522.552 1799.58 61 58 60
-586.427 -575.779 2546.83 198 200 198
639.184 -195.357 1111.26 188 197 182
325.201 -220.887 1355.96 41 40 24
419.831 -43.4386 1168.26 254 250 244
-199.775 -15.6832 1031.66 147 97 65
-157.602 -8.08263 994.932 79 34 31
709.486 8.29446 1250.51 99 110 97
589.207 206.289 1345.28 233 253 249
-40.5689 197.889 1132.51 255 251 237
-220.8 219.032 1041.2 132 51 45
601.683 365.574 1375.26 204 234 231
601.683 365.574 1375.26 204 234 231
604.617 404.427 1495.48 124 154 169
-107.361 380.298 1118.56 250 251 247
-119.939 369.062 1066.98 255 253 250
-260.086 393.177 1090.28 83 60 55
89.9792 -482.465 1406.43 111 111 103
-62.789 -27.3079 84.9298 143 154 147
-96.5664 -513.281 1577.85 76 74 70
-790.609 -496.493 1882.32 63 63 55
-790.609 -496.493 1882.32 63 63 55
489.786 -204.243 1099 6 10 9
489.786 -204.243 1099 6 10 9
566.595 -48.4846 1171.3 251 252 252
566.595 -48.4846 1171.3 251 252 252
440.179 38.1872 1196.31 235 237 238
440.179 38.1872 1196.31 235 237 238
-346.747 60.8343 969.791 85 59 50
-346.747 60.8343 969.791 85 59 50
702.499 154.478 1372.24 118 114 99
702.499 154.478 1372.24 118 114 99
469.749 203.312 1298.15 66 57 57
-195.366 191.058 1057.01 244 244 225
-226.718 279.897 1058.87 116 86 82
-292.214 295.967 1083.63 227 228 231
-239.905 406.637 1162.16 66 63 62
84.7295 -659.08 2251.06 164 142 112
-650.354 -450.924 1560.62 133 146 140
-512.17 -462.928 1801.53 56 53 43
349.196 -219.81 1206.06 152 149 157
499.204 -73.3696 1172.03 104 89 76
600.764 -62.6604 1182.18 161 159 121
600.764 -62.6604 1182.18 161 159 121
-343.662 86.5332 991.841 231 219 211
-189.205 103.861 1040.25 102 54 43
-179.328 135.789 1050.36 133 83 77
-179.328 135.789 1050.36 133 83 77
-266.1 141.95 1008.35 219 177 138
-90.0017 154.734 1080.41 186 136 115
-241.839 236.24 1057.79 140 103 84
-298.591 -541.585 1874.58 100 75 59
-548.48 -465.929 1721.39 124 131 125
-484.836 -437.668 1704.49 71 64 56
427.556 -86.228 1144.26 189 190 187
673.762 -89.7074 1201.24 247 253 249
-177.482 72.2337 1043.95 215 203 190
-888.193 -235.175 1254.13 70 83 77
-144.009 -68.9274 1019.4 45 82 90
559.368 11.5042 1215.83 137 106 95
708.229 115.198 1288.43 116 142 112
-259.585 92.5345 1010.47 188 95 87
-321.602 124.903 1001.07 250 254 254
-321.602 124.903 1001.07 250 254 254
-321.602 124.903 1001.07 250 254 254
-46.8231 191.444 1095.75 228 209 190
-220.689 263.291 1106.67 249 231 223
-625.304 -503.646 1597.64 80 79 70
-625.304 -503.646 1597.64 80 79 70
-261.812 -466.112 1877.73 179 156 135
-261.812 -466.112 1877.73 179 156 135
-468.213 -366.938 1670.29 73 60 39
328.486 -195.216 1300.87 68 58 49
-229.905 70.7039 1023.33 248 228 219
465.593 -194.057 1136.77 44 37 38
-203.193 -87.5937 1212.8 50 74 81
529.614 339.528 1594.95 95 87 78
24.0342 552.087 1404.69 182 182 175
-213.74 -77.362 1148.08 64 88 89
-496.192 -320.979 1466.14 70 46 38
488.948 -154.43 1056.16 74 47 47
344.403 -123.237 1131.29 62 51 50
-199.111 146.999 1057.83 238 214 187
