208.828 -263.341 1071.79 198 178 162
-8.90162 -165.436 690.456 33 15 11
-91.3222 -15.4612 82.5521 17 23 18
-201.445 -98.3625 568.618 69 58 41
-258.712 -124.581 876.152 132 134 132
497.122 -132.732 1645.01 27 14 8
471.847 -56.7757 1609.82 168 149 136
156.577 27.3631 -365.319 60 54 32
547.322 -39.1436 1645.07 254 238 218
-578.054 -6.88562 857.644 165 152 129
474.756 142.011 1797.1 38 23 9
138.407 104.898 1290.29 255 246 228
-7.75134 96.0942 1156.73 255 248 241
-65.8268 105.575 1129.49 141 39 21
583.379 213.364 1778.61 107 102 88
503.606 327.642 1822.4 171 203 197
-216.038 256.991 1358.54 60 26 15
13.0309 232.326 1176.23 251 233 211
121.453 332.196 1343.6 184 181 176
121.453 332.196 1343.6 184 181 176
-88.3051 559.106 1492.75 15 13 10
-28.3654 481.891 1233.25 34 21 13
19.3321 472.801 1208.07 14 20 19
94.1408 604.402 1345.88 192 220 207
-255.908 -119.625 787.38 148 144 135
520.685 -183.067 1602.57 61 61 58
-307.111 -67.3023 553.525 129 139 132
-595.689 -105.865 963.803 132 140 134
-393.54 -67.0827 612.346 53 57 51
-345.578 -54.7671 567.509 95 105 98
-201.052 0.308845 240.385 130 144 136
-897.217 -179.675 2157 157 132 110
679.846 65.1001 -960.123 65 88 77
348.466 -114.649 1874.84 88 81 69
688.195 -107.198 1776.63 253 255 245
688.195 -107.198 1776.63 253 255 245
-912.602 -77.395 1209.8 111 127 118
-447.436 -33.0261 606.695 47 63 59
-356.927 -26.3359 481.981 122 137 133
636.916 -76.5351 1649.88 229 238 227
-400.598 -23.929 499.211 109 129 121
-508.928 -29.5085 652.907 27 50 39
633.104 -63.598 1753.52 255 254 230
-428.989 -14.242 551.985 42 60 53
536.215 -8.86125 1626.75 251 247 249
536.215 -8.86125 1626.75 251 247 249
-390.32 1.75478 524.608 80 75 60
480.717 53.2274 1569.44 37 17 13
134.206 66.4926 1300.63 255 249 230
135.479 75.6184 1233.55 187 129 114
75.9379 86.735 1254.89 255 252 244
59.435 168.107 1173.87 252 247 233
-69.853 187.662 1124.46 208 178 163
588.896 424.4 1876.97 143 172 174
-79.2748 282.626 1181.49 61 30 25
141.905 421.388 1383.9 182 179 128
137.399 421.3 1373.08 178 177 138
150.951 427.762 1382.48 255 255 230
-135.303 409.642 1239.05 83 48 28
-54.561 417.444 1264.46 64 45 31
153.571 586.916 1422.82 232 230 222
384.658 141.951 -1311.93 138 108 76
-457.979 -59.7738 643.697 61 68 61
-533.559 -55.2378 668.107 26 46 42
667.252 -117.973 1772.25 124 130 103
667.252 -117.973 1772.25 124 130 103
661.626 -51.2668 1763.23 253 254 244
-397.654 -6.85782 567.25 59 46 26
85.2364 5.20117 1203.81 94 38 33
-254.838 25.9003 1302.1 79 65 48
391.756 93.3839 1629.94 130 136 117
-44.6738 82.2372 1110.72 251 255 247
539.722 298.803 2009.31 159 192 183
-46.5026 178.486 1131.74 248 253 254
-46.5026 178.486 1131.74 248 253 254
499.586 339.199 1859.3 94 119 122
606.923 362.427 1922.21 243 254 253
72.2478 300.511 1259.97 203 190 190
28.3882 382.752 1226.76 255 253 249
-12.7056 377.744 1182.26 251 254 255
-135.016 589.13 1634.8 10 7 6
-463.425 -161.481 610.721 135 138 129
-204.186 -47.942 250.002 145 156 147
8.34233 22.8669 -117.426 128 130 126
-330.417 -76.0554 445.647 149 156 145
-330.417 -76.0554 445.647 149 156 145
407.644 -176.557 1637.64 22 16 10
-470.024 -64.6623 775.976 132 144 137
561.883 -126.662 1649.9 102 83 69
-732.373 14.6035 996.303 38 48 35
678.215 141.323 1823.3 150 137 114
678.215 141.323 1823.3 150 137 114
-17.1622 96.2161 1119.9 253 255 251
517.49 201.187 1659.78 47 39 32
532.124 333.85 1815.13 182 209 202
-15.661 278.296 1166.81 154 97 78
26.7149 414.575 1332.46 253 252 253
34.2072 444.68 1245.2 79 64 67
-187.437 -61.6459 227.573 56 55 52
-187.437 -61.6459 227.573 56 55 52
-450.503 -156.999 578.172 52 61 51
-450.503 -156.999 578.172 52 61 51
-394.539 -63.7381 555.189 139 146 139
433.066 40.646 1777.97 113 112 105
-0.0458424 70.7245 1157.14 242 255 255
579.716 255.262 1882.89 214 230 228
-89.7204 185.008 1159.64 81 57 45
176.327 229.609 1377 255 253 245
24.9085 269.555 1192.8 159 104 105
24.9085 269.555 1192.8 159 104 105
-28.2729 361.09 1177.93 77 54 46
-130.942 469.365 1351.32 136 132 120
57.4512 461.191 1270.09 252 252 234
-190.527 -85.2955 585.966 65 71 65
-239.532 -55.2568 410.204 84 90 85
-239.532 -55.2568 410.204 84 90 85
-239.532 -55.2568 410.204 84 90 85
-240.361 35.0893 1257.02 108 86 66
14.3014 113.728 1179.26 219 142 116
-8.89768 151.592 1149.43 245 204 185
467.203 282.452 1864.84 106 122 138
467.203 282.452 1864.84 106 122 138
115.03 203.392 1291.15 253 254 252
48.8611 294.077 1223.34 255 252 254
-4.72261 -150.381 913.85 52 44 38
610.554 -209.357 1694.19 106 104 97
117.933 -27.0057 1267.95 249 210 179
536.871 224.649 1641.73 235 245 237
-546.589 -121.91 784.804 122 140 133
-546.589 -121.91 784.804 122 140 133
463.402 -225.699 1723.92 202 172 167
255.809 -254.835 1176.14 179 175 160
-143.255 13.1594 1183.69 155 132 109
285.964 -114.227 1560.07 70 63 55
-487.767 -21.7254 768.553 144 134 108
-487.767 -21.7254 768.553 144 134 108
628.058 69.3887 1748.13 203 205 191
394.156 132.812 1928.09 40 32 24
459.24 -133.222 1634.48 55 47 45
459.24 -133.222 1634.48 55 47 45
-131.195 104.046 1038.22 183 149 130
-124.442 278.737 1274.05 135 96 80
440.092 77.0276 1777.19 79 87 56
440.092 77.0276 1777.19 79 87 56
