808.371 -287.685 1627.71 192 189 186
-762.848 -123.841 1167.4 137 150 143
107.323 -139.238 1747.56 25 22 6
371.411 172.809 1862.95 79 68 65
89.7126 189.901 1258.33 255 251 239
-136.609 179.229 1165.78 58 4 0
68.4676 333.326 1244.83 101 82 74
-54.7007 320.557 1176.59 170 149 140
-111.818 363.643 1228.17 53 22 15
56.2295 474.169 1259.1 165 149 130
38.6504 617.97 1295.24 166 206 191
491.095 -240.362 1143.55 37 36 35
491.095 -240.362 1143.55 37 36 35
491.095 -240.362 1143.55 37 36 35
-475.662 -129.272 770.489 47 53 52
-517.495 -114.349 856.901 131 141 134
-508.214 -115.298 852.243 32 42 35
-729.545 -147.977 1083.99 135 145 137
-226.828 -47.7453 360.462 141 153 146
-872.295 -144.956 1435.75 98 109 109
449.423 -108.628 1897.11 169 161 130
-92.5098 -38.418 1388.62 151 166 152
-92.5098 -38.418 1388.62 151 166 152
-236.083 48.0218 1135.39 65 44 23
412.761 106.593 1773.9 255 254 234
-150.004 87.7129 1145.93 49 5 0
461.192 206.148 2008.12 232 227 211
105.919 178.264 1306.67 251 239 228
101.485 189.531 1294.29 165 148 132
123.016 232.699 1292.84 255 253 241
123.016 232.699 1292.84 255 253 241
111.487 234.459 1316.57 196 170 150
384.395 437.98 2016.78 176 192 190
-51.9549 473.766 941.122 44 44 47
-955.07 -283.193 1549.69 7 5 3
389.276 -229.048 1810.56 215 230 233
405.78 -130.338 1720.63 123 120 104
343.767 -84.6334 1717.06 38 15 6
361.946 -71.7392 1747.15 254 249 249
478.16 144.616 1997.32 167 160 134
-18.4299 101.817 1109.88 94 16 4
-1.39423 137.469 1121.24 137 21 24
-16.654 194.406 1148.8 230 196 179
125.408 238.391 1317.6 255 253 241
49.1373 294.964 1218.54 254 254 243
-202.67 350.136 1275.62 34 27 21
31.8962 386.655 1190.27 251 252 253
122.897 636.973 1438.26 251 252 238
1003.35 -402.82 1891.15 124 126 126
-495.751 -79.5698 739.802 125 136 130
68.173 102.873 1224.39 255 253 255
55.6614 114.221 1204.94 228 151 124
41.0948 123.075 1180.91 253 253 249
348.047 197.139 1704.33 62 39 26
73.631 152.294 1235.57 243 232 217
82.3711 187.952 1250.18 241 234 217
89.1339 228.597 1289.65 252 250 253
34.5711 339.56 1200.78 253 252 253
74.8508 360.953 1274.02 154 122 106
411.637 48.4765 1765.07 252 251 249
9.39536 109.375 1124.45 255 252 254
366.978 243.022 1888.44 241 255 254
-70.12 301.319 1229.13 57 32 31
27.0658 303.252 1174.35 251 251 252
-48.7501 332.086 1176.33 144 133 130
15.2733 356.549 1125.45 61 29 23
71.0491 419.188 1291.86 114 104 98
441.088 -212.897 1933.3 134 117 105
-595.082 -103.67 994.225 59 65 62
440.569 -34.4019 1878.91 238 237 228
-193.642 66.3858 1197.98 164 104 82
-95.6035 83.2501 1128.99 53 38 35
-18.3057 120.145 1131.68 195 149 124
-54.9154 -38.3801 1305.5 57 107 118
-36.8931 129.002 1132.26 185 130 108
-36.8931 129.002 1132.26 185 130 108
11.8884 162.383 1136.38 255 251 255
11.8884 162.383 1136.38 255 251 255
137.829 206.841 1388.26 253 241 245
-101.074 285.476 1203.45 155 125 94
-101.074 285.476 1203.45 155 125 94
-471.151 -123.709 834.785 111 115 110
-471.151 -123.709 834.785 111 115 110
-541.901 -110.982 936.221 59 66 64
-117.633 13.2822 1134.59 176 146 116
-108.877 214.876 1186.47 166 97 59
37.272 -14.6102 1130.54 65 105 113
-49.8901 18.114 1175.38 174 139 116
139.598 -124.062 1789.3 53 42 36
-79.7109 362.441 1225.86 166 118 75
-699.597 -156.51 1081.92 121 134 128
304.263 -123.269 1714.06 60 46 42
434.901 -14.0898 1865.24 222 217 210
-204.757 121.387 1232.93 79 47 34
-164.708 374.772 1281.26 80 58 52
71.7454 68.2238 1267.43 255 246 230
275.49 -79.4707 1794.15 54 27 20
-123.509 167.127 1093.96 149 107 90
