147.812 -633.378 2183.79 219 211 202
173.837 -745.488 2563.38 219 211 202
206.715 -105.637 929.338 82 51 40
206.715 -105.637 929.338 82 51 40
341.851 -84.888 833.437 175 174 164
235.747 -82.6701 874.883 211 235 233
-380.6 -46.6486 1039.2 153 171 178
-291.263 -29.4088 1039.33 143 122 99
-321.255 -24.3875 989.223 65 46 26
337.919 -9.47095 816.498 128 130 115
-339.419 1.09006 979.029 167 150 116
-432.854 5.86719 933.41 77 62 42
-450.964 24.6538 961.976 255 242 224
-340.948 46.2487 1002.37 120 73 38
-358.577 70.3447 969.273 255 248 248
106.9 74.6638 929.978 255 249 253
111.364 89.109 939.791 231 219 211
161.955 93.6514 957.42 177 157 133
327.355 88.5571 902.528 12 14 8
274.573 94.2529 899.695 158 150 124
338.605 123.857 903.353 202 234 196
-256.014 214.665 1125.67 101 67 47
360.015 180.492 899.695 50 67 62
225.644 192.406 949.846 157 136 90
374.095 216.255 920.139 250 254 247
-384.224 292.214 1017.23 238 254 223
270.623 319.365 1053.79 148 170 165
270.623 319.365 1053.79 148 170 165
-453.781 336.593 1086.16 250 249 245
-453.781 336.593 1086.16 250 249 245
356.615 346.003 1038.06 211 240 238
-417.229 385.469 1109.5 30 30 25
354.249 376.412 1036.62 56 91 91
373.148 404.85 1093.61 218 242 240
324.609 407.276 1078.61 219 254 252
-273.465 499.954 1273.51 124 164 150
304.602 474.784 1152.58 121 153 155
304.602 474.784 1152.58 121 153 155
266.124 -675.951 2183.15 80 57 50
316.241 -104.959 857.299 49 83 86
127.925 -94.9311 961.144 123 113 115
93.4595 -73.8484 903.614 37 31 21
262.914 -60.1663 794.201 31 32 35
-400.093 -73.1218 1061.19 69 63 59
273.743 -41.0737 809.687 242 243 238
-308.62 -39.1234 1052.59 122 103 90
-308.62 -39.1234 1052.59 122 103 90
336.377 -27.6227 814.637 227 231 216
-317.314 -22.989 1008.96 132 114 94
340.461 -8.39704 852.212 115 132 101
-350.724 4.46381 925.856 204 189 169
271.993 21.612 906.229 74 57 42
-307.686 39.7302 989.58 158 142 130
-496.773 54.0229 913.617 249 240 224
-537.042 60.2738 960.151 249 253 243
-327.458 65.7128 966.497 255 249 232
-358.469 78.4665 965.595 178 118 111
-358.469 78.4665 965.595 178 118 111
-347.668 83.7245 959.154 254 251 247
203.623 81.5093 892.544 194 183 144
356.324 81.8459 863.544 242 251 234
-314.755 121.053 992.083 254 238 205
302.083 119.125 916.566 255 255 229
219.846 138.142 942.39 254 245 245
219.846 138.142 942.39 254 245 245
-245.851 178.579 1167.58 47 16 6
-349.879 172.518 1003.84 192 178 170
369.122 166.572 917.104 236 244 228
-264.076 188.929 1024.82 70 57 29
352.898 173.484 913.639 92 108 91
232.071 182.333 954.128 255 254 231
232.071 182.333 954.128 255 254 231
139.01 201.421 971.981 65 56 40
221.614 209.768 949.558 140 133 118
-492.051 254.538 1095.11 251 254 251
-219.002 301.248 1176.27 17 19 15
-219.002 301.248 1176.27 17 19 15
-227.007 305.01 1111.69 189 182 172
-277.482 293.198 1079.53 254 242 239
285.302 268.893 967.168 156 143 125
-349.684 304.124 1045.14 249 253 237
377.963 312.22 1066.95 184 203 198
-256.744 347.721 1074.36 253 248 239
283.39 432.48 1158.57 55 82 88
346.507 422.231 1092.98 234 251 255
299.176 449.829 1109.68 206 237 235
-310.177 -10.466 975.792 51 37 30
-317.112 -4.45966 971.992 158 132 111
-311.153 -0.222553 919.223 41 25 3
-420.393 19.5009 926.17 194 143 121
204.914 47.3345 894.893 97 72 64
-456.955 60.4211 951.617 212 142 115
-470.588 73.8426 899.104 255 252 253
345.455 73.021 852.677 164 182 147
148.907 76.3309 832.081 106 90 58
-345.305 101.431 973.564 253 253 243
345.28 107.032 880.887 236 243 237
-355.146 157.323 979.702 238 225 204
358.882 161.588 927.46 103 124 113
257.555 172.408 930.622 255 249 232
-393.839 239.87 1114.53 254 252 252
299.015 211.062 909.751 254 255 244
340.218 223.392 929.686 253 253 237
-244.749 317.054 1087.46 177 160 152
248.522 334.089 1076.77 87 122 138
-253.495 353.677 1109.99 49 43 38
395.991 392.187 1088.86 181 207 212
-419.588 434.916 1149.82 234 235 228
326.511 412.478 1069.5 64 102 120
326.511 412.478 1069.5 64 102 120
-10.8858 -645.439 2169.66 104 47 38
119.842 -127.519 1020.26 76 75 59
265.276 -112.155 908.098 213 193 191
98.1007 -74.935 934.951 53 48 36
-325.967 -19.0257 997.023 66 52 35
259.238 -6.88704 817.713 74 67 70
125.481 5.50532 873.648 119 113 95
-462.513 20.2552 906.709 230 218 200
-281.65 26.6105 1110.47 170 143 123
-535.851 29.691 917.187 217 209 188
-535.851 29.691 917.187 217 209 188
114.338 31.9086 894.66 254 254 255
199.539 91.1262 913.606 138 92 62
199.539 91.1262 913.606 138 92 62
236.545 91.1442 894.874 201 110 82
236.545 91.1442 894.874 201 110 82
320.426 110.687 911.853 252 254 249
-325.45 119.514 977.062 192 132 91
161.131 112.996 916.784 255 252 251
135.989 148.722 947.791 230 232 232
219.738 188.052 940.85 204 180 131
326.913 237.43 966.374 191 183 129
-259.576 320.529 1092.16 126 75 49
222.484 -109.216 943.523 202 179 165
163.867 -54.1068 848.749 31 25 25
-479.524 91.3337 964.57 202 132 121
222.713 152.882 937.098 77 53 45
-271.646 218.457 1014.49 129 100 83
-484.051 223.14 1000.04 252 252 253
-486.15 305.01 1096.44 251 255 254
-484.224 340.699 1104.27 252 254 250
-439.491 344.017 1075.64 93 88 86
359.613 363.136 1057.03 200 227 224
359.613 363.136 1057.03 200 227 224
272.275 -77.587 834.457 142 188 176
-310.199 -88.5057 1063.8 154 136 115
204.079 -61.288 881.524 49 41 33
-292.283 18.9659 1064.52 59 45 48
390.416 187.031 935.375 110 105 93
326.489 -79.5003 827.96 57 109 142
-298.64 -0.752291 1035.4 151 140 121
-280.911 45.8611 1088.3 170 144 126
185.371 61.7104 912.933 102 78 62
217.252 109.855 927.657 221 186 166
-524.536 116.864 982.126 248 249 253
-524.536 116.864 982.126 248 249 253
346.678 302.844 1008.42 167 195 197
-329.451 53.0212 918.534 239 214 175
257.422 97.5182 905.153 236 235 227
-449.601 101.976 916.799 199 130 102
-225.966 226.361 1206.42 66 51 47
320.015 -46.3125 883.959 143 179 152
-354.298 10.431 935.306 247 221 190
343.62 69.6571 869.013 205 212 196
-207.346 162.117 1219.92 175 165 145
-314.742 144.989 977.492 226 187 147
-203.769 161.43 1225.58 177 168 147
-554.654 -544.979 1788.03 93 96 91
305.52 353.135 1061.73 200 227 220
-672.793 -441.706 1838.74 26 23 22
-341.56 434.209 1139.24 75 80 75
-277.293 120.705 1077.59 78 58 50
