678.65 -259.313 1490.23 138 120 115
733.419 -249.447 1519.19 176 172 165
-447.409 -173.686 1105.54 40 46 45
-447.685 -155.948 1009.8 33 45 42
787.641 -205.054 1457.46 182 201 188
-690.953 -255.06 1820.17 59 56 45
-473.468 -165.947 1239.2 174 161 140
-425.431 -125.001 946.016 44 32 18
-674.86 -271.657 2059.36 160 149 123
680.226 -163.606 1472.08 242 226 197
560.127 -84.7506 1711.14 30 29 18
-39.0112 -36.7481 1148.71 45 17 22
632.645 -41.0864 1579.27 116 95 93
-9.24563 31.7775 1178.15 199 179 169
110.567 38.7899 1242.09 232 205 174
821.163 69.7239 1683.64 254 254 225
-52.1559 117.188 1249.86 252 234 210
111.139 153.364 1280.84 255 246 220
928.436 270.977 1892 171 182 182
-78.9041 179.982 1240.06 148 100 70
-78.9041 179.982 1240.06 148 100 70
88.5249 184.806 1209.26 71 61 56
641.854 298.316 1572.83 18 47 66
-7.53183 231.905 1192.51 255 245 240
-7.53183 231.905 1192.51 255 245 240
-108.219 267.849 1177.85 124 46 23
19.7909 324.777 1263.99 128 100 84
-69.2047 387.491 1235.52 86 71 58
72.544 433.003 1374.69 85 75 64
61.4671 450.175 1406.56 82 68 61
-98.8591 395.045 1230.13 241 228 216
-98.8591 395.045 1230.13 241 228 216
-903.536 -466.873 2155.77 173 188 180
658.126 -323.005 1540.7 106 64 51
635.208 -328.268 1582.1 226 198 199
614.591 -335.569 1636.41 218 195 175
625.618 -283.392 1498.93 31 11 11
830.861 -291.086 1546.13 192 224 197
778.612 -260.81 1428.1 121 145 125
-335.891 -160.092 980.361 55 53 49
704.948 -231.019 1474.04 91 84 67
840.562 -241.838 1544.9 226 239 222
-164.645 -55.3375 394.253 167 149 127
-164.169 -94.5879 1373.9 70 49 33
-548.373 -48.0298 740.288 105 112 106
847.717 -90.0461 1543.68 155 186 162
882.776 -28.8433 1585.29 99 103 88
739.107 -17.7787 1587.05 246 229 213
809.851 -19.1055 1638.9 254 252 237
658.87 7.29336 1609.12 36 12 5
775.838 13.5004 1645.19 197 198 168
68.2981 29.4244 1221.43 169 114 102
74.6372 49.493 1241.89 189 125 105
74.6372 49.493 1241.89 189 125 105
90.1567 76.0899 1231.96 255 241 215
11.138 78.9516 1194.76 255 228 208
-154.657 71.5722 1065.89 124 87 73
94.1341 94.9078 1226.37 253 252 225
718.573 149.312 1627.06 149 142 130
682.653 154.893 1541.24 98 100 79
82.7671 154.124 1269.29 194 177 170
26.1985 148.491 1171.85 255 244 224
678.062 236.831 1834.21 37 45 56
743.74 233.371 1723.28 215 251 255
689.493 276.531 1765.16 143 170 170
749.118 289.193 1751.21 153 179 185
-130.605 213.404 1177.13 113 81 45
889.956 347.934 1851.28 240 255 255
-127.4 240.827 1162.57 148 124 92
-126.228 259.71 1130.79 243 241 234
-18.6178 309.674 1243.01 194 143 134
-66.3361 311.44 1213.6 240 216 209
-103.525 366.231 1209.55 244 240 236
-80.5473 381.045 1225.54 249 238 226
61.5474 547.35 1578 33 42 44
39.1505 473.348 1351.03 13 21 28
-93.8763 475.59 1279.97 152 138 123
-96.6967 603.502 1461.41 46 39 38
30.246 -629.008 1839 150 149 146
-623.294 -489.747 1985.89 145 150 140
-275.094 -269.571 1207.26 150 155 148
672.737 -298.689 1530.82 36 38 38
798.883 -268.239 1460.09 126 146 126
-218.899 -61.99 340.899 121 131 124
-334.035 -149.724 902.269 122 132 125
717.415 -218.25 1497.17 191 177 159
612.659 -196.637 1419.85 118 118 103
622.306 -206.914 1527.16 136 132 118
-554.27 -189.765 1407.77 227 228 223
-554.27 -189.765 1407.77 227 228 223
-798.945 -251.736 2074.69 45 49 46
-654.485 -185.838 1672.19 139 139 130
841.055 -145.828 1540.9 241 253 238
-589.585 -63.0188 779.319 2 3 1
650.436 -106.616 1475.76 118 109 85
612.653 -105.08 1485.79 242 225 223
-226.346 -14.2149 268.24 5 4 2
-14.4758 -28.4091 1141.08 211 131 85
821.898 -19.3572 1661.55 254 252 237
550.686 -8.80785 1398.22 132 119 117
785.694 8.98931 1595.64 164 164 153
672.959 26.119 1550.83 171 173 149
81.7265 36.6005 1251.92 255 244 228
897.875 67.4856 1698.66 252 255 230
-151.561 59.7644 1063.87 238 245 241
-106.287 73.0206 1103.68 238 235 229
683.073 171.659 1645.86 43 37 32
658.798 275.524 1728.49 74 99 101
825.198 307.309 1774.57 215 242 243
-138.18 215.221 1156.61 255 254 233
-126.379 293.183 1220.65 252 253 254
-105.184 310.119 1226.47 142 114 93
-48.0174 369.295 1242.77 255 251 240
-71.4243 410.898 1266.65 255 251 241
-325.959 -295.118 853.421 18 23 12
-325.959 -295.118 853.421 18 23 12
-320.941 -274.597 840.831 146 151 143
-407.951 -313.666 1110.69 145 150 138
-735.288 -267.736 1215.3 47 58 52
669.091 -293.064 1445.96 28 35 31
782.749 -275.484 1410.06 202 216 196
801.318 -219.415 1512.43 77 89 78
-733.729 -192.449 1497.79 56 28 22
604.468 -154.891 1511.22 32 11 1
811.597 -145.208 1575.38 170 170 134
811.597 -145.208 1575.38 170 170 134
-252.039 -16.7015 345.716 63 67 58
747.282 -75.3574 1683.59 244 244 245
616.911 -48.2996 1484.58 245 241 236
616.911 -48.2996 1484.58 245 241 236
110.49 82.892 1276.22 195 119 82
821.172 122.282 1678.98 134 125 101
-122.176 94.4601 1103.73 164 110 107
796.589 153.028 1664.37 243 251 246
767.5 164.599 1654.94 248 255 254
-11.2439 198.617 1195.53 251 254 249
764.885 305.985 1747.31 203 230 221
-7.01561 269.569 1248.13 249 255 253
-341.211 -258.659 881.733 75 71 58
176.371 -452.413 1606.87 66 47 32
-192.208 -186.806 777.909 93 95 92
531.415 -303.358 1486.02 82 60 61
-1052.9 -374.345 2025.3 76 76 71
496.947 -251.346 1451.28 14 9 7
530.473 -33.2978 1553.43 81 81 68
781.558 56.3899 1600.8 251 250 240
-24.6763 54.7234 1163.52 251 255 254
972.788 100.907 1874.89 119 118 93
972.788 100.907 1874.89 119 118 93
-6.19601 102.795 1194.68 136 86 72
-6.19601 102.795 1194.68 136 86 72
-6.19601 102.795 1194.68 136 86 72
-103.301 101.188 1128.05 255 252 246
65.1653 207.139 1272.41 188 152 123
65.1653 207.139 1272.41 188 152 123
-110.054 261.951 1178.86 147 52 30
-115.866 286.439 1183.72 244 244 246
-81.0562 282.892 1153.7 182 110 106
-81.0562 282.892 1153.7 182 110 106
-40.8651 435.875 1277.26 75 65 64
-19.2987 -72.9809 276.36 77 79 66
-328.942 -263.376 1009.18 102 98 87
-561.664 -225.697 936.025 134 153 143
-581.216 -176.655 946.071 129 145 137
686.324 -143.264 1503.84 112 93 77
-179.658 26.2251 1071.93 193 173 136
-74.8993 41.2763 1139.71 236 155 120
-97.812 45.8773 1097.76 251 248 251
894.121 94.6482 1735.99 115 110 92
894.121 94.6482 1735.99 115 110 92
91.873 105.255 1247.29 242 221 209
-163.667 93.9176 1102.99 243 231 222
-48.545 136.679 1180.68 244 218 200
-85.0826 150.446 1154.58 238 194 161
-60.6909 229.268 1199.95 250 229 210
-78.6978 335.128 1216.39 228 153 121
310.311 -319.22 1093.45 43 39 32
-455.744 -155.433 893.24 117 130 125
-429.934 -179.474 1281.49 152 133 109
741.275 -54.1311 1535.23 141 110 96
912.832 51.6512 1663.35 142 158 124
-188.879 69.4806 1137.12 102 55 50
589.063 123.37 1624.41 67 57 46
139.581 197.678 1316.38 231 211 206
-77.5264 425.662 1262.8 238 224 212
-327.156 -218.786 1058.73 96 78 64
-327.156 -218.786 1058.73 96 78 64
-327.156 -218.786 1058.73 96 78 64
804.732 -300.633 1474.11 135 157 135
819.044 -25.5578 1489.43 209 219 206
-46.1619 67.5383 1144.53 253 255 248
-147.399 141.57 1133.42 252 247 255
7.11459 364.893 1263.8 165 189 136
-505.567 -136.065 1124.34 75 58 37
62.7021 -58.2056 1171.71 230 185 142
464.958 -242.097 1649.26 56 47 35
821.596 218.414 1773.4 229 248 245
534.823 -198.327 1425.84 48 42 35
594.544 414.279 1830.58 204 204 195
-55.5048 -67.4327 1181.34 54 82 90
-13.3395 28.1203 1162.87 243 212 200
3.63099 147.787 1160.04 182 162 152
3.63099 147.787 1160.04 182 162 152
