645.674 -213.553 1364.76 129 108 107
653.358 -95.3743 1382.73 192 174 153
652.996 -70.1648 1399.35 255 247 230
808.369 -26.7187 1431.77 208 215 205
536.925 -20.3502 1511.2 108 107 92
687.193 20.402 1425.23 245 229 206
628.195 54.1515 1446.23 7 2 0
637.475 81.7678 1446.51 186 173 153
822.041 127.132 1564.37 134 120 101
794.214 144.366 1542.63 234 228 218
37.8643 141.198 1111.53 110 57 55
684.845 218.593 1644.57 71 100 102
44.222 184.448 1115.71 255 247 238
725.397 328.277 1664.17 219 247 255
-13.9354 247.65 1155.46 252 249 242
70.6572 265.052 1143.38 253 252 245
-6.55455 380.555 1136.02 31 26 23
607.206 -263.044 1363.62 88 50 41
693.635 -248.088 1415.7 170 166 161
621.975 -164.964 1330.41 161 163 150
804.375 -111.898 1428.03 231 245 231
574.135 -81.4997 1382.47 79 54 59
806.421 -84.7059 1446.92 148 170 154
628.807 -79.0263 1364.16 113 102 77
709.103 -54.6052 1445.62 255 248 246
495.047 -49.0164 1432.42 42 38 26
568.654 -41.1678 1324.97 89 63 58
-1.2009 27.4766 1059.27 255 223 204
-0.546722 45.5269 1050.56 255 241 224
617.231 121.877 1686.69 98 97 90
-59.9944 81.2658 1035.38 245 254 244
162.146 131.83 1195.69 255 249 228
171.543 171.728 1207.44 255 248 219
56.6735 160.384 1083.79 119 84 64
78.6093 204.111 1186.69 244 235 228
633.118 284.184 1626.41 138 151 151
68.3366 210.454 1195.1 253 252 251
626.936 294.569 1636.15 46 49 45
-91.1647 220.588 1047.52 143 115 103
-3.89302 355.182 1143.03 255 251 246
-55.9089 349.093 1099.25 252 247 243
-4.97356 387.8 1133.83 254 255 249
647.782 -133.546 1342.95 235 227 205
664.759 -57.4448 1413.36 144 106 98
716.735 23.5803 1397.54 181 181 184
716.735 23.5803 1397.54 181 181 184
-35.9304 45.9231 1027.77 210 122 103
-81.3119 93.2387 1048.09 227 236 237
-56.8331 103.877 1047.25 255 247 241
640.165 173.411 1465.75 41 28 16
155.021 154.184 1174.24 225 163 119
-99.9589 156.262 1022.72 250 251 252
819.385 252.593 1613.84 186 203 200
600.501 261.022 1505.17 66 89 90
-87.9334 207.305 1048.71 255 255 242
22.7598 216.367 1091.64 231 172 176
-9.09384 258.055 1106.77 125 85 69
192.866 288.188 1226.53 193 154 126
90.0553 296.904 1206.69 246 253 250
-73.4606 273.295 1072.97 234 239 236
-56.961 302.051 1132.27 172 119 116
155.902 374.785 1198.75 77 75 67
155.902 374.785 1198.75 77 75 67
-27.3976 436.719 1131.83 242 229 219
490.32 -210.632 1349.69 4 4 5
570.475 -118.429 1349.93 22 7 2
718.239 -91.5766 1386.25 253 252 247
640.732 -41.8464 1381.75 253 253 252
750.681 308.204 1643.16 223 246 242
-69.6169 337.213 1113.14 78 65 59
53.0531 458.16 1270.33 255 252 247
-37.3917 423.199 1133.83 65 55 51
487.353 -230.483 1390.3 162 158 161
656.819 -114.884 1370.08 105 88 77
709.222 -120.201 1488.25 105 88 77
615.1 3.14035 1390.19 237 241 239
615.1 3.14035 1390.19 237 241 239
767.561 73.3475 1508.08 255 255 238
-31.6187 265.312 1103.81 253 247 246
-31.6187 265.312 1103.81 253 247 246
-57.9299 311.557 1097.92 252 254 255
0.393942 407.018 1141.54 67 59 63
694.933 -166.361 1277.16 85 82 72
848.37 -98.6525 1502.77 179 201 179
-28.7475 49.8356 1028.69 214 130 103
-50.7736 53.4352 997.049 255 251 242
826.577 105.524 1551.97 129 120 97
826.577 105.524 1551.97 129 120 97
123.611 111.987 1155.07 253 241 234
-110.461 98.7478 1010.5 243 235 227
-4.77476 137.375 1070.11 236 212 199
43.1228 141.99 1112.26 107 65 54
43.1228 141.99 1112.26 107 65 54
114.888 225.329 1173.4 250 253 250
-13.1558 250.744 1107.29 192 127 114
-13.1558 250.744 1107.29 192 127 114
-19.2178 341.367 1106.47 254 250 248
-135.436 78.2753 1056.98 87 51 39
161.047 190.475 1174.2 217 214 203
-115.478 183.139 1063.47 115 93 78
13.7818 266.852 1114.35 252 254 251
-31.9162 400.389 1138.28 246 236 226
832.031 -8.78675 1466.6 168 171 156
-3.99293 76.0042 1056.73 255 251 246
-3.99293 76.0042 1056.73 255 251 246
609.756 184.367 1756.67 160 152 142
-96.0798 143.254 1035.01 252 250 252
45.4331 350.035 1157.35 167 187 141
750.1 -251.023 1419.33 93 88 84
645.542 10.1159 1225.68 254 253 252
760.046 16.67 1435.28 255 252 253
523.35 68.7405 1601.89 51 44 42
651.497 318.613 1737.8 83 76 70
521.066 -162.916 1310.98 56 47 45
521.066 -162.916 1310.98 56 47 45
576.894 401.04 1669.29 202 202 195
755.749 -241.719 1501.88 86 70 67
776.647 -38.8894 1504.64 159 142 134
45.2324 150.937 1096.04 47 10 6
45.2324 150.937 1096.04 47 10 6
