175.228 -686.394 3108.06 49 32 23
175.228 -686.394 3108.06 49 32 23
-396.714 -43.9995 1296.62 38 27 14
-500.732 -27.1255 1320.41 173 164 159
-459.408 6.86043 1348.19 101 93 74
-119.786 15.8776 1045.07 74 80 65
-119.786 15.8776 1045.07 74 80 65
-478.448 54.0751 1313.86 122 126 110
-367.957 71.2598 1398.34 143 120 106
-492.839 99.5387 1404.62 125 119 99
-497.28 99.9798 1366.38 169 154 135
-498.939 101.831 1395.32 28 17 4
-117.797 68.1679 924.564 254 238 234
-151.793 75.6123 875.55 172 171 176
-485.063 137.411 1400.35 15 5 0
28.0195 80.1895 833.973 218 223 215
21.2296 90.672 871.023 230 229 219
15.2169 86.2443 813.82 229 231 223
-453.491 150.582 1276.79 173 146 125
2.52772 101.503 853.763 218 220 208
-481.963 164.282 1363.69 185 150 120
-27.3946 122.049 844.754 242 244 229
-213.567 132.051 844.413 61 60 46
45.5705 159.763 940.267 96 75 65
-410.282 316.183 1411.23 85 58 53
55.6496 223.96 910.655 58 15 3
-113.959 193.156 790.1 29 31 25
108.785 356.59 1009.76 175 201 205
120.946 347.917 961.489 81 40 28
-96.8329 348.112 849.027 255 254 242
161.098 436.207 1033.63 216 202 184
144.137 406.197 957.758 227 212 196
-1464.97 -300.043 3203.05 136 144 140
-374.783 -53.9158 1313.18 50 29 10
-323.908 -54.1555 1305.33 38 32 25
-380.015 -49.2512 1380.41 159 133 111
-334.577 -15.7884 1365.38 73 82 75
-431.896 23.0177 1295.48 179 164 142
-328.335 47.5958 1387.38 61 9 5
-328.02 62.6174 1461.02 196 145 125
-173.232 104.292 877.313 229 252 249
-173.232 104.292 877.313 229 252 249
80.3403 157.576 918.017 161 123 104
80.3403 157.576 918.017 161 123 104
86.7844 152.583 881.4 65 33 15
-153.678 152.132 763.752 249 254 248
-87.6513 163.799 807.978 34 31 29
-118.629 174.435 779.398 238 232 226
-405.699 331.205 1328.91 255 251 242
-405.699 331.205 1328.91 255 251 242
-101.195 199.012 806.815 58 61 70
-458.327 380.703 1490.36 112 111 109
-113.138 212.099 791.64 42 48 42
46.5635 281.597 908.176 42 62 78
46.5635 281.597 908.176 42 62 78
-26.2494 328.885 873.196 232 228 226
-90.8523 317.722 837.992 120 113 108
174.203 406.65 1000.22 189 161 147
107.988 490.62 1030.36 74 98 94
-102.063 482.527 1000.59 254 254 250
35.3063 -650.049 2194.38 58 52 40
-547.372 -82.1963 1466.21 154 153 142
-485.502 -48.375 1332.21 71 102 102
-419.624 -38.355 1331.93 19 18 11
-458.377 -5.73009 1333.1 32 10 4
-458.377 -5.73009 1333.1 32 10 4
-494.2 -0.550265 1210.11 141 117 88
-461.311 0.0159153 1284.77 180 158 135
-461.311 0.0159153 1284.77 180 158 135
-461.311 0.0159153 1284.77 180 158 135
-118.83 24.5123 1015.44 242 245 244
-74.9586 45.3834 946.042 119 83 66
-140.806 55.6669 928.763 19 24 30
44.8297 85.8279 844.036 155 122 92
-93.554 105.3 836.382 75 80 75
-207.514 135.774 846.617 77 90 82
-101.617 166.746 789.866 24 37 44
-74.993 176.106 825.162 23 43 43
-139.091 173.379 756.959 51 38 29
-81.8641 228.364 803.331 40 32 31
-81.8641 228.364 803.331 40 32 31
89.4407 279.269 947.647 130 157 150
5.31345 277.753 890.685 225 228 226
5.31345 277.753 890.685 225 228 226
58.5075 302.035 917.358 29 49 56
181.074 401.749 1020.27 63 40 32
181.074 401.749 1020.27 63 40 32
95.3197 486.28 1026 150 166 160
-57.0471 408.817 864.316 117 112 109
-57.0471 408.817 864.316 117 112 109
-330.79 -88.3394 1367.7 117 100 79
-297.732 -48.176 1172.65 57 50 45
-541.371 -28.2312 1330.76 73 107 99
-541.371 -28.2312 1330.76 73 107 99
-13.8761 9.74768 960.76 77 82 67
-13.8761 9.74768 960.76 77 82 67
-222.255 120.237 845.389 85 68 57
-172.691 152.123 787.606 226 239 226
-75.0344 177.644 833.428 23 43 43
93.2399 246.756 938.424 190 170 152
-31.4362 301.748 869.518 200 180 164
-225.798 390.222 1109.31 254 255 251
-35.7865 320.22 866.234 56 35 27
90.7713 479.183 1005.45 155 171 165
184.955 -743.452 3296.38 72 57 45
-137.684 93.2906 877.07 146 203 198
36.4318 96.0026 871.113 52 53 54
93.1025 164.125 924.417 55 32 25
-436.692 349.377 1493.34 164 118 94
151.747 312.19 993.243 76 53 38
118.832 359.534 1000.81 100 60 58
69.4106 -931.35 3168.76 68 57 41
-390.018 -46.2832 1343.41 75 60 41
-299.405 55.48 1436.39 53 36 34
-335.711 76.349 1396.04 86 67 57
-86.077 63.5579 962.499 226 208 200
-180.967 96.7154 1064.97 141 105 103
-249.07 130.49 881.967 192 195 184
97.4752 309.688 943.827 78 66 71
-13.894 325.93 885.201 186 188 184
-408.868 7.99007 1334.03 184 181 168
-467.479 218.404 1349.91 254 250 235
-92.2681 177.957 806.472 191 197 193
-92.2681 177.957 806.472 191 197 193
12.1936 313.972 891.457 162 75 50
-349.306 -60.2375 1427.61 39 32 25
-368.634 58.9663 1381.44 212 189 172
-484.305 158.393 1305.32 254 252 241
106.435 188.554 929.896 57 39 32
34.1944 205.301 887.569 199 151 125
34.1944 205.301 887.569 199 151 125
-57.8541 213.251 845.619 48 41 40
60.4337 247.934 915.87 49 37 32
60.4337 247.934 915.87 49 37 32
-129.283 157.132 771.834 53 43 40
-326.667 341.382 1242.21 108 107 107
-326.667 341.382 1242.21 108 107 107
-33.8197 181.408 827.289 49 43 36
-90.4282 280.177 840.631 64 57 55
-42.6999 379.087 863.146 61 57 54
-20.982 181.309 827.559 60 54 47
