320.478 -203.241 1688.72 131 107 103
349.742 -117.711 1643.3 158 153 137
309.681 -54.4972 1573.63 42 14 10
439.375 241.322 1973.91 40 27 17
-25.5245 152.553 1153.14 188 123 110
-25.5245 152.553 1153.14 188 123 110
279.054 275.112 1826.51 40 62 69
56.2696 189.849 1237.3 171 161 139
402.379 341.322 1882.59 187 207 209
48.3706 217.524 1196.11 255 255 242
-185.917 261.893 1187.25 65 25 13
29.4006 338.168 1204.78 239 244 221
-32.9708 313.954 1095.74 169 136 138
-100.509 362.466 1109.87 41 25 17
-1511.48 -528.473 2649.32 90 95 86
-1404.45 -448.368 3133.1 136 140 135
345.171 -234.54 1845.6 192 188 192
-429.648 -108.914 936.765 138 143 139
-429.648 -108.914 936.765 138 143 139
226.287 -54.9969 1666.76 109 108 84
371.841 41.2563 1663.91 255 252 250
498.262 124.11 1855.73 249 249 232
475.331 167.689 1845 163 149 126
-95.6316 117.189 1058.71 79 23 12
-123.865 129.249 1076.5 161 136 129
24.7524 144.081 1203.95 160 101 83
35.9208 156.829 1247.06 252 242 218
-196.785 166.136 1122.59 67 25 19
328.033 261.734 1785.42 110 141 144
43.304 183.304 1210.99 254 253 239
303.102 298.563 1844.27 65 85 90
49.0283 201.852 1213.91 255 249 239
49.0283 201.852 1213.91 255 249 239
478.641 345.037 1993.2 246 255 253
318.214 367.825 1933.67 141 163 157
-57.1679 224.413 1057.67 254 251 237
-57.1679 224.413 1057.67 254 251 237
24.904 252.826 1158.22 255 250 245
-115.838 289.503 1158.47 114 105 84
-115.838 289.503 1158.47 114 105 84
68.4409 364.217 1279.81 254 255 239
-151.135 357.242 1172.58 146 106 98
-67.3516 364.527 1119.47 150 100 79
419.172 -231.182 1788.71 202 225 227
-687.805 -146.695 1315.91 74 73 64
199.344 -144.969 1580.08 86 92 65
337.49 -75.3879 1624.6 66 33 19
351.98 -62.6803 1629.78 253 247 246
-22.4785 -15.1633 1276.2 161 163 169
-76.1368 -15.2567 1222.88 166 156 166
-76.1368 -15.2567 1222.88 166 156 166
440.076 26.1201 1774.71 141 122 106
443.697 191.357 1823.65 136 122 99
154.275 182.045 1688.25 51 47 34
72.1062 134.586 1219.31 255 251 253
-46.8337 126.754 1077.88 164 137 119
38.5529 195.639 1209.08 164 126 112
38.5529 195.639 1209.08 164 126 112
43.374 216.882 1231.7 148 116 111
418.896 359.071 1905.05 246 255 253
64.5732 347.37 1289.64 254 254 243
-33.405 370.073 1165.84 253 255 254
-34.6487 384.21 1135.27 254 247 245
-80.8485 428.279 1213.01 53 37 27
-15.7464 471.767 1154.65 243 238 225
359.998 -85.412 1640.63 255 251 249
-197.551 0.571233 1253.63 55 37 27
-197.551 0.571233 1253.63 55 37 27
418.065 228.223 1886.15 51 33 18
31.3221 170.674 1242.43 162 113 83
-37.7465 285.396 1119.13 180 108 90
-126.405 295.664 1139.63 57 33 28
-21.2644 316.389 1146.2 154 113 114
5.58623 447.871 1200.85 106 81 75
5.58623 447.871 1200.85 106 81 75
-27.36 464.529 1167.01 30 18 13
-792.89 -174.413 1763.72 62 64 60
14.3589 -22.0062 1270.1 71 104 118
277.594 57.14 1848.93 107 112 90
-80.2771 60.0519 1027.28 208 181 158
-70.6454 124.659 1054.73 247 251 255
387.14 244.356 1805.15 224 238 230
-20.0149 180.664 1138.07 253 225 195
61.1692 209.707 1250.67 246 248 254
105.398 232.128 1328.63 255 254 251
-34.5392 222.544 1102.61 243 206 178
-41.5771 310.65 1130.52 254 250 253
-48.7961 368.353 1124.32 83 59 58
-19.7822 8.34823 1153.99 78 73 70
-19.7822 8.34823 1153.99 78 73 70
283.199 286.123 1823.42 83 97 111
283.199 286.123 1823.42 83 97 111
-113.713 200.961 1114.5 77 61 44
13.9513 305.861 1192.26 255 249 255
13.9513 305.861 1192.26 255 249 255
-19.2757 431.406 1164.24 253 250 253
453.681 -27.2799 1765 246 245 242
-175.023 138.714 1085.46 157 96 69
-175.023 138.714 1085.46 157 96 69
-108.457 140.216 1065.69 166 118 93
-165.377 218.563 1124.76 160 96 63
-580.897 -200.062 1399.72 114 121 110
-133.755 363.591 1189.03 147 89 58
-58.4552 422.957 1150.94 55 46 46
-256.997 135.394 1199.1 75 52 38
-107.176 224.237 1109.65 74 57 39
187.507 131.138 1727.91 99 85 80
363.663 159.756 1788.98 52 44 40
363.663 159.756 1788.98 52 44 40
270.602 385.346 1909.33 84 77 65
270.602 385.346 1909.33 84 77 65
44.1851 540.267 1285.19 84 83 79
400.921 -0.436968 1589.73 255 253 251
-285.441 -13.653 1456.86 142 131 118
-180.722 176.08 1135.87 147 96 54
