-201.113 -602.984 1753.32 120 116 106
-46.3902 -369.711 1111.68 16 2 0
-150.828 -575.584 1865.08 148 136 120
-283.48 -491.582 1707.53 142 130 121
-283.48 -491.582 1707.53 142 130 121
539.181 -174.91 995.666 239 250 239
557.646 -210.771 1264.08 135 126 118
259.627 164.902 -1098.63 182 165 145
-799.126 -269.498 1792.87 66 78 71
115.593 81.6316 -558.849 64 49 32
-782.898 -397.579 2802.45 73 62 43
634.076 -186.091 1371.2 140 115 105
-1227.3 -342.193 2603.29 66 76 69
753.523 -168.167 1462.99 228 222 194
-1132.29 -221.661 1980.25 68 24 12
-1093.09 -290.486 2645.35 72 67 46
-962.994 -272.932 2489.44 172 165 139
530.106 -162.249 1512.75 101 101 78
678.498 -82.1624 1399.53 92 66 62
553.872 -70.0798 1353.07 105 88 81
553.872 -70.0798 1353.07 105 88 81
697.324 -72.7191 1440.53 240 218 215
640.907 -40.7539 1276.86 245 244 234
554.696 -50.3498 1459.48 94 79 65
57.0779 -34.6276 990.321 229 180 161
660.761 -40.4282 1377.38 248 239 235
657.718 -21.165 1379.27 238 223 201
-201.951 -8.0094 1208.59 106 67 41
137.22 -0.0469823 1160.88 189 124 102
25.4425 81.9602 1179.75 255 244 226
692.376 106.662 1515.29 142 135 123
645.819 190.865 1695.7 30 46 44
152.734 164.262 1188.16 255 253 239
713.423 272.969 1674.16 140 191 213
734.993 269.619 1628.42 186 211 213
107.595 266.941 1228.75 119 110 102
24.633 341.253 1180.81 46 40 24
24.633 341.253 1180.81 46 40 24
-787.05 -547.02 1848.85 54 55 43
-754.964 -539.063 2135.65 79 80 68
602.736 -270.119 1322.29 35 34 40
-871.351 -409.876 2029.17 51 62 57
635.11 -263.15 1316.28 173 170 150
635.11 -263.15 1316.28 173 170 150
458.563 -223.694 1297.25 150 150 145
713.382 -239.586 1439.74 107 97 79
695.737 -222.157 1405.4 200 196 177
617.128 -201.661 1323.66 158 162 144
577.729 -197.315 1337.48 157 147 134
-1334.3 -245.128 2335.73 106 94 79
-686.531 -171.924 1655.72 162 149 124
828.733 -147.136 1490.38 152 160 146
-101.627 -118.48 1427.38 66 46 41
-101.627 -118.48 1427.38 66 46 41
55.7716 -94.0549 1129.97 153 150 155
55.7716 -94.0549 1129.97 153 150 155
710.207 -99.0576 1459.57 255 250 242
816.21 -21.0079 1455.45 156 156 146
-138.226 -2.53757 1214.38 69 42 23
141.724 4.53316 1133.61 255 240 214
-64.6395 27.1784 1005.26 244 253 250
-22.6296 39.6881 1060.28 234 252 239
158.133 101.256 1163.02 196 164 132
680.002 178.498 1544.71 199 242 251
65.9623 154.623 1173.55 254 252 245
796.57 229.552 1627.75 180 192 188
724.419 260.828 1841.06 72 102 103
685.923 228.411 1569.97 160 188 191
-8.46175 235.535 1187.41 255 248 248
-34.8382 207.307 992.947 245 255 248
26.8724 308.959 1162.33 253 253 245
-92.6387 388.841 1429.69 104 67 49
-724.302 -543.942 1736.26 24 23 22
-108.06 -380.506 1228.54 164 156 138
-925.901 -684.437 2254.83 152 159 153
-320.075 -429.425 1853.89 156 156 150
-203.707 -627.065 2801.49 147 118 82
637.931 -281.141 1328.4 33 39 38
-534.643 -420.151 2041.9 152 155 147
-1334.3 -511.536 2667.09 153 172 161
576.811 -236.289 1264.12 56 50 46
576.811 -236.289 1264.12 56 50 46
726.53 -161.195 1366.56 244 245 219
575.06 -129.302 1351.29 77 62 56
587.633 -116.766 1353.65 254 252 247
62.4501 -54.9588 1083.25 193 132 97
647.956 -68.7375 1373.87 169 126 112
683.055 -54.7936 1403.51 89 64 55
-147.981 -36.8604 1149.3 174 156 135
-24.3078 -32.0741 1160.56 214 195 169
-56.9842 -32.4955 1189.82 160 131 92
-38.9776 -24.9402 1140.41 219 190 165
-38.9776 -24.9402 1140.41 219 190 165
607.533 -19.8439 1423.15 25 8 5
646.175 -3.86537 1426.04 179 175 150
24.2731 5.73925 1097.3 207 124 101
162.186 15.6054 1176.45 183 112 87
791.687 31.7594 1487.92 236 238 226
791.687 31.7594 1487.92 236 238 226
164.75 44.6607 1155.13 197 133 99
-42.3167 51.2378 1089.3 230 253 242
-18.9505 60.9939 1068.61 255 252 238
-18.9505 60.9939 1068.61 255 252 238
95.533 109.079 1117.44 255 248 221
95.533 109.079 1117.44 255 248 221
-63.3679 117.095 1067.02 254 252 254
-63.3679 117.095 1067.02 254 252 254
751.842 236.982 1633.19 155 187 194
-51.9597 165.281 1070.51 255 250 233
732.557 344.894 1910.25 58 74 66
25.9458 218.665 1159.72 105 47 42
124.086 244.805 1223.86 253 253 245
-22.3812 311.747 1148.02 250 250 250
188.463 361.497 1303.72 49 53 57
7.87876 420.729 1242.66 228 217 197
15.7733 551.24 1301.58 77 92 83
428.526 -538.228 2007.94 92 68 49
-312.925 -418.585 1803.6 159 155 153
575.649 -159.187 1356.41 41 13 8
601.275 -140.179 1324.17 94 90 89
669.168 -110.133 1260.59 254 255 245
631.875 -81.9269 1371.25 255 247 244
92.4914 -50.1653 1097.53 89 33 17
616.168 -40.3405 1398.67 249 252 250
731.523 25.8139 1467.96 254 255 240
781.308 252.772 1621.19 144 173 189
781.308 252.772 1621.19 144 173 189
719.877 338.723 1879.12 58 74 66
34.1915 380.651 1226.57 79 63 62
-7.43983 376.404 1154.18 74 61 45
-244.526 -406.709 1664.16 116 119 109
-556.984 -463.313 2084.84 87 88 84
-556.984 -463.313 2084.84 87 88 84
-556.984 -463.313 2084.84 87 88 84
659.018 -250.032 1326.7 81 65 60
511.895 -253.814 1392.06 16 11 10
-1209.77 -260.526 1822.35 72 74 65
-1090.85 -233.532 1640.28 72 74 65
-1.20591 -56.3751 1081.54 101 75 59
-18.1778 65.4383 1075.72 255 253 249
-38.0213 78.2131 1079.87 251 255 255
-38.0213 78.2131 1079.87 251 255 255
77.7915 97.8103 1137.07 143 86 62
77.7915 97.8103 1137.07 143 86 62
155.192 113.06 1173.51 212 183 172
66.6572 121.127 1138.9 249 220 201
-26.7762 211.052 1104.23 154 75 51
33.3332 263.336 1174.5 121 96 81
13.2252 310.388 1177.13 247 250 251
-879.914 -660.727 2100.57 58 57 56
-40.5995 -550.124 2145.4 81 78 72
-110.088 -526.278 2133.76 81 76 68
-1271.84 -397.989 1963 60 67 60
-1271.84 -397.989 1963 60 67 60
594.409 -162.346 1339.84 253 255 255
793.441 -134.111 1437.12 180 193 182
91.7079 -102.069 1150.02 64 93 109
-178.93 15.9039 1166.32 109 80 64
845.535 21.2939 1533.18 152 158 128
-72.7683 57.9789 1043.47 246 241 230
127.084 139.506 1200.79 252 254 249
147.673 182.601 1219.07 254 248 249
-31.6728 234.317 1114.18 244 245 240
473.088 -517.607 1884.4 40 35 26
-743.804 -499.589 1918.26 133 144 137
-743.804 -499.589 1918.26 133 144 137
-1359.16 -424.626 2105.44 58 66 59
-1272.46 -395.933 1973.62 58 66 59
-1037.14 -345.981 1785.62 129 144 136
804.172 -45.5859 1451.52 131 133 113
4.02764 54.4716 1072.51 211 124 100
47.8197 225.223 1149.5 253 253 249
47.8197 225.223 1149.5 253 253 249
-0.125791 354.986 1163.57 245 238 229
35.4092 -499.393 1665.14 119 122 112
-733.858 -422.628 1991.52 132 141 136
-560.129 -310.527 1630.22 91 75 60
-560.129 -310.527 1630.22 91 75 60
-102.869 34.4472 1114.53 76 52 45
34.2702 35.1246 1112.68 255 253 255
34.2702 35.1246 1112.68 255 253 255
76.4097 302.422 1174.78 175 193 150
41.7991 342.888 1182.98 81 63 62
-38.1209 397.949 1222.24 58 51 49
-1060.14 -222.656 2203.28 73 63 43
751.413 -107.857 1438.88 255 253 250
751.413 -107.857 1438.88 255 253 250
737.445 -29.7178 1418.04 253 252 251
590.758 131.175 1747.74 164 156 145
-88.4295 -505.022 1724 138 137 133
415.523 -208.496 1381.07 52 48 38
748.757 -25.2511 1445.23 250 249 247
627.907 264.648 1723.31 81 74 65
-1076.42 -384.786 1945.51 135 147 140
540.265 -203.179 1349.54 53 47 40
24.3932 -84.862 1109.45 74 101 106
692.927 -259.834 1392.8 88 71 64
64.3505 -2.98285 1094.66 255 219 203
-1406.94 -234.232 2542.31 67 58 41
-1406.94 -234.232 2542.31 67 58 41
81.9689 105.107 1146.43 206 142 124
81.9689 105.107 1146.43 206 142 124
81.9689 105.107 1146.43 206 142 124
